# .PCD v0.7 - Point Cloud Data file format
VERSION 0.7
FIELDS x y z
SIZE 4 4 4
TYPE F F F
COUNT 1 1 1
WIDTH 1507
HEIGHT 1
VIEWPOINT 0 0 0 1 0 0 0
POINTS 1507
DATA ascii
15.680186 -3.7008603 -1.9781833
21.651224 -5.1141424 -1.946362
34.355251 -8.1275692 -1.8501809
64.291847 -15.233497 -1.1532899
7.4002132 -1.7643445 -2.0384588
8.5143652 -2.0331194 -2.0209603
10.091647 -2.4116158 -2.0168512
12.300921 -2.944109 -2.0033
15.682616 -3.7592738 -1.9801333
21.629364 -5.1887589 -1.9460133
34.377167 -8.259573 -1.8529024
64.302444 -15.473264 -1.1544418
7.3827434 -1.7874376 -2.0353529
8.5110044 -2.0637465 -2.0218601
10.096522 -2.4500682 -2.0195224
12.29057 -2.9870293 -2.0033
15.669397 -3.8139935 -1.9801333
21.60725 -5.2632842 -1.9456648
34.359764 -8.3823614 -1.8535303
61.588684 -15.04787 -1.1066571
7.3689556 -1.8113527 -2.0332825
8.5018559 -2.0929768 -2.02141
10.09744 -2.4876449 -2.0214307
12.274314 -3.0284934 -2.0023613
15.652136 -3.8677144 -1.9796458
21.584877 -5.337719 -1.9453162
34.41172 -8.5224133 -1.8579265
61.529957 -15.261318 -1.1065524
7.3775826 -1.8408056 -2.0374236
8.4850464 -2.1202791 -2.0191607
10.102027 -2.5262105 -2.024102
12.267501 -3.0722799 -2.0029871
15.64239 -3.9232926 -1.9801333
21.566114 -5.4130321 -1.9453162
34.308155 -8.6239786 -1.853949
7.37673 -1.8679698 -2.0389764
8.4794817 -2.1503634 -2.0196106
10.074118 -2.5566282 -2.0202856
12.26053 -3.116056 -2.0036128
15.632448 -3.9788501 -1.9806207
21.539364 -5.4863114 -1.9446188
34.304939 -8.750596 -1.8554146
58.724945 -15.001551 -1.0579649
7.3626809 -1.8917849 -2.036906
8.4832468 -2.1828628 -2.02231
10.074638 -2.5942259 -2.0221939
12.249579 -3.1588347 -2.0036128
15.610776 -4.0314078 -1.9796458
21.531656 -5.564456 -1.9456648
34.254848 -8.8652849 -1.8543679
7.3448157 -1.9145502 -2.0338001
8.4793472 -2.2134461 -2.0232098
10.094013 -2.6368201 -2.0279181
12.240389 -3.2020741 -2.0039258
15.611969 -4.0898991 -1.9815956
21.508247 -5.6385713 -1.9453162
34.208241 -8.9807463 -1.8535303
56.079475 -14.743563 -1.0121349
7.3455586 -1.9421518 -2.0358706
8.4678011 -2.2420337 -2.02231
10.084748 -2.6720386 -2.0279181
12.21959 -3.2422485 -2.0023613
15.605273 -4.14641 -1.9825708
21.47303 -5.7095184 -1.9439217
34.184402 -9.1021547 -1.853949
7.340601 -1.9682814 -2.0363884
8.4523945 -2.2695563 -2.0205104
10.079152 -2.7082438 -2.0286815
12.217736 -3.2874494 -2.0039258
15.579203 -4.1977582 -1.9811082
21.460665 -5.7865129 -1.9446188
34.160137 -9.2235079 -1.8543679
53.091766 -14.345142 -0.95995218
7.3430061 -1.9964268 -2.0389764
8.4485836 -2.2985961 -2.02141
10.073425 -2.7444422 -2.0294447
12.216296 -3.3305447 -2.0054901
15.561369 -4.2483521 -1.9806207
21.463398 -5.8676944 -1.9467106
34.171745 -9.3483315 -1.8566706
52.979656 -14.513473 -0.95883524
7.3307581 -2.0192273 -2.0374236
8.4536581 -2.3317008 -2.0245595
10.056699 -2.7757423 -2.0279181
12.202693 -3.3726413 -2.0051773
15.554095 -4.3047628 -1.9815956
21.416939 -5.9313922 -1.9442703
34.096561 -9.4558134 -1.8543679
7.312501 -2.041687 -2.0343177
8.4548521 -2.3638186 -2.026809
10.05073 -2.8118877 -2.0286815
12.190845 -3.4152157 -2.0051773
15.550444 -4.3622484 -1.9830582
21.407614 -6.009346 -1.9453162
34.121029 -9.5909882 -1.8575079
7.3164825 -2.0703559 -2.0374236
51.924282 -14.702879 0.94197619
8.4465485 -2.3933172 -2.026809
10.040854 -2.8469543 -2.0286815
12.180751 -3.4582882 -2.0054901
15.542758 -4.4186735 -1.9840331
21.398005 -6.0873075 -1.946362
34.048927 -9.699091 -1.8554146
52.930531 -15.097636 -0.96075499
7.3147821 -2.0974801 -2.0389764
8.4269037 -2.4195597 -2.0241096
10.034629 -2.88307 -2.0294447
12.174299 -3.5024242 -2.0064287
15.504349 -4.4663072 -1.9811082
21.361311 -6.1575489 -1.9449676
34.110809 -9.8455791 -1.8606482
49.669319 -14.355096 -0.90246397
7.3129816 -2.1246173 -2.0405295
8.4333773 -2.4533148 -2.027709
10.016963 -2.915885 -2.0279181
12.15631 -3.5432415 -2.0054901
15.496287 -4.5226254 -1.9820831
21.335861 -6.2309585 -1.9446188
33.980385 -9.9365587 -1.8554146
49.534466 -14.503662 -0.90092814
7.2999611 -2.1484952 -2.0389764
8.4266319 -2.4832892 -2.0281587
10.004841 -2.9502778 -2.0275364
12.155235 -3.589009 -2.0073674
15.488023 -4.5789409 -1.9830582
21.279593 -6.2952237 -1.9414812
34.041245 -10.083476 -1.8606482
49.48737 -14.67762 -0.90099794
7.2887144 -2.1728601 -2.0379412
8.4496565 -2.5221636 -2.0358069
10.000125 -2.9868689 -2.0286815
12.153989 -3.6348133 -2.0092444
15.475746 -4.6341157 -1.9835457
21.284208 -6.377471 -1.9439217
34.005836 -10.202239 -1.8606482
49.49712 -14.868682 -0.90211487
7.2847838 -2.1994057 -2.0389764
8.4314737 -2.5488238 -2.0335574
10.000913 -3.0251679 -2.0309711
12.12232 -3.6714902 -2.0061157
15.474673 -4.6927161 -1.9854957
21.238939 -6.4447851 -1.9418299
47.110897 -14.33135 -0.85953104
7.2899947 -2.2287748 -2.0425999
8.413208 -2.5753875 -2.0313082
9.9865379 -3.0589094 -2.0302079
12.116985 -3.7160997 -2.0073674
15.439223 -4.7408776 -1.9830582
21.242975 -6.5270758 -1.9442703
33.838337 -10.410031 -1.8554146
47.098801 -14.507482 -0.86022907
7.2840157 -2.2547793 -2.0431178
8.4041672 -2.6047394 -2.0313082
9.9739246 -3.0931687 -2.0298262
12.107713 -3.7595446 -2.007993
15.418788 -4.7935624 -1.9825708
21.227673 -6.6035557 -1.9449676
33.706448 -10.498389 -1.8501809
47.036427 -14.66823 -0.86001974
7.2742567 -2.2796137 -2.0425999
8.4024611 -2.6363931 -2.0331075
9.9611931 -3.1273775 -2.0294447
12.102054 -3.8041551 -2.0092444
15.394386 -4.8449707 -1.9815956
21.189289 -6.6728263 -1.943573
33.719124 -10.631598 -1.8529024
7.2662554 -2.304992 -2.0425999
8.3950644 -2.6662967 -2.0335574
9.9576998 -3.1645079 -2.0309711
12.088701 -3.8463759 -2.0092444
15.392513 -4.9034986 -1.9835457
21.181055 -6.7515912 -1.9449676
33.700829 -10.755305 -1.853949
7.2618442 -2.3315229 -2.0436354
8.3857059 -2.6955848 -2.0335574
9.9503317 -3.2004499 -2.0317342
12.067679 -3.8861279 -2.007993
15.390418 -4.9620714 -1.9854957
21.168734 -6.8291554 -1.9460133
33.689693 -10.881474 -1.8554146
7.2573361 -2.3580515 -2.0446706
8.3706865 -2.7230318 -2.0322077
9.9428329 -3.2363787 -2.0324974
12.072823 -3.9343488 -2.0111217
15.380551 -5.0182271 -1.9864705
21.163708 -6.9091897 -1.9477565
33.55658 -10.967981 -1.8501809
7.2674127 -2.3894036 -2.0498469
8.3648319 -2.7534525 -2.0331075
9.9314747 -3.2710662 -2.0324974
12.062767 -3.9777043 -2.0117474
15.344974 -5.062983 -1.9840331
21.13946 -6.9830227 -1.9477565
33.567398 -11.101355 -1.8529024
7.2264514 -2.4025197 -2.0405295
8.3519573 -2.7799456 -2.0322077
9.9056711 -3.2990193 -2.0294447
12.053259 -4.0189338 -2.0123732
15.335631 -5.1163535 -1.985008
21.131306 -7.058135 -1.9491509
33.530399 -11.212608 -1.8529024
7.2221069 -2.4277012 -2.0415647
8.3556223 -2.8119776 -2.0353572
9.9095621 -3.3368614 -2.0324974
12.047352 -4.0614052 -2.0136247
15.326107 -5.1697187 -1.985983
21.175741 -7.1511192 -1.9554262
33.481678 -11.319899 -1.8522744
7.2268205 -2.4559886 -2.0451882
8.3462515 -2.8396702 -2.0353572
9.8984423 -3.3697045 -2.0324974
12.02634 -4.0987844 -2.0123732
15.320151 -5.2243581 -1.9874454
21.091572 -7.2007022 -1.9498483
33.436398 -11.428281 -1.8518558
8.3163614 -2.8668005 -2.0308583
9.8885469 -3.4106922 -2.0332606
12.017258 -4.1496072 -2.0136247
15.268115 -5.2781072 -1.9835457
21.066261 -7.286613 -1.9501969
33.3978 -11.565025 -1.8522744
7.241024 -2.5215912 -2.0545056
8.3099842 -2.8970952 -2.0317578
9.8765812 -3.4451892 -2.0332606
12.006429 -4.1928325 -2.0142503
15.26084 -5.3353014 -1.985008
21.06703 -7.3693137 -1.9526372
33.262978 -11.648527 -1.8470407
7.2121344 -2.5397935 -2.0488117
8.3090105 -2.9293249 -2.0340075
9.8607922 -3.4783378 -2.0324974
12.002896 -4.2386637 -2.0161276
15.242124 -5.3885388 -1.985008
21.014879 -7.4335046 -1.9501969
33.327545 -11.801904 -1.8529024
7.1850257 -2.5584726 -2.0436354
8.3102646 -2.9607863 -2.0367069
9.8596859 -3.5166943 -2.0347872
11.985055 -4.2771163 -2.015502
15.235388 -5.4430618 -1.9864705
20.973795 -7.5014472 -1.9488024
33.23933 -11.894858 -1.8501809
7.1892262 -2.586863 -2.0472586
8.2943783 -2.9877954 -2.0353572
9.8442764 -3.5480397 -2.034024
11.955186 -4.3135624 -2.0129991
15.216295 -5.4962101 -1.9864705
20.986282 -7.5845013 -1.9522886
33.197609 -12.010812 -1.8501809
7.1910453 -2.6159053 -2.0503645
8.2825937 -3.0146172 -2.0349073
9.8355207 -3.5837252 -2.0347872
11.953807 -4.3579192 -2.0151892
15.186796 -5.5425549 -1.985008
20.944708 -7.6522412 -1.9508941
33.108826 -12.103006 -1.8474596
7.1968369 -2.6450686 -2.0545056
8.2720194 -3.0435107 -2.0349073
9.8272667 -3.6176775 -2.0355504
11.942229 -4.4009852 -2.0158148
15.178532 -5.5996556 -1.9864705
20.926693 -7.7244143 -1.9515913
33.021412 -12.201889 -1.8449473
7.1730733 -2.6647921 -2.0503645
8.2704792 -3.0757637 -2.0371568
9.8108988 -3.6505899 -2.0347872
11.937901 -4.4467821 -2.0176921
15.162612 -5.6539917 -1.9869579
20.90707 -7.8002005 -1.9522886
33.034748 -12.338045 -1.8480874
7.1601105 -2.6884565 -2.0493293
8.2651634 -3.1066709 -2.0385065
9.7980967 -3.684814 -2.0347872
11.922306 -4.4884257 -2.0176921
15.150213 -5.7096844 -1.9879328
20.875986 -7.8717275 -1.9519401
32.965321 -12.443409 -1.846622
7.1452632 -2.7113771 -2.0477762
8.2433386 -3.1313508 -2.0358069
9.790679 -3.7210855 -2.0359321
11.897335 -4.5265031 -2.0161276
15.137612 -5.7653613 -1.9889079
20.863276 -7.9502244 -1.9533345
32.891827 -12.547013 -1.8449473
7.1465783 -2.7404528 -2.0508821
8.2305393 -3.1594081 -2.0353572
9.7831297 -3.7573507 -2.037077
11.877774 -4.5665874 -2.015502
15.098868 -5.8110352 -1.9864705
20.850271 -8.0287304 -1.954729
32.847828 -12.66175 -1.8449473
7.1315651 -2.763288 -2.0493293
8.2194614 -3.1881185 -2.0353572
9.7699547 -3.7914774 -2.037077
11.867285 -4.6101665 -2.0164404
15.06739 -5.8593874 -1.985008
20.848114 -8.111577 -1.9571693
32.803429 -12.776334 -1.8449473
7.1272721 -2.7902777 -2.0508821
8.2209816 -3.2217677 -2.0385065
9.7493486 -3.8226912 -2.0355504
11.869509 -4.6587801 -2.0195692
15.046846 -5.9119468 -1.985008
20.799702 -8.1806421 -1.9554262
32.773499 -12.89661 -1.8457847
7.1134057 -2.8149605 -2.0498469
8.2114983 -3.2511621 -2.0389564
9.7370968 -3.8591213 -2.0359321
11.837664 -4.696425 -2.0170662
15.048258 -5.9732223 -1.9879328
20.774721 -8.2546673 -1.9557748
32.733437 -13.019598 -1.8462033
7.0981545 -2.8376222 -2.0482941
8.1995277 -3.2812369 -2.0389564
9.7308578 -3.8960061 -2.0374587
11.823032 -4.7384529 -2.017379
15.018894 -6.0253801 -1.9869579
20.734688 -8.3226824 -1.954729
32.66555 -13.124845 -1.8449473
7.0935802 -2.8645523 -2.0498469
8.1813745 -3.3054895 -2.0371568
9.7226591 -3.9321578 -2.0386035
11.814578 -4.7805967 -2.0186305
14.984112 -6.06919 -1.985008
20.694431 -8.3905172 -1.953683
32.577427 -13.215077 -1.8424352
7.1037192 -2.8960822 -2.055541
8.1751976 -3.3362362 -2.0385065
9.716836 -3.9673457 -2.0401299
11.814277 -4.8285346 -2.0214465
14.959162 -6.1199546 -1.9845206
20.687141 -8.4717636 -1.9557748
32.483047 -13.309024 -1.8397137
7.0859122 -2.9191554 -2.0534704
8.1580982 -3.3625255 -2.0371568
9.6985998 -4.0014358 -2.0393667
11.803802 -4.8748193 -2.0226979
14.941377 -6.1736503 -1.985008
20.646397 -8.5393553 -1.954729
32.375 -13.403543 -1.8363642
7.0542755 -2.934967 -2.0472586
8.1565132 -3.3968987 -2.0398562
9.6845732 -4.0352654 -2.0393667
11.781244 -4.9137115 -2.0217593
14.922313 -6.2299018 -1.9854957
20.594402 -8.6021576 -1.9526372
32.346443 -13.524177 -1.8374109
7.0528932 -2.9633148 -2.0498469
39.248798 -16.498676 0.74315834
8.1392155 -3.4230828 -2.0385065
9.6686201 -4.0682855 -2.038985
11.758559 -4.9525061 -2.0208206
14.907793 -6.2850366 -1.9864705
20.578938 -8.6801872 -1.9540318
32.357918 -13.661863 -1.8407604
7.0442848 -2.9886706 -2.0503645
39.165199 -16.62464 0.7426697
8.1182489 -3.4476647 -2.0362568
9.6597805 -4.1043129 -2.0401299
11.735747 -4.9912009 -2.019882
14.879561 -6.3313293 -1.9854957
20.541178 -8.7488461 -1.9533345
32.310028 -13.774732 -1.8407604
7.0378866 -3.0135348 -2.0513999
39.161324 -16.776472 0.74364704
8.1175194 -3.4791732 -2.0389564
9.6425076 -4.1347761 -2.0393667
11.720945 -5.0308695 -2.020195
14.843892 -6.3743711 -1.9835457
20.508392 -8.8153419 -1.9529859
32.220142 -13.862852 -1.8382483
7.0314012 -3.038389 -2.0524352
39.116486 -16.911005 0.74385649
8.1148796 -3.5099409 -2.0412059
9.6125269 -4.1597118 -2.0359321
11.715075 -5.0744209 -2.0220721
14.833601 -6.4282961 -1.985008
20.460768 -8.8753719 -1.9512427
32.18132 -13.972804 -1.8386669
7.0124335 -3.0578287 -2.0498469
39.023533 -17.024637 0.74315834
8.0960512 -3.5337131 -2.0394061
9.6148729 -4.1986365 -2.0393667
11.685513 -5.1077037 -2.019882
14.804927 -6.4742684 -1.9840331
20.431225 -8.9431734 -1.9512427
32.043339 -14.039371 -1.8334334
7.0153222 -3.0897388 -2.053988
8.0955286 -3.5688658 -2.0425556
9.5994196 -4.2338486 -2.0393667
11.664907 -5.1497016 -2.0195692
14.787222 -6.534277 -1.985008
20.4056 -9.0212212 -1.9519401
32.035503 -14.176117 -1.8359455
6.9939027 -3.1094992 -2.0508821
8.0669966 -3.5899715 -2.0385065
9.589963 -4.2697268 -2.0405114
11.645056 -5.1895838 -2.0192564
14.771576 -6.5890894 -1.985983
20.373985 -9.0923948 -1.9519401
75.253944 -33.646954 -1.4388812
6.9953432 -3.1394305 -2.0545056
8.0561943 -3.6189072 -2.0389564
9.5642557 -4.298347 -2.0382218
11.62687 -5.2302012 -2.0192564
14.788305 -6.6585412 -1.9913452
20.338488 -9.1618204 -1.9515913
32.183376 -14.511067 -1.8501809
6.9861016 -3.1646266 -2.0550234
8.054162 -3.651835 -2.0416558
9.5348902 -4.3252182 -2.0351689
11.619334 -5.2756548 -2.0211337
14.714371 -6.6871247 -1.9845206
20.310013 -9.2344084 -1.9519401
6.9609571 -3.1825674 -2.0508821
8.0395937 -3.6791162 -2.0412059
9.5304451 -4.3633785 -2.0374587
11.600848 -5.3161817 -2.0211337
14.681917 -6.7343087 -1.9833018
20.268785 -9.3054619 -1.9512427
32.444283 -14.902125 -1.8711153
6.9650321 -3.2153463 -2.055541
8.0267019 -3.7071569 -2.0412059
9.5143881 -4.3982797 -2.0374587
11.568735 -5.3528585 -2.0189433
14.660122 -6.7863512 -1.9835457
20.232565 -9.3744802 -1.9508941
32.342331 -14.999089 -1.8683938
6.9555168 -3.2404552 -2.0560586
8.007762 -3.734081 -2.0398562
9.4900818 -4.4273143 -2.0355504
11.55177 -5.3940439 -2.0192564
14.663924 -6.8534856 -1.9874454
20.203327 -9.4467363 -1.9512427
32.63348 -15.272751 -1.8882815
6.9441633 -3.2647147 -2.0560586
7.9929156 -3.7611802 -2.0394061
9.4816751 -4.4637589 -2.037077
11.523936 -5.4301243 -2.0176921
14.62914 -6.8995504 -1.985983
20.181042 -9.5223026 -1.9522886
32.644981 -15.417274 -1.8920496
6.9309793 -3.2881067 -2.055541
7.9885397 -3.7932377 -2.0416558
9.4571686 -4.4926167 -2.0351689
11.515615 -5.4754066 -2.0195692
14.608552 -6.9522791 -1.9864705
20.122494 -9.580698 -1.9498483
6.9072623 -3.3064413 -2.0519176
7.984705 -3.8239162 -2.0439053
9.4449701 -4.527298 -2.0359321
11.488489 -5.5092926 -2.0180049
14.578259 -6.9972491 -1.9854957
20.088928 -9.6508808 -1.9498483
32.539284 -15.639123 -1.8920496
6.8997388 -3.331008 -2.0529528
7.9642897 -3.8483732 -2.0421057
9.4299049 -4.5585938 -2.0359321
11.454963 -5.5424795 -2.015502
14.56089 -7.0515547 -1.9864705
20.058704 -9.7226839 -1.9501969
6.8944302 -3.3596597 -2.0550234
7.9490561 -3.8752966 -2.0416558
9.4131327 -4.5931258 -2.0359321
11.438121 -5.5861602 -2.0161276
14.536188 -7.1023383 -1.9864705
20.017485 -9.7891407 -1.9494997
32.713566 -16.012054 -1.9087971
6.8861284 -3.3854101 -2.0560586
7.9347997 -3.9044054 -2.0416558
9.404089 -4.6294241 -2.0374587
11.427412 -5.6304178 -2.0176921
14.495816 -7.1485453 -1.9845206
20.001059 -9.8677711 -1.9512427
32.729111 -16.161518 -1.912984
6.8621545 -3.4034176 -2.0524352
7.9253001 -3.9324293 -2.0425556
9.3755636 -4.6561103 -2.0347872
11.398064 -5.6630077 -2.0158148
14.48625 -7.2036462 -1.9864705
19.945087 -9.9268732 -1.9491509
32.711094 -16.287769 -1.9150776
6.8560138 -3.4287469 -2.053988
7.9184957 -3.9635587 -2.0443552
9.3688488 -4.6915698 -2.0366955
11.371162 -5.6992192 -2.0145633
14.468114 -7.2577291 -1.9874454
19.897814 -9.9858103 -1.9477565
32.975296 -16.563219 -1.9339186
6.8405538 -3.4509177 -2.0529528
7.9011326 -3.9894185 -2.0434554
9.3454056 -4.7207036 -2.0351689
11.335333 -5.7308559 -2.0117474
14.442691 -7.3081884 -1.9874454
19.85928 -10.053406 -1.947408
32.967163 -16.703497 -1.9368494
6.8474054 -3.4844124 -2.0586467
7.8697939 -4.0081301 -2.0389564
9.342864 -4.7604275 -2.0382218
11.327579 -5.7766705 -2.0139375
14.420629 -7.3603625 -1.9879328
19.848907 -10.135352 -1.9498483
33.267906 -17.002073 -1.957993
6.8369198 -3.5091753 -2.0591643
7.8703284 -4.041327 -2.0425556
9.317461 -4.7885242 -2.0363138
11.306602 -5.8132992 -2.0136247
14.392612 -7.4063263 -1.9874454
19.841751 -10.219172 -1.9526372
30.565943 -15.749246 -1.8020319
6.8166666 -3.527389 -2.0565763
7.8596339 -4.0705667 -2.0434554
9.3032722 -4.8202982 -2.0366955
11.291503 -5.8554592 -2.0145633
14.356101 -7.451035 -1.985983
19.797144 -10.279405 -1.9515913
30.042908 -15.6127 -1.7743986
6.7888985 -3.5431178 -2.0519176
7.8488312 -4.099782 -2.0443552
9.2863894 -4.8527436 -2.0366955
11.272745 -5.8957539 -2.0148761
14.333521 -7.5029421 -1.9864705
19.75761 -10.346599 -1.9512427
30.200506 -15.828734 -1.7869591
6.7970028 -3.5775912 -2.0581291
7.8241277 -4.1217046 -2.0416558
9.2728682 -4.88696 -2.0374587
11.239865 -5.928616 -2.012686
14.310753 -7.5547829 -1.9869579
19.740694 -10.430113 -1.9533345
30.028532 -15.872458 -1.7800506
6.7855515 -3.6033854 -2.0586467
7.799367 -4.1435056 -2.0389564
9.2548933 -4.9209142 -2.0374587
11.223291 -5.9725561 -2.0136247
14.287801 -7.6065564 -1.9874454
19.693619 -10.493337 -1.9522886
30.248604 -16.130901 -1.7965889
6.7797437 -3.6306975 -2.0607173
7.7909985 -4.175746 -2.040756
9.2393904 -4.9541173 -2.0378401
11.205857 -6.0135646 -2.0142503
14.25283 -7.6551161 -1.9864705
19.665554 -10.571107 -1.9533345
30.462999 -16.382067 -1.8127084
6.7578926 -3.6509309 -2.0581291
7.7849469 -4.2075491 -2.0430055
9.2090826 -4.9814095 -2.0351689
11.185478 -6.0555363 -2.0145633
14.226022 -7.7048211 -1.9864705
19.635542 -10.643487 -1.9540318
30.441376 -16.514563 -1.815011
6.7311187 -3.6638312 -2.0534704
7.7658172 -4.230545 -2.0416558
9.1968346 -5.0121956 -2.0359321
11.171602 -6.0934849 -2.015502
14.203877 -7.7538557 -1.9869579
19.603636 -10.710452 -1.9543804
6.7362719 -3.6987052 -2.0591643
7.7492943 -4.2566886 -2.0412059
9.1680813 -5.040195 -2.0336425
11.135347 -6.1267719 -2.0129991
14.183681 -7.8072181 -1.9879328
19.576599 -10.784584 -1.9554262
30.552137 -16.844818 -1.8284091
6.7233205 -3.7221963 -2.0591643
7.7302313 -4.2831736 -2.0403061
9.1641684 -5.0797811 -2.0366955
11.131166 -6.1751866 -2.0161276
14.151501 -7.8572249 -1.9874454
19.549286 -10.858659 -1.9564722
31.746536 -17.648129 -1.9035636
6.7018523 -3.7409348 -2.0565763
7.7091799 -4.3049836 -2.0385065
9.1412401 -5.1088657 -2.0355504
11.112351 -6.2130289 -2.0164404
14.097651 -7.8886003 -1.9835457
19.518215 -10.930726 -1.9571693
31.813292 -17.823595 -1.9111
6.7028794 -3.7707155 -2.0607173
32.297016 -18.176159 0.64689088
7.6992002 -4.3347363 -2.0398562
9.1191158 -5.136261 -2.0344057
11.099201 -6.2566304 -2.0180049
14.090775 -7.9494667 -1.9864705
19.457569 -10.98168 -1.954729
32.182159 -18.178141 -1.9370586
6.6879959 -3.7931371 -2.0601997
7.689868 -4.3631287 -2.0412059
9.0925951 -5.1632142 -2.0324974
11.071522 -6.2894988 -2.0167532
14.085045 -8.0079231 -1.9893954
19.446823 -11.065298 -1.957518
32.309158 -18.391468 -1.9483631
6.6653175 -3.8095427 -2.0570939
7.6745911 -4.3899446 -2.0412059
9.0822401 -5.1972384 -2.034024
11.046072 -6.3261447 -2.0161276
14.046671 -8.0511169 -1.9879328
19.39274 -11.119815 -1.9557748
32.005711 -18.366951 -1.9339186
6.6636958 -3.8395371 -2.0607173
31.830942 -18.347986 0.64130616
7.6507797 -4.41184 -2.0389564
9.0793476 -5.2377386 -2.0374587
11.04445 -6.3765163 -2.019882
14.015045 -8.098114 -1.9874454
19.360706 -11.191429 -1.9564722
6.6535945 -3.8647151 -2.0617526
31.618008 -18.372583 0.63830429
7.6437569 -4.4434161 -2.0412059
9.0491295 -5.2624903 -2.0347872
11.035783 -6.4229789 -2.0223849
13.979832 -8.1429901 -1.9864705
19.33185 -11.264961 -1.957518
6.6233926 -3.8781555 -2.0565763
31.512274 -18.45858 0.63746661
7.6282001 -4.4700708 -2.0412059
9.0137672 -5.2841172 -2.0309711
11.021814 -6.4664602 -2.0239494
13.954744 -8.1937485 -1.9869579
19.288975 -11.330355 -1.9571693
6.6197963 -3.9071431 -2.0596819
7.6209393 -4.501627 -2.0434554
9.0020285 -5.3195438 -2.0324974
10.997475 -6.5038877 -2.0236366
13.943141 -8.2525206 -1.9893954
19.232162 -11.387466 -1.9554262
6.6127591 -3.9341786 -2.0617526
7.601831 -4.5262074 -2.0425556
8.9867783 -5.3529434 -2.0332606
10.949253 -6.5270653 -2.0189433
13.924478 -8.3072433 -1.9908577
19.216248 -11.468824 -1.9578665
6.5940151 -3.9542563 -2.0601997
7.5726171 -4.5446925 -2.0389564
8.978137 -5.3903451 -2.0355504
10.923017 -6.56321 -2.0183177
13.895395 -8.3557978 -1.9908577
19.179512 -11.537886 -1.9582151
33.088997 -19.921196 -2.0241456
6.5851326 -3.9802475 -2.0617526
7.5617094 -4.5741243 -2.0403061
8.952549 -5.4175858 -2.034024
10.906799 -6.6053925 -2.0195692
13.849168 -8.3939629 -1.9884202
19.135714 -11.602697 -1.9578665
33.138783 -20.109108 -2.0314727
6.5744982 -4.0052199 -2.0627878
7.5590072 -4.6086068 -2.0439053
8.9201736 -5.4406242 -2.0309711
10.897163 -6.6516571 -2.0220721
13.826559 -8.446393 -1.9893954
19.091696 -11.667346 -1.957518
33.569321 -20.531029 -2.0622463
6.5538917 -4.0241013 -2.0607173
7.5445352 -4.6359849 -2.0443552
8.9178534 -5.4820099 -2.0347872
10.873878 -6.6896548 -2.0220721
13.824038 -8.5112572 -1.9932952
19.033888 -11.723468 -1.9557748
33.633465 -20.731928 -2.0706201
6.5430913 -4.0489879 -2.0617526
7.5249925 -4.6602402 -2.0434554
8.8969946 -5.5120716 -2.0344057
10.83871 -6.7202845 -2.019882
13.787498 -8.555275 -1.9923203
18.99962 -11.794042 -1.9564722
33.703403 -20.937735 -2.0794125
6.5289178 -4.0718026 -2.0617526
7.5078449 -4.6841369 -2.0430055
8.8826952 -5.5462136 -2.0355504
10.807987 -6.7509575 -2.0183177
13.755683 -8.5988436 -1.9918326
18.958338 -11.860291 -1.9564722
33.985935 -21.269775 -2.1011841
6.5219221 -4.0975413 -2.0638232
7.4848485 -4.7061663 -2.0412059
8.8592691 -5.5725036 -2.0344057
10.79773 -6.7970614 -2.0208206
13.725584 -8.6468067 -1.9918326
18.915531 -11.920968 -1.9561234
34.147987 -21.537443 -2.1158383
6.4847288 -4.1058145 -2.0565763
7.4774332 -4.7361751 -2.0434554
8.8397636 -5.6033936 -2.0344057
10.773462 -6.8317733 -2.0205078
13.703541 -8.6965303 -1.9928077
18.887259 -11.995469 -1.957518
34.393307 -21.851925 -2.1355164
6.4775925 -4.1314511 -2.0586467
7.4608545 -4.7622471 -2.0434554
8.8178244 -5.6305633 -2.0336425
10.73457 -6.8597646 -2.0176921
13.67979 -8.7485895 -1.9937826
18.825134 -12.048436 -1.9554262
34.606129 -22.157084 -2.1535201
6.4737811 -4.1624789 -2.0622702
7.4491029 -4.7914238 -2.044805
8.803731 -5.6670957 -2.0351689
10.702711 -6.8947835 -2.0164404
13.672527 -8.8113422 -1.9971949
18.78631 -12.116234 -1.9557748
34.917355 -22.537216 -2.1780133
6.4494843 -4.1787481 -2.0591643
7.4167762 -4.8091521 -2.040756
8.7838955 -5.6977911 -2.0351689
10.681893 -6.9342518 -2.0170662
13.630154 -8.854907 -1.9957327
18.748459 -12.189353 -1.9564722
6.4308896 -4.2002459 -2.0581291
7.4064693 -4.8392768 -2.0425556
8.7695255 -5.7342463 -2.0366955
10.667977 -6.9809284 -2.0192564
13.605804 -8.9067802 -1.9967074
18.702461 -12.252539 -1.9561234
6.4362931 -4.2342896 -2.0643408
7.392787 -4.8672433 -2.0434554
8.7406244 -5.7568154 -2.0344057
10.631574 -7.0075684 -2.0167532
13.574631 -8.9542198 -1.9967074
18.658401 -12.312297 -1.9557748
6.3941002 -4.2385855 -2.055541
7.3790002 -4.8951735 -2.0443552
8.7204762 -5.7872915 -2.0344057
10.603757 -7.0424519 -2.0161276
13.55321 -9.0081425 -1.9981698
18.608675 -12.372938 -1.9550776
6.3856916 -4.2651701 -2.0576115
7.3570075 -4.9176526 -2.0430055
8.706749 -5.8220606 -2.0359321
10.572543 -7.0750294 -2.0148761
13.531581 -9.0620232 -1.9996324
18.578613 -12.446691 -1.9564722
6.3755722 -4.2906704 -2.0591643
7.3300986 -4.9367714 -2.0403061
8.6847458 -5.8513203 -2.0355504
10.559247 -7.1196208 -2.0170662
13.496575 -9.1069822 -1.9991449
18.541658 -12.515926 -1.9571693
6.3605566 -4.3128996 -2.0591643
7.3160467 -4.9645166 -2.0412059
8.6626434 -5.8804979 -2.0351689
10.524528 -7.149776 -2.0151892
13.474553 -9.1607351 -2.0006073
18.507742 -12.587294 -1.9582151
6.3422728 -4.3328958 -2.0581291
7.2986722 -4.9900246 -2.0412059
8.6388226 -5.908484 -2.0344057
10.509286 -7.1931643 -2.0170662
13.449046 -9.212203 -2.0015824
18.443968 -12.638306 -1.9561234
6.3271093 -4.3550081 -2.0581291
7.2844186 -5.0176816 -2.0421057
8.6181459 -5.9386029 -2.0344057
10.474356 -7.2230763 -2.0151892
13.42661 -9.2658567 -2.0030446
18.409578 -12.709404 -1.9571693
6.3134565 -4.3781681 -2.0586467
7.2652588 -5.0419674 -2.0416558
8.6038141 -5.9731278 -2.0359321
10.445833 -7.2573409 -2.0145633
13.394185 -9.3126678 -2.0030446
18.378185 -12.782688 -1.9585637
6.2949677 -4.3979673 -2.0576115
7.2508097 -5.0695314 -2.0425556
8.5764771 -5.9986234 -2.0344057
10.425294 -7.2971568 -2.015502
13.355092 -9.3548098 -2.0020697
18.33672 -12.849051 -1.9589125
6.2953758 -4.4310331 -2.0627878
7.2235103 -5.0880771 -2.0398562
8.5699282 -6.038702 -2.0378401
10.401372 -7.3346419 -2.0158148
13.315867 -9.3967905 -2.0010948
18.304775 -12.92217 -1.9603069
6.2704148 -4.4462762 -2.0596819
7.2104726 -5.1166439 -2.0412059
8.5375919 -6.0606246 -2.0351689
10.385368 -7.377769 -2.0176921
13.29593 -9.4524183 -2.0030446
18.2693 -12.992915 -1.9613528
6.2454247 -4.4614 -2.0565763
7.2004957 -5.1474481 -2.0434554
8.5243692 -6.0961008 -2.037077
10.348307 -7.4059291 -2.015502
13.262853 -9.4987726 -2.0030446
18.220596 -13.054288 -1.9610043
6.2360854 -4.4876862 -2.0586467
7.1777387 -5.1691346 -2.0421057
8.4998522 -6.1235237 -2.0363138
10.317585 -7.4385395 -2.0145633
13.248934 -9.5589476 -2.0059695
18.168455 -13.113145 -1.9603069
6.2219467 -4.5105615 -2.0591643
7.1517653 -5.188437 -2.0398562
8.4927254 -6.1635337 -2.0397482
10.297951 -7.4791532 -2.0158148
13.225121 -9.6121378 -2.007432
18.119347 -13.174142 -1.9599583
6.2014837 -4.5288343 -2.0576115
7.1446242 -5.2214184 -2.0430055
8.4584799 -6.1838722 -2.0366955
10.279753 -7.5208864 -2.017379
13.201097 -9.6652803 -2.0088944
18.086109 -13.246729 -1.9613528
6.1887493 -4.5527434 -2.0586467
7.1272707 -5.2450819 -2.0430055
8.4463272 -6.220346 -2.038985
10.249983 -7.5514188 -2.0164404
13.168974 -9.7090034 -2.0088944
18.042967 -13.312146 -1.9617014
6.1643043 -4.5663419 -2.055541
7.1136146 -5.2734103 -2.0443552
8.4288082 -6.250659 -2.0397482
10.22039 -7.5847969 -2.0158148
13.144564 -9.7620144 -2.0103569
17.995523 -13.369531 -1.9613528
6.1560683 -4.5936079 -2.0581291
7.0920401 -5.2958775 -2.0434554
8.4037914 -6.2776937 -2.038985
10.204926 -7.628706 -2.0180049
13.148558 -9.8363771 -2.0162065
17.958317 -13.439425 -1.9623986
6.1477175 -4.620872 -2.0607173
7.0703964 -5.3182588 -2.0425556
8.3990831 -6.3199739 -2.0431828
10.173501 -7.6607165 -2.0170662
13.206092 -9.9515028 -2.0303433
17.920841 -13.509227 -1.9634446
6.1284695 -4.6399717 -2.0596819
7.0564489 -5.346436 -2.0439053
8.3754072 -6.3480687 -2.0428011
10.159289 -7.7057328 -2.0195692
13.225034 -10.038347 -2.0386305
17.89579 -13.588568 -1.9658849
6.1153078 -4.6636786 -2.0607173
7.0315461 -5.3663058 -2.0421057
8.343833 -6.3701177 -2.0405114
10.122911 -7.7339525 -2.0176921
13.2183 -10.106153 -2.0430176
17.851414 -13.653374 -1.9662335
6.0836716 -4.6732278 -2.055541
7.0266776 -5.4015079 -2.0461547
8.3293285 -6.4051881 -2.0424197
10.098984 -7.7716494 -2.0183177
13.189234 -10.157078 -2.0439928
17.813116 -13.722898 -1.9672793
6.0642653 -4.692071 -2.0545056
7.0016165 -5.4212308 -2.0443552
8.3177843 -6.4426384 -2.0450909
10.071794 -7.8068547 -2.0183177
13.144287 -10.195753 -2.0425303
17.783997 -13.799652 -1.9693711
6.0615644 -4.7238984 -2.0591643
6.9734297 -5.4384465 -2.0416558
8.2983398 -6.4740491 -2.0458541
10.041368 -7.8395333 -2.0176921
13.080461 -10.219576 -2.0381432
17.732578 -13.859193 -1.9690225
6.0419989 -4.7426424 -2.0581291
6.9620657 -5.4687738 -2.0439053
8.2664289 -6.4956985 -2.0435643
10.013942 -7.874536 -2.0176921
13.019748 -10.245532 -2.0342433
17.699747 -13.933331 -1.9707656
6.0208611 -4.7601099 -2.0565763
6.9475183 -5.4966702 -2.0452549
8.2390862 -6.5208592 -2.0424197
9.992588 -7.9143491 -2.0189433
12.946569 -10.261323 -2.0283935
17.66037 -14.002456 -1.9718114
6.0117645 -4.7871151 -2.0591643
6.9343853 -5.5257463 -2.0470545
8.2178097 -6.5508027 -2.0428011
9.958724 -7.9442544 -2.0176921
12.892055 -10.291591 -2.0254686
17.595818 -14.051584 -1.9700685
5.9874825 -4.8020277 -2.0565763
6.9150548 -5.5499182 -2.0470545
8.1933622 -6.5782189 -2.0424197
9.9417124 -7.9876285 -2.019882
12.846768 -10.329066 -2.0240064
17.56529 -14.127903 -1.97216
5.9797006 -4.8301816 -2.0596819
6.8804851 -5.5617723 -2.0425556
8.1779823 -6.6129518 -2.0443277
9.9137688 -8.0222836 -2.019882
12.795208 -10.361356 -2.021569
17.531349 -14.201672 -1.9739032
5.9598069 -4.848587 -2.0586467
6.8680491 -5.589478 -2.0443552
8.1487608 -6.6364985 -2.0428011
9.8794546 -8.0488758 -2.0183177
12.753086 -10.397457 -2.0203502
17.484755 -14.265301 -1.9742517
5.9392118 -4.8646517 -2.0570939
6.85151 -5.6158886 -2.0452549
8.126708 -6.6634846 -2.0428011
9.8512974 -8.083312 -2.0183177
12.727453 -10.450728 -2.0220563
17.452751 -14.33585 -1.9759949
5.9192142 -4.882895 -2.0560586
6.8423862 -5.6484556 -2.0484045
8.1064262 -6.6943116 -2.0435643
9.8199768 -8.1151342 -2.0176921
12.700073 -10.502682 -2.0235186
17.408743 -14.401764 -1.9766922
5.9080777 -4.9084654 -2.0581291
6.8091412 -5.6610923 -2.0443552
8.0860271 -6.7250781 -2.0443277
9.7915897 -8.1493626 -2.0176921
12.660285 -10.544409 -2.0230312
17.370611 -14.472648 -1.9780867
5.8879452 -4.9265785 -2.0570939
6.7863498 -5.6823239 -2.0434554
8.0564833 -6.7482204 -2.0428011
9.7540007 -8.1758785 -2.0158148
12.641651 -10.603846 -2.0259562
17.353563 -14.561369 -1.9819216
5.875144 -4.9508362 -2.0586467
6.7739224 -5.7122598 -2.0457051
8.035881 -6.7788334 -2.0435643
9.7359676 -8.2187967 -2.0180049
12.607593 -10.65047 -2.0264435
17.317846 -14.634715 -1.9836646
5.8445697 -4.9600644 -2.053988
6.749486 -5.7320857 -2.0443552
8.0106726 -6.8055706 -2.0431828
9.7192583 -8.2629662 -2.0205078
12.564292 -10.689269 -2.0254686
17.266657 -14.695075 -1.9836646
5.8301573 -4.9829454 -2.0550234
6.7368407 -5.7619443 -2.0466046
7.9838843 -6.8309398 -2.0424197
9.6798534 -8.2878494 -2.0183177
12.541977 -10.745977 -2.0279062
17.218283 -14.757852 -1.9840133
5.8171215 -5.0070467 -2.0565763
6.7166867 -5.7854252 -2.0466046
7.971889 -6.86902 -2.0454724
9.634409 -8.3073988 -2.0148761
12.516413 -10.800067 -2.029856
17.163645 -14.81526 -1.9836646
5.7996078 -5.0273218 -2.0565763
6.6890907 -5.8024511 -2.0443552
7.952312 -6.9006648 -2.0466175
9.6187754 -8.3526344 -2.0176921
12.478638 -10.84369 -2.029856
17.779459 -15.455448 -2.061059
5.7820234 -5.0475364 -2.0565763
6.67173 -5.8283286 -2.0452549
7.9222627 -6.9232135 -2.0450909
9.5940218 -8.3900604 -2.0186305
12.431747 -10.87934 -2.0283935
18.163137 -15.900627 -2.1119578
5.7672706 -5.0702395 -2.0576115
6.6542716 -5.8541565 -2.0461547
7.8906784 -6.9443398 -2.0431828
9.5557804 -8.4156656 -2.0167532
12.399653 -10.927918 -2.0293684
17.423038 -15.360473 -2.0321233
5.7408586 -5.0826559 -2.0545056
6.6396303 -5.8825178 -2.0479543
7.863452 -6.9692369 -2.0424197
9.5411263 -8.4620781 -2.019882
12.367369 -10.976404 -2.0303433
17.957827 -15.943703 -2.1009762
5.7274079 -5.1065216 -2.0560586
6.6132407 -5.9004688 -2.0461547
7.8464003 -7.0031796 -2.0443277
9.5056353 -8.4900675 -2.0186305
12.337859 -11.027446 -2.031806
17.945135 -16.044804 -2.1060314
5.7124228 -5.1290641 -2.0570939
6.589704 -5.9209123 -2.0452549
7.8233671 -7.0318389 -2.0447092
9.4847546 -8.5311222 -2.0205078
12.302244 -11.073102 -2.0322933
17.891979 -16.110012 -2.10638
5.6930513 -5.1476774 -2.0565763
6.5747757 -5.9491086 -2.0470545
7.7914963 -7.0525174 -2.0428011
9.4519892 -8.5615263 -2.019882
12.248807 -11.102646 -2.029856
17.580296 -15.940837 -2.0762241
5.6779046 -5.1701198 -2.0576115
6.5550117 -5.9708786 -2.0470545
7.7639294 -7.0770264 -2.042038
9.4220867 -8.5914927 -2.0195692
12.229519 -11.159259 -2.0327806
17.481876 -15.963145 -2.0711691
5.6550326 -5.1836982 -2.055541
6.5398746 -5.9989929 -2.0488544
7.7476506 -7.1093702 -2.043946
9.394949 -8.6270008 -2.020195
12.18757 -11.199194 -2.0322933
17.38044 -15.976536 -2.0654168
5.6383228 -5.2047172 -2.0560586
6.5228086 -6.0232911 -2.0497539
7.7242289 -7.1377034 -2.0443277
9.360487 -8.6527452 -2.0189433
12.156191 -11.244939 -2.0332682
17.290936 -16.005978 -2.0614076
20.079576 -18.593893 -1.4342147
5.6201205 -5.2243667 -2.0560586
6.4978342 -6.0445032 -2.0488544
7.7021408 -7.1672974 -2.0450909
9.3301563 -8.6883411 -2.0192564
12.117801 -11.292127 -2.0337558
17.245161 -16.075747 -2.0626278
5.611722 -5.2531939 -2.0596819
6.4724288 -6.0631509 -2.0475044
7.6785078 -7.1954823 -2.0454724
9.3040943 -8.7249107 -2.020195
12.075413 -11.331638 -2.0332682
17.151173 -16.100389 -2.0580957
5.5877285 -5.2674499 -2.0576115
6.4654007 -6.0990796 -2.0520036
7.6547718 -7.2235885 -2.0458541
9.276454 -8.7600479 -2.0208206
12.044445 -11.381902 -2.0347307
16.963112 -16.035612 -2.0422332
5.5707083 -5.2882528 -2.0581291
6.4412451 -6.1189256 -2.0511036
7.6266637 -7.24756 -2.0450909
9.2501144 -8.7964573 -2.0217593
12.001764 -11.421139 -2.0342433
16.834881 -16.026039 -2.0335178
5.5480261 -5.3036613 -2.0565763
6.4156227 -6.1373324 -2.0497539
7.6069927 -7.2795672 -2.0466175
9.2065125 -8.8163967 -2.0189433
11.970422 -11.471204 -2.0357056
16.810476 -16.115038 -2.0373526
5.5308704 -5.3243351 -2.0570939
6.3843365 -6.1502261 -2.0466046
7.5829501 -7.3074389 -2.046999
9.1870565 -8.8594503 -2.0214465
11.933165 -11.515676 -2.0361931
16.673853 -16.096127 -2.0275912
5.5205736 -5.3516769 -2.0601997
6.3656263 -6.1751866 -2.0475044
7.5616221 -7.3379645 -2.0481439
9.1617432 -8.8969698 -2.0226979
11.8872 -11.551726 -2.0352182
16.544704 -16.083405 -2.0187013
5.4977126 -5.3668661 -2.0586467
6.3482141 -6.2014551 -2.0488544
7.5205169 -7.3492222 -2.043946
9.1376925 -8.9358025 -2.0242622
11.858155 -11.604258 -2.0371683
16.469954 -16.12294 -2.0164354
5.4720569 -5.3792524 -2.0560586
6.3251395 -6.2222104 -2.0484045
7.5046129 -7.3850679 -2.0466175
9.0994091 -8.9607134 -2.0226979
11.814748 -11.642792 -2.0366805
16.314253 -16.082422 -2.0042334
5.457365 -5.4023981 -2.0576115
6.3103032 -6.2511082 -2.0506537
7.4829721 -7.4153647 -2.0477622
9.0736847 -8.9979849 -2.0239494
11.785308 -11.695148 -2.0386305
16.190144 -16.071896 -1.9958665
5.4439459 -5.4268703 -2.0596819
6.293963 -6.2786021 -2.0524535
7.4653797 -7.44976 -2.0500519
9.0422201 -9.029604 -2.0239494
11.738797 -11.730603 -2.0376556
16.145216 -16.13958 -1.9972609
5.4331503 -5.4540524 -2.0627878
6.2772326 -6.3035817 -2.053803
7.432405 -7.4688158 -2.0481439
9.0038691 -9.051136 -2.0220721
11.70263 -11.772282 -2.0381432
5.4150343 -5.4720392 -2.0627878
6.2620425 -6.3323836 -2.0560527
7.4048371 -7.4906292 -2.0473807
8.9722195 -9.0825109 -2.0220721
11.669833 -11.821535 -2.0396054
16.090963 -16.30583 -2.0042334
5.3782973 -5.4729953 -2.0560586
6.2358036 -6.3500323 -2.054703
7.3800201 -7.5178323 -2.0477622
8.9473772 -9.1208248 -2.0236366
11.634056 -11.86787 -2.0405805
5.3659067 -5.4986491 -2.0586467
6.2149611 -6.3731561 -2.0551529
7.3564739 -7.5463595 -2.0485253
8.9113503 -9.1477575 -2.0226979
11.600866 -11.916942 -2.042043
5.3480248 -5.518733 -2.0591643
6.1872544 -6.3892112 -2.0533531
7.3328185 -7.5748143 -2.0492887
8.8903513 -9.1901665 -2.0252008
11.567477 -11.965928 -2.0435054
5.3354259 -5.5443282 -2.0617526
6.1662641 -6.4121742 -2.053803
7.3049722 -7.5989485 -2.0489073
8.8609562 -9.2239914 -2.0258267
11.514639 -11.994777 -2.0415554
5.312036 -5.5587282 -2.0601997
6.1451893 -6.4350691 -2.0542529
7.2689133 -7.6144609 -2.0462358
8.8368845 -9.263442 -2.0277038
11.4727 -12.034897 -2.0415554
5.2859507 -5.5702295 -2.0576115
6.1280532 -6.4621367 -2.0560527
7.2382369 -7.6355124 -2.0450909
8.831665 -9.3229141 -2.0339613
11.441538 -12.086404 -2.0435054
5.2664747 -5.5886474 -2.0576115
6.102788 -6.4806514 -2.0551529
7.2209597 -7.6707397 -2.0477622
8.8193712 -9.375267 -2.0386541
11.399279 -12.126268 -2.0435054
5.2535348 -5.6140494 -2.0601997
6.0787973 -6.5004911 -2.054703
7.1954803 -7.6973324 -2.0481439
8.8216515 -9.4435272 -2.0467887
11.354171 -12.163083 -2.0430176
5.2352214 -5.6337686 -2.0607173
6.0573955 -6.5230989 -2.0551529
7.1645617 -7.7180858 -2.046999
8.8034115 -9.4901934 -2.0502305
11.311645 -12.202642 -2.0430176
37.53149 -40.558708 -0.96455961
5.2076631 -5.6434903 -2.0576115
6.03723 -6.5470681 -2.0560527
7.133584 -7.7387166 -2.0458541
8.7903051 -9.5426588 -2.0549233
11.279736 -12.253736 -2.0449677
5.1840167 -5.657361 -2.0560586
38.40765 -41.929283 0.99251837
6.0196042 -6.5738511 -2.0578523
7.109179 -7.7664676 -2.0466175
8.775609 -9.5936899 -2.0593035
11.231537 -12.287177 -2.0439928
5.1753221 -5.6836181 -2.0596819
5.9949875 -6.5884056 -2.0565026
7.0873871 -7.7916675 -2.0473807
8.7693415 -9.6475239 -2.0649352
11.211566 -12.342971 -2.0474052
5.153161 -5.7011151 -2.0591643
5.9654212 -6.6020613 -2.0542529
7.0574656 -7.8161349 -2.046999
8.7167196 -9.6605339 -2.060868
11.149799 -12.361397 -2.0439928
5.1319385 -5.7176309 -2.0586467
5.9476886 -6.6311355 -2.0565026
7.0288291 -7.8392601 -2.0466175
8.7409458 -9.7556372 -2.0746341
11.112362 -12.411052 -2.0454552
5.111949 -5.7355094 -2.0586467
5.9295559 -6.6551876 -2.0578523
6.9988103 -7.860815 -2.0458541
8.7124863 -9.7889948 -2.0755727
11.076422 -12.453766 -2.0464303
5.0890594 -5.7480912 -2.0570939
5.9075804 -6.6773047 -2.0583022
6.9714046 -7.8825107 -2.0454724
8.6795712 -9.8208275 -2.0758855
11.046021 -12.507233 -2.0488675
5.0753407 -5.7730742 -2.0596819
39.896313 -45.397034 1.0549282
5.8803778 -6.6934934 -2.0569522
6.9477334 -7.9112229 -2.0466175
8.6335115 -9.8377028 -2.0730698
10.997061 -12.539744 -2.0478926
36.135471 -41.277222 -0.95757866
5.0551591 -5.7907548 -2.0596819
39.750751 -45.551086 1.0552772
5.8569775 -6.7139783 -2.0569522
6.9252367 -7.9413452 -2.0481439
8.6120958 -9.8826723 -2.0761983
10.961044 -12.587038 -2.049355
5.0374451 -5.811285 -2.0607173
5.8335052 -6.7343826 -2.0569522
6.8897629 -7.9565654 -2.0458541
8.58918 -9.9261169 -2.0790143
10.922235 -12.631227 -2.0503302
5.0183892 -5.8302979 -2.061235
5.8125038 -6.757659 -2.0578523
6.8504276 -7.9671688 -2.0424197
8.5815134 -9.9875031 -2.0855846
10.872904 -12.663253 -2.049355
4.9967523 -5.8463116 -2.0607173
38.040154 -44.52356 1.0221875
5.795207 -6.785316 -2.0601017
6.8353238 -8.0059643 -2.0462358
8.544035 -10.014392 -2.0849588
10.838938 -12.713215 -2.0513051
4.9800649 -5.8681369 -2.0622702
37.843109 -44.607277 1.0210705
5.7689667 -6.8025322 -2.059202
6.8035264 -8.0252819 -2.0450909
8.5154095 -10.051691 -2.0865231
10.797058 -12.754001 -2.0517924
30.810749 -36.459599 -0.83321279
4.9535446 -5.8804398 -2.0601997
37.50938 -44.528046 1.0162536
5.7376547 -6.813683 -2.0565026
6.781651 -8.0591774 -2.0473807
8.4759684 -10.079809 -2.0858974
10.755029 -12.794652 -2.0522799
4.9391851 -5.9051046 -2.0627878
37.499851 -44.849316 1.0204421
5.713892 -6.836163 -2.0569522
6.7459254 -8.073761 -2.0450909
8.4749146 -10.150275 -2.0943449
10.71315 -12.840083 -2.0532548
4.9123712 -5.9148784 -2.0601997
37.659851 -45.361507 1.0290986
5.6949735 -6.8620648 -2.0587521
6.7202086 -8.1002808 -2.0458541
8.4369106 -10.176756 -2.0937192
10.66573 -12.874342 -2.0527673
4.8929234 -5.9334803 -2.0607173
5.6747031 -6.8864131 -2.0601017
6.6943889 -8.1267214 -2.0466175
8.3900375 -10.192417 -2.0909033
10.630816 -12.923759 -2.0547173
4.87463 -5.9535136 -2.0617526
37.342247 -45.623318 1.0290986
5.6456947 -6.9001474 -2.0583022
6.673439 -8.1591568 -2.0489073
8.3631592 -10.232348 -2.0930934
10.595684 -12.973088 -2.0566673
29.913101 -36.690155 -0.82630163
4.8586931 -5.9764886 -2.0638232
37.119713 -45.675793 1.0273533
5.6166587 -6.9137621 -2.0565026
6.6473923 -8.1854506 -2.0496705
8.3448162 -10.282954 -2.0974736
10.547833 -13.006913 -2.0561798
29.742071 -36.741505 -0.82511491
4.8365884 -5.991909 -2.0633056
5.5937142 -6.9348431 -2.0569522
6.6113853 -8.1994343 -2.0473807
8.3175468 -10.322787 -2.0996637
10.514815 -13.059114 -2.0586171
4.8192677 -6.0132775 -2.0648584
5.5804381 -6.9680157 -2.0610015
6.5802698 -8.2193975 -2.0466175
8.311079 -10.388779 -2.1071725
10.464014 -13.084607 -2.0571547
29.740805 -37.255657 -0.8320958
4.7968941 -6.0262032 -2.0638232
5.554873 -6.9834323 -2.0601017
6.5603085 -8.2503929 -2.0489073
8.2692089 -10.407001 -2.1052952
10.435383 -13.137889 -2.0600796
29.36862 -37.040695 -0.82511491
4.7780819 -6.0435925 -2.0643408
5.5292692 -6.9987564 -2.059202
6.529263 -8.2674799 -2.0477622
8.2309828 -10.429714 -2.1043568
10.406668 -13.196056 -2.0634918
4.7569571 -6.0602345 -2.0643408
5.503603 -7.0164819 -2.0587521
6.5064216 -8.297946 -2.0496705
8.1957445 -10.459936 -2.1046696
10.353198 -13.222924 -2.0620294
28.567497 -36.551571 -0.80975676
4.7405233 -6.0828972 -2.0664113
5.477879 -7.0341125 -2.0583022
6.4737978 -8.3159599 -2.0485253
8.165247 -10.496278 -2.1062338
10.314288 -13.268387 -2.0634918
28.439732 -36.65107 -0.80975676
4.7157145 -6.0948238 -2.0648584
5.4604445 -7.0624413 -2.0610015
6.4471326 -8.3416138 -2.0492887
8.1092396 -10.499702 -2.101228
10.272762 -13.310595 -2.0644667
28.157854 -36.550522 -0.80535877
4.6840439 -6.1021585 -2.061235
5.4297276 -7.0787168 -2.0596519
6.4090815 -8.3585176 -2.0473807
8.0652599 -10.526057 -2.1002893
10.238392 -13.367068 -2.0673916
27.863377 -36.443783 -0.80075133
4.6672959 -6.1222677 -2.0627878
5.4062243 -7.096683 -2.0596519
6.3932233 -8.3953447 -2.0511968
8.0386829 -10.563749 -2.1024795
10.198816 -13.407267 -2.0683665
4.6434698 -6.13309 -2.061235
30.921556 -40.855968 0.89436603
5.3756065 -7.1052475 -2.0569522
6.3665328 -8.4180641 -2.0515785
8.0012264 -10.587195 -2.1018538
10.154347 -13.445953 -2.0688543
27.32337 -36.24617 -0.79230434
4.625515 -6.1538944 -2.0627878
5.3589635 -7.1348753 -2.0601017
6.3288574 -8.4292469 -2.0489073
7.9416962 -10.58504 -2.0959091
10.102587 -13.474964 -2.0678792
25.840378 -34.52898 -0.75279212
4.6132488 -6.1823897 -2.0669291
5.3363566 -7.1566629 -2.0610015
6.2993951 -8.4512873 -2.0489073
7.9176798 -10.630123 -2.0993509
10.064971 -13.522887 -2.0698292
26.761978 -36.0219 -0.78329897
4.5905585 -6.1992564 -2.0669291
5.3113427 -7.1752472 -2.0610015
6.2742147 -8.4822092 -2.0508151
7.8680968 -10.644773 -2.096535
10.022425 -13.564323 -2.0708041
25.601067 -34.711754 -0.75286192
4.5711794 -6.2183557 -2.0679643
5.2884693 -7.1993775 -2.0623512
6.2468925 -8.507225 -2.0515785
7.8238797 -10.662619 -2.0946577
9.9749889 -13.604167 -2.0712914
26.05946 -35.605736 -0.77017468
4.5505843 -6.2358351 -2.0684819
5.2564168 -7.2083459 -2.0596519
6.2240973 -8.5384979 -2.0538683
7.7901025 -10.694654 -2.0955963
9.9344511 -13.648534 -2.0727541
25.939714 -35.702953 -0.77031428
4.5265226 -6.2485518 -2.0674467
5.2346516 -7.2313867 -2.0610015
6.1896501 -8.5538101 -2.0523417
7.7642984 -10.737788 -2.0987251
9.8820963 -13.676692 -2.071779
25.086407 -34.770367 -0.74839413
4.5080676 -6.2690201 -2.0689995
5.2163296 -7.2566171 -2.0632513
6.1540284 -8.5673904 -2.0504336
7.721735 -10.75385 -2.0968478
9.8505754 -13.728743 -2.0747037
25.153507 -35.12109 -0.75404865
4.4805179 -6.2745013 -2.0658937
5.1887035 -7.2716088 -2.0623512
6.1347041 -8.6005383 -2.0534863
7.6864424 -10.783956 -2.0974736
9.8118076 -13.775978 -2.0766537
4.4597239 -6.2940345 -2.0669291
5.1610365 -7.2864957 -2.0614514
6.107677 -8.6293745 -2.0550129
7.6388822 -10.800766 -2.0952835
9.7682438 -13.816627 -2.0776286
25.251289 -35.782722 -0.76445031
4.4443951 -6.3190441 -2.0700347
5.1331754 -7.3037691 -2.0610015
6.0842886 -8.6602802 -2.0573027
7.5988626 -10.824131 -2.0946577
9.7153931 -13.844141 -2.0766537
25.027567 -35.72979 -0.7614485
4.4178853 -6.3258281 -2.0674467
5.1133871 -7.3271432 -2.0628011
6.0532908 -8.6771889 -2.0565395
7.5651865 -10.852512 -2.0952835
9.6694317 -13.876283 -2.0766537
24.767359 -35.609028 -0.75712031
4.4001861 -6.3452067 -2.0689995
5.0879517 -7.3424578 -2.0623512
6.0200124 -8.6907587 -2.0550129
7.5314059 -10.880788 -2.0959091
9.6390038 -13.936072 -2.0805535
24.636095 -35.685394 -0.75691086
4.3736291 -6.3541617 -2.0669291
5.0689163 -7.3698068 -2.0650506
6.000762 -8.7278976 -2.0588293
7.5068016 -10.926548 -2.0996637
9.5970392 -13.979453 -2.0820162
24.375734 -35.573219 -0.75272226
4.354692 -6.374176 -2.0684819
5.0409636 -7.3842373 -2.0641508
5.9742637 -8.7579422 -2.0607371
7.4641633 -10.946157 -2.098412
9.5548897 -14.022711 -2.0834785
24.296396 -35.724232 -0.7541185
4.3313003 -6.3900938 -2.0684819
5.0094934 -7.3962097 -2.0623512
5.9476256 -8.7879095 -2.0626454
7.4306355 -10.983258 -2.1002893
9.5056543 -14.060926 -2.0839658
24.317415 -36.038479 -0.75886554
4.308928 -6.4075284 -2.0689995
4.9823518 -7.4145207 -2.0623512
5.9147239 -8.8053579 -2.0618823
7.3914313 -11.012058 -2.1006021
9.4609375 -14.100616 -2.0849409
23.828724 -35.58149 -0.74748659
4.290874 -6.4266019 -2.0705523
4.9620633 -7.4374866 -2.0641508
5.8800459 -8.8167562 -2.059974
7.3537769 -11.034865 -2.1002893
9.4251328 -14.148432 -2.0873783
23.666313 -35.593704 -0.74609041
4.2620678 -6.4295244 -2.0669291
4.938448 -7.4555249 -2.0646007
5.8540273 -8.8411169 -2.0611188
7.3225937 -11.067428 -2.1018538
9.3756876 -14.181245 -2.0873783
23.33046 -35.355637 -0.73938864
4.2405968 -6.4483304 -2.0679643
4.9113231 -7.4710903 -2.0641508
5.8248177 -8.8674364 -2.0622637
7.2819805 -11.094192 -2.1018538
9.3413744 -14.237123 -2.0907905
23.233198 -35.477013 -0.74022639
4.2233405 -6.4711828 -2.0705523
4.8796492 -7.4825106 -2.0623512
5.7981176 -8.8942938 -2.0637903
7.244288 -11.121199 -2.1021667
9.2934628 -14.277922 -2.0917656
22.909098 -35.263439 -0.73401332
4.2016945 -6.489862 -2.0715878
4.8535004 -7.4994984 -2.0623512
5.7654791 -8.9154854 -2.0637903
7.2066946 -11.152652 -2.1031051
9.2414122 -14.306938 -2.0912783
23.394819 -36.287739 -0.75362986
4.175972 -6.4972591 -2.0695171
4.8293991 -7.5196743 -2.0632513
5.7804289 -9.0039434 -2.0798182
7.1782045 -11.189792 -2.1056082
9.2085552 -14.365849 -2.0951779
23.106356 -36.116512 -0.74839413
4.1491117 -6.505281 -2.0674467
4.8052158 -7.5397725 -2.0641508
5.7848291 -9.0803633 -2.0927932
7.1380391 -11.213113 -2.1052952
9.1690063 -14.414654 -2.0976152
22.660755 -35.693859 -0.73799247
4.1315441 -6.5278864 -2.0700347
4.7767844 -7.553206 -2.0632513
5.7625399 -9.1154346 -2.0962276
7.1041303 -11.246311 -2.1068597
9.1186361 -14.446572 -2.0976152
12.337626 -19.584238 -0.40402323
4.1087322 -6.5422683 -2.0700347
4.7462459 -7.5632315 -2.0614514
5.7171235 -9.1138744 -2.0912669
7.0690269 -11.277736 -2.1081111
9.0744734 -14.488409 -2.0990777
12.288269 -19.657705 -0.40465149
4.087914 -6.5598507 -2.0710702
4.7198162 -7.5797529 -2.0614514
5.6946115 -9.1487761 -2.0947013
7.0327468 -11.307375 -2.1090496
9.0280361 -14.52674 -2.1000526
12.206926 -19.680088 -0.40423262
4.0629587 -6.5707936 -2.0700347
4.6984515 -7.6044707 -2.0637012
5.6543889 -9.1552362 -2.0916483
6.9973826 -11.338579 -2.1103013
8.9751892 -14.554788 -2.0995653
12.142351 -19.729389 -0.40437227
4.0369678 -6.5799961 -2.0684819
4.6708598 -7.6191645 -2.0632513
5.6357317 -9.1966801 -2.0966094
6.9546661 -11.357882 -2.1093626
8.9450502 -14.619893 -2.10444
12.144618 -19.880468 -0.40664107
4.0220098 -6.6072488 -2.072623
4.6496191 -7.6412702 -2.0650506
5.6137948 -9.2330694 -2.1004255
6.9200425 -11.385945 -2.1103013
8.9068232 -14.666442 -2.1068773
12.100023 -19.963781 -0.40747881
3.9990795 -6.6188965 -2.0721054
4.6188903 -7.6507807 -2.0632513
5.6135774 -9.302063 -2.1118741
6.8863759 -11.420182 -2.1121783
8.8637695 -14.711047 -2.1088274
11.850952 -19.707712 -0.40140536
3.9789295 -6.6377854 -2.0736582
4.5921555 -7.6668572 -2.0632513
5.5770383 -9.3148642 -2.1103475
6.8454571 -11.442454 -2.1118655
8.8123646 -14.741898 -2.1088274
11.870196 -19.896648 -0.40440717
3.9527731 -6.6466537 -2.0721054
4.5683517 -7.6878657 -2.0646007
5.5454926 -9.3359613 -2.1107292
6.8095064 -11.473075 -2.113117
8.7750263 -14.796472 -2.1122396
11.553519 -19.512609 -0.39582056
3.9266026 -6.6554189 -2.0705523
4.5428324 -7.7029729 -2.0646007
5.5108771 -9.3518791 -2.109966
6.7724247 -11.497294 -2.1134298
8.7279234 -14.828911 -2.1127272
11.523824 -19.618341 -0.39714694
3.9064641 -6.6717381 -2.0715878
4.5109959 -7.7103739 -2.0623512
5.4719057 -9.3565445 -2.1069131
6.736237 -11.527688 -2.1146812
8.6921253 -14.886714 -2.1166267
11.755297 -20.173321 -0.40754861
3.8868341 -6.6943641 -2.0741758
4.487968 -7.7328143 -2.0641508
5.4651527 -9.4240923 -2.1175983
6.6929498 -11.550591 -2.1143684
8.6440878 -14.923837 -2.1176019
11.642777 -20.141518 -0.4060826
3.8644071 -6.7095661 -2.0746937
4.4576511 -7.7458334 -2.0632513
5.4312434 -9.4414101 -2.1172168
