# .PCD v0.7 - Point Cloud Data file format
VERSION 0.7
FIELDS x y z
SIZE 4 4 4
TYPE F F F
COUNT 1 1 1
WIDTH 1514
HEIGHT 1
VIEWPOINT 0 0 0 1 0 0 0
POINTS 1514
DATA ascii
23.195385 8.8018332 -2.1705265
39.316368 14.903504 -2.2035534
7.36061 2.7754719 -2.1078224
8.4982452 3.2010536 -2.0965438
10.140395 3.8175852 -2.1061497
12.4009 4.6636629 -2.098412
16.055595 6.0317049 -2.1059024
22.450026 8.4294691 -2.0980129
39.431736 14.79001 -2.2071121
7.3593922 2.7457113 -2.1047165
8.5057135 3.1700101 -2.095644
10.146302 3.779422 -2.1046233
12.418955 4.6210394 -2.0987251
16.091436 5.9811606 -2.1078525
23.263733 8.6424704 -2.1712239
39.554276 14.678692 -2.2110896
7.3671203 2.7193348 -2.1041989
8.5313549 3.1456957 -2.0992434
10.15759 3.7433047 -2.1042418
12.435008 4.5776634 -2.0987251
16.104765 5.9222093 -2.1068773
23.147894 8.5075951 -2.1576276
7.3693089 2.6909535 -2.1021285
8.5349607 3.1132231 -2.0974436
10.176127 3.7098451 -2.1053865
12.445345 4.5321984 -2.0977864
16.136532 5.8700323 -2.1083398
23.140001 8.4131327 -2.1541414
38.34169 13.92494 -2.1378195
7.3872766 2.6697819 -2.1047165
8.5452385 3.0849006 -2.0974436
10.192067 3.6774087 -2.1061497
12.467739 4.4935784 -2.0990379
16.144699 5.8124576 -2.1068773
23.172979 8.3336487 -2.15449
7.3970113 2.6426897 -2.1047165
8.5541191 3.0544002 -2.0969937
10.198081 3.6373928 -2.1046233
12.480403 4.4465284 -2.098412
16.172375 5.7587266 -2.1078525
23.198172 8.251379 -2.1541414
7.3989053 2.6142807 -2.1026461
8.5597439 3.0210791 -2.095644
10.207014 3.6004639 -2.1038601
12.505165 4.4062161 -2.0999765
16.193371 5.6994171 -2.1078525
23.189245 8.1571236 -2.150655
7.3970437 2.5846126 -2.0995402
8.5825939 2.9971764 -2.0987935
10.234348 3.5699878 -2.1069131
12.514112 4.3627744 -2.0990379
16.204683 5.6430697 -2.1068773
22.88262 7.9596076 -2.1196277
38.722458 13.461864 -2.1484959
7.4165287 2.5638573 -2.1026461
8.5856342 2.9646571 -2.0969937
10.24613 3.5360317 -2.1069131
12.521793 4.316493 -2.0977864
16.239302 5.5916371 -2.1088274
22.897581 7.8798079 -2.1185818
38.999653 13.405815 -2.1612659
7.4272618 2.5385759 -2.1031637
8.5885544 2.9321485 -2.0951941
10.262127 3.5015097 -2.1076763
12.544265 4.2753034 -2.0990379
16.2512 5.5323701 -2.1078525
22.917404 7.7972598 -2.1178844
38.433506 13.061404 -2.1273522
7.4397373 2.5138729 -2.1041989
8.6024313 2.9033952 -2.0960939
10.264984 3.4625316 -2.1057682
12.559113 4.2314863 -2.0990379
16.265696 5.4771767 -2.1073649
22.955812 7.7210197 -2.1189303
38.740135 13.014932 -2.1417971
77.008736 25.856453 -1.4179382
7.4461999 2.4885771 -2.1036813
8.6175547 2.8767095 -2.0974436
10.278272 3.429096 -2.1061497
12.580572 4.1923161 -2.1002893
16.280001 5.4219561 -2.1068773
22.962385 7.6385689 -2.1171873
38.692108 12.856154 -2.1367726
7.4415727 2.459625 -2.1000578
8.636301 2.8511689 -2.0996931
10.293317 3.3962204 -2.1069131
12.588776 4.1487222 -2.0993509
16.306372 5.3675737 -2.1078525
23.01162 7.5658417 -2.1192791
38.730728 12.726536 -2.1365633
7.452373 2.432935 -2.1005754
8.6276731 2.8149624 -2.0951941
10.301961 3.3572562 -2.1061497
12.607654 4.1037736 -2.0999765
16.33256 5.3130813 -2.1088274
22.999994 7.4731498 -2.1157928
38.784714 12.58695 -2.136982
7.4644985 2.4080911 -2.1016109
82.544579 26.613462 1.5138566
8.6509171 2.7875032 -2.0983434
10.322963 3.3242817 -2.108058
12.612498 4.0567179 -2.098412
16.340584 5.2495365 -2.1073649
22.987999 7.3806438 -2.1123066
38.904491 12.475896 -2.1411688
7.4802217 2.3843651 -2.1036813
8.6605959 2.7572863 -2.0983434
10.317667 3.2828677 -2.1046233
12.630348 4.0138607 -2.0990379
16.347454 5.1888652 -2.1059024
23.055403 7.3136024 -2.1161413
39.05442 12.373807 -2.1470306
7.4811282 2.3559203 -2.1016109
8.6664476 2.7258749 -2.0974436
10.334682 3.2486005 -2.1057682
12.649936 3.9715257 -2.0999765
16.373045 5.1341414 -2.1068773
23.080791 7.2330837 -2.1161413
39.105003 12.239782 -2.1474493
7.4819283 2.3274946 -2.0995402
8.6907988 2.7002301 -2.1010427
10.347833 3.2130852 -2.1061497
12.656175 3.9250073 -2.0987251
16.390865 5.076961 -2.1068773
23.094479 7.1489434 -2.1150956
39.22382 12.126793 -2.1516361
7.490006 2.3013687 -2.0995402
8.6852684 2.6653011 -2.0974436
10.35523 3.175801 -2.1053865
12.6698 3.8808017 -2.0987251
16.400896 5.0173879 -2.1059024
23.126915 7.0706086 -2.1157928
39.395798 12.029472 -2.1587536
7.5035396 2.2768903 -2.1010931
8.6907892 2.6338394 -2.0965438
10.377527 3.1430469 -2.1076763
12.681376 3.8359828 -2.098412
16.414513 4.9589558 -2.1054149
23.170527 6.9956012 -2.1175358
7.516994 2.2523458 -2.1026461
8.7073975 2.6057191 -2.0983434
10.386556 3.1062384 -2.1072946
12.702262 3.7939513 -2.0996637
16.427916 4.9005046 -2.1049275
23.206263 6.9180875 -2.1185818
38.919868 11.587746 -2.1281896
7.5118427 2.2222583 -2.0990226
8.7122526 2.5757267 -2.0974436
10.378505 3.0644059 -2.1034784
12.724246 3.7546062 -2.101228
16.436459 4.843751 -2.1039524
23.211159 6.8314095 -2.1168387
39.01173 11.474388 -2.1311202
7.5210247 2.1978793 -2.0995402
8.7268028 2.5469396 -2.0987935
10.396149 3.0321736 -2.105005
12.735376 3.7096174 -2.100915
16.479954 4.7941065 -2.1073649
23.237507 6.7555285 -2.1171873
38.150066 11.076397 -2.0819247
7.5305076 2.1721461 -2.1000578
8.7356405 2.5164595 -2.0987935
10.41233 2.9974923 -2.1061497
12.736857 3.6618617 -2.0990379
16.469873 4.7288852 -2.1039524
23.264778 6.6754661 -2.1175358
38.44577 11.016892 -2.0959506
7.5473332 2.1484926 -2.1026461
8.7368736 2.4838171 -2.0969937
10.428395 2.9627402 -2.1072946
12.766667 3.6222289 -2.1018538
16.493921 4.6735344 -2.1049275
23.310944 6.6007237 -2.1196277
38.614677 10.91959 -2.1030684
114.70551 32.393574 -2.0805013
7.5510678 2.1210876 -2.1016109
8.7492418 2.4543588 -2.0978935
10.438675 2.9263177 -2.1072946
12.773525 3.5760479 -2.100915
16.510134 4.6159267 -2.1049275
23.337679 6.52039 -2.1199763
7.5584259 2.094718 -2.1016109
8.7521229 2.4222462 -2.0965438
10.443147 2.8882937 -2.1061497
12.789738 3.5324926 -2.1015408
16.537626 4.5614381 -2.1063898
23.34877 6.4357147 -2.1189303
37.815731 10.4091 -2.0555472
7.5563745 2.0657723 -2.0990226
8.7736826 2.3952751 -2.0996931
10.447485 2.85027 -2.105005
12.805802 3.488868 -2.1021667
16.55345 4.5036783 -2.1063898
23.351868 6.3489518 -2.1171873
37.659088 10.224692 -2.0450799
7.5598078 2.0383787 -2.0979872
8.7707005 2.3615925 -2.0969937
10.459266 2.8142967 -2.1053865
12.810272 3.4420922 -2.100915
16.580574 4.4489594 -2.1078525
23.389282 6.2715206 -2.1185818
37.976223 10.168606 -2.0603621
114.6583 30.679741 -2.0717752
7.5780787 2.0149577 -2.1010931
8.7747183 2.3314915 -2.0960939
10.484205 2.7817998 -2.1084394
12.827346 3.401108 -2.1018538
16.583719 4.3909059 -2.1063898
23.426445 6.1939068 -2.1199763
37.754845 9.9752779 -2.0465453
7.5809827 1.9888344 -2.1000578
8.784688 2.3013434 -2.0965438
10.485777 2.7450259 -2.1069131
12.844874 3.3578069 -2.1027923
16.575897 4.3269696 -2.1034651
23.482624 6.1211462 -2.1231139
37.712128 9.8232803 -2.0423586
7.5882211 1.9610369 -2.1000578
8.7964401 2.2716415 -2.0974436
10.488163 2.7046168 -2.1053865
12.859007 3.3112009 -2.1031051
16.610125 4.2740254 -2.1059024
23.465256 6.0292172 -2.1196277
38.003242 9.7505217 -2.0561752
7.5781717 1.9302436 -2.0953991
8.8122616 2.2413092 -2.0992434
10.508957 2.6708884 -2.1076763
12.862825 3.2643597 -2.1018538
16.633375 4.2150717 -2.1068773
23.493879 5.9492435 -2.1203249
7.5942316 1.9061283 -2.0979872
8.8083048 2.2092273 -2.0965438
10.520121 2.6346633 -2.108058
12.873581 3.2216835 -2.1018538
16.651115 4.1608481 -2.1073649
23.549299 5.875874 -2.1234624
37.522243 9.35534 -2.0266578
7.6023865 1.8814003 -2.098505
8.8046122 2.1756597 -2.0938444
10.523082 2.5983529 -2.1069131
12.884749 3.1767232 -2.1018538
16.66168 4.1017618 -2.1068773
23.549311 5.7929845 -2.1217194
37.71759 9.2643328 -2.0354502
7.6107841 1.8553106 -2.0990226
8.8197269 2.1467538 -2.095644
10.53018 2.5611432 -2.1065314
12.8996 3.1326568 -2.1024795
16.683615 4.045444 -2.1078525
23.592627 5.7163701 -2.1238112
7.6172142 1.8287307 -2.0990226
8.8309565 2.116869 -2.0965438
10.52951 2.5220811 -2.1046233
12.916218 3.0889969 -2.1034181
16.689911 3.9853337 -2.1068773
23.593056 5.6293626 -2.1220679
36.945908 8.8017578 -1.9904413
7.6066303 1.7981323 -2.0943637
8.8398247 2.0880182 -2.0969937
10.547803 2.4875662 -2.1065314
12.916777 3.043879 -2.1018538
16.710766 3.931788 -2.1078525
23.585407 5.5405993 -2.1196277
37.068226 8.701108 -1.9954655
7.618196 1.774214 -2.0959167
8.8470592 2.0571465 -2.0969937
10.56173 2.4539096 -2.1076763
12.931172 2.9996619 -2.1024795
16.72439 3.8734281 -2.1078525
23.646355 5.4722323 -2.1234624
37.351353 8.6301041 -2.0090728
7.6243429 1.7476088 -2.0959167
8.8465872 2.0245147 -2.0951941
10.568318 2.4165871 -2.1072946
12.937713 2.9536288 -2.1018538
16.737806 3.8150291 -2.1078525
23.676968 5.3923178 -2.1245084
37.910984 8.6201296 -2.0375438
7.6360497 1.7222608 -2.0974696
8.8459969 1.9919075 -2.0933945
10.569029 2.3779552 -2.1057682
12.946017 2.9080133 -2.1015408
16.743271 3.7548456 -2.1068773
23.656763 5.3009171 -2.121022
38.307266 8.5697241 -2.0572219
7.6363578 1.6943382 -2.0959167
8.8582602 1.9638293 -2.0947442
10.579181 2.3414743 -2.1061497
12.97102 2.8684819 -2.1040437
16.767263 3.7018659 -2.1083398
23.698471 5.2234588 -2.1231139
38.975243 8.5835314 -2.0915544
7.6324973 1.6669464 -2.0933285
8.8612528 1.9320676 -2.0938444
10.584969 2.305964 -2.1057682
12.982882 2.8236096 -2.1043568
16.787844 3.6449947 -2.1093147
23.680613 5.1372452 -2.1199763
39.282158 8.5074501 -2.1064177
7.6420469 1.6411029 -2.0943637
8.8736601 1.9023474 -2.0951941
10.592955 2.2689986 -2.1057682
12.971412 2.7737265 -2.100915
16.812111 3.5888703 -2.1107774
23.72958 5.0611959 -2.1227653
39.639793 8.4401836 -2.1240027
7.6496196 1.614818 -2.0948815
8.8630857 1.8677423 -2.091145
10.604653 2.23282 -2.1065314
12.981015 2.7284274 -2.100915
16.816765 3.5285277 -2.1098022
23.736269 4.9717436 -2.1217194
40.26722 8.4269409 -2.1560323
7.6592693 1.5875556 -2.0959167
8.8695498 1.836799 -2.091145
10.606997 2.1927419 -2.1053865
13.002536 2.6832294 -2.1027923
16.825092 3.4689989 -2.1093147
23.776899 4.8936715 -2.1238112
40.082626 8.2350931 -2.1445184
7.6590858 1.5596516 -2.0943637
8.8800421 1.805052 -2.0920448
10.603043 2.1533608 -2.1030967
13.011822 2.6378286 -2.1027923
16.844881 3.4118268 -2.1102896
23.786026 4.8090591 -2.1231139
40.248173 8.1227751 -2.1518455
7.6566381 1.5327294 -2.0922933
8.889801 1.7763606 -2.0929446
10.621676 2.1204965 -2.1053865
13.022434 2.5950539 -2.1031051
16.852207 3.3551764 -2.1098022
23.79793 4.7293944 -2.1227653
39.965359 7.9278498 -2.1353073
7.6597838 1.5069556 -2.0917757
8.8879938 1.7453666 -2.091145
10.632503 2.0860147 -2.1061497
13.023214 2.5503337 -2.1018538
16.879404 3.2993734 -2.1117523
23.786108 4.6450992 -2.1203249
37.85463 7.3787718 -2.021215
7.6668949 1.4805729 -2.0922933
8.8844633 1.7124887 -2.0888956
10.637793 2.0485137 -2.1057682
13.039797 2.5063527 -2.1031051
16.886917 3.2396884 -2.1112647
23.825659 4.5665474 -2.1224165
40.344032 7.7179456 -2.1526828
7.6777101 1.454882 -2.0938461
8.8961325 1.6825541 -2.0902452
10.646807 2.011735 -2.1061497
13.046525 2.4604506 -2.1027923
16.890322 3.179249 -2.1102896
23.861034 4.4870286 -2.1241598
40.582729 7.6168504 -2.1639874
7.6751442 1.4266624 -2.0917757
8.9076986 1.6525545 -2.0915949
10.638321 1.9716986 -2.1030967
13.053092 2.4145381 -2.1024795
16.916931 3.123158 -2.1122396
23.860876 4.4008241 -2.1227653
40.903713 7.5293689 -2.1796882
7.6705747 1.3981321 -2.0891874
8.9210835 1.6228435 -2.0933945
10.649003 1.9352565 -2.1038601
13.073104 2.3710713 -2.1043568
16.919918 3.062669 -2.1112647
23.880766 4.314054 -2.1231139
7.6756477 1.3700067 -2.0891874
8.9094267 1.5886164 -2.0893452
10.657957 1.8965541 -2.1042418
13.075871 2.3221068 -2.1034181
16.938324 3.0049715 -2.1122396
23.911375 4.2334404 -2.1245084
7.6860914 1.3442054 -2.0907402
8.9094305 1.5549437 -2.0879958
10.672248 1.8606902 -2.1057682
13.080005 2.2757685 -2.1027923
16.941401 2.9415145 -2.1112647
23.918158 4.1485806 -2.1238112
7.6907368 1.3173655 -2.0907402
8.9148045 1.5238364 -2.0879958
10.672873 1.8224318 -2.1046233
13.083974 2.2294364 -2.1021667
16.955481 2.8830214 -2.1117523
23.944277 4.0670719 -2.1248569
7.6876678 1.2892355 -2.0886698
8.923913 1.4933494 -2.0888956
10.673359 1.7841964 -2.1034784
13.111161 2.1869974 -2.1052952
16.965439 2.8238297 -2.1117523
23.954397 3.982806 -2.1245084
40.612366 6.737916 -2.1574976
7.692122 1.2623907 -2.0886698
8.9249697 1.4631197 -2.0879958
10.673711 1.745975 -2.1023335
13.094948 2.1396875 -2.1015408
16.962954 2.7656333 -2.1102896
23.964218 3.8985422 -2.1241598
7.761116 1.2472996 -2.1062696
8.9280987 1.4316503 -2.0875459
10.683318 1.7111933 -2.1030967
13.094534 2.0927205 -2.1002893
16.992107 2.7095261 -2.1127272
23.969145 3.8177922 -2.1234624
7.7062612 1.2109022 -2.0902226
8.9212456 1.4002246 -2.0848465
10.696986 1.6751033 -2.1046233
13.107257 2.0502043 -2.101228
16.98531 2.6507185 -2.1107774
24.002014 3.7371597 -2.1252055
51.181644 7.9416361 -0.90406954
7.7293286 1.1882778 -2.0953991
8.9299316 1.3696635 -2.085746
10.683075 1.6366504 -2.1008072
13.120192 2.0053308 -2.1021667
16.986607 2.5902185 -2.1098022
24.010334 3.6569505 -2.1248569
7.7143245 1.1584229 -2.0902226
8.9346581 1.3384857 -2.085746
10.688723 1.5993519 -2.1008072
13.13688 1.9609817 -2.1037309
17.011255 2.5332432 -2.1117523
24.038719 3.5754664 -2.1262515
7.7106767 1.130365 -2.0881522
8.9354191 1.3067236 -2.0848465
10.690355 1.5614613 -2.100044
13.128007 1.9128313 -2.101228
17.016064 2.47328 -2.1112647
24.019505 3.4869475 -2.1234624
7.7145753 1.1034446 -2.0881522
8.9399271 1.2755228 -2.0848465
10.699628 1.5246917 -2.1008072
13.132648 1.8667129 -2.100915
17.036386 2.415535 -2.1127272
24.055202 3.4064286 -2.1255541
7.7260327 1.0775743 -2.0902226
8.940465 1.2437738 -2.0839467
10.704885 1.4873308 -2.1008072
13.142998 1.8214052 -2.1015408
17.03685 2.354969 -2.1117523
24.070896 3.3229897 -2.1259029
7.7431464 1.0524216 -2.0938461
8.9833736 1.2177912 -2.0929446
10.70612 1.4494302 -2.100044
13.149277 1.7755129 -2.1015408
17.029226 2.2933686 -2.1098022
24.086298 3.2394707 -2.1262515
7.7391133 1.0243706 -2.0917757
8.9740448 1.184647 -2.0897954
10.69165 1.4094812 -2.0962276
13.147558 1.7285817 -2.1002893
17.033192 2.2333908 -2.1093147
24.097458 3.1553907 -2.1262515
7.7426419 0.99734771 -2.0917757
8.9703941 1.152319 -2.0879958
10.700401 1.3726486 -2.0969911
13.149594 1.6821727 -2.0996637
17.056637 2.1759338 -2.1112647
24.088562 3.0687315 -2.1245084
7.7422414 0.96983981 -2.0907402
8.9743624 1.120997 -2.0879958
10.718762 1.3369973 -2.0996623
13.147545 1.6352829 -2.098412
17.05625 2.1153998 -2.1102896
24.115467 2.9823835 -2.1259029
7.7572513 0.94284946 -2.0938461
8.9666119 1.0882568 -2.0852964
10.717745 1.2969866 -2.0985174
13.157372 1.5875599 -2.0990379
17.06353 2.0558448 -2.1102896
24.13364 2.8991308 -2.1266
7.752821 0.91486567 -2.0917757
8.970541 1.0553873 -2.0852964
10.718307 1.2591161 -2.0977542
13.147138 1.5397806 -2.096535
17.067005 1.9928333 -2.1098022
24.139658 2.8144031 -2.1262515
7.7655635 0.88889408 -2.0943637
8.9914169 1.0276231 -2.0893452
10.70118 1.2192469 -2.0935564
13.163948 1.497517 -2.098412
17.065632 1.935335 -2.1088274
24.169132 2.7323661 -2.1279945
7.7492685 0.86100221 -2.0891874
9.002697 0.99709094 -2.091145
10.709067 1.1841824 -2.0943196
13.161242 1.4506943 -2.0971608
17.080175 1.8766237 -2.1098022
24.166176 2.6509047 -2.1269486
7.7522268 0.83394861 -2.0891874
8.9983721 0.96482611 -2.0893452
10.783411 1.1543186 -2.108058
13.166225 1.4047407 -2.0971608
17.09057 1.8174067 -2.1102896
24.179247 2.5669472 -2.1272974
7.764698 0.80788445 -2.0917757
8.9939327 0.93260807 -2.0875459
10.758082 1.1136404 -2.1023335
13.173013 1.3589789 -2.0974736
17.092859 1.7573277 -2.1098022
24.18013 2.4817216 -2.1266
7.7751584 0.78155017 -2.0938461
8.9951935 0.90101099 -2.087096
10.75995 1.0758878 -2.1019521
13.169814 1.3122013 -2.0962222
17.083088 1.6960865 -2.1078525
24.216404 2.4000466 -2.1290405
7.7796302 0.75594711 -2.0943637
9.0097694 0.87230551 -2.0897954
10.753688 1.0392534 -2.100044
13.168195 1.2679561 -2.0952835
17.088619 1.6394311 -2.1078525
24.192497 2.3166835 -2.1262515
7.7687578 0.72752362 -2.0907402
9.0166397 0.84121412 -2.0906951
10.747477 1.0007967 -2.0981357
13.17844 1.2225329 -2.0962222
17.094238 1.5797662 -2.1078525
24.204403 2.2326045 -2.1266
7.7770224 0.70092303 -2.0922933
9.0136995 0.80920994 -2.0893452
10.776325 0.96554971 -2.1030967
13.174757 1.1758182 -2.0949705
17.111509 1.5211446 -2.1093147
24.196547 2.1424522 -2.1252055
7.7872376 0.67307752 -2.0943637
9.0125856 0.77740824 -2.0884457
10.789572 0.92688859 -2.105005
13.173075 1.1270201 -2.094032
17.092983 1.4593741 -2.1063898
24.195936 2.0573189 -2.1245084
7.7876143 0.64573663 -2.0938461
9.0212011 0.74484909 -2.0897954
10.790785 0.88906652 -2.1046233
13.165115 1.0800581 -2.0921547
17.090302 1.3960727 -2.1054149
24.210913 1.9734877 -2.1252055
41.15601 3.3402617 -2.1639874
7.7801914 0.61778218 -2.0912578
9.0198603 0.71304929 -2.0888956
10.785994 0.85077381 -2.1030967
13.259393 1.0412129 -2.1065466
17.095072 1.3364034 -2.1054149
24.225601 1.889589 -2.1259029
7.7803745 0.59047222 -2.0907402
9.032011 0.68229145 -2.091145
10.792813 0.81341076 -2.1038601
13.225521 0.99211162 -2.1006021
17.095673 1.2764385 -2.1049275
24.196285 1.8023437 -2.1227653
7.7939496 0.56414855 -2.0938461
9.0362806 0.6508972 -2.0915949
10.807336 0.77657831 -2.1061497
13.224962 0.94565457 -2.0999765
17.088142 1.2159055 -2.1034651
24.218328 1.7189939 -2.1241598
7.7900896 0.53653884 -2.0922933
9.0307217 0.61882412 -2.0897954
10.802147 0.73831064 -2.1046233
13.234096 0.89988983 -2.100915
17.084362 1.1557091 -2.1024902
24.224182 1.6344509 -2.1241598
41.198635 2.7653039 -2.1639874
7.8073368 0.51035279 -2.0964344
9.0385571 0.58925158 -2.091145
10.812493 0.70110995 -2.1061497
13.238978 0.85612929 -2.101228
17.068291 1.0977782 -2.1000526
24.213831 1.5488703 -2.1227653
7.8089862 0.48446152 -2.0964344
9.0502853 0.55829501 -2.0933945
10.801042 0.66440898 -2.1034784
13.255688 0.81075203 -2.1034181
17.075979 1.0384284 -2.1005402
24.206903 1.4678357 -2.1217194
7.8009868 0.4566336 -2.0938461
9.0482864 0.52647567 -2.0924947
10.818976 0.62760901 -2.1065314
13.256464 0.76436508 -2.1031051
17.059683 0.97768372 -2.0981028
24.188009 1.3819702 -2.1196277
7.8121781 0.42992899 -2.0964344
9.0442324 0.4945665 -2.091145
10.825022 0.5900507 -2.1072946
13.255107 0.71786964 -2.1024795
17.1066 0.92047834 -2.1034651
24.204622 1.2981635 -2.1206734
7.8213487 0.40305611 -2.098505
9.0478497 0.46309906 -2.0915949
10.825054 0.552163 -2.1069131
13.25556 0.67149919 -2.1021667
17.093849 0.85995722 -2.1015153
24.185127 1.2124738 -2.1185818
7.8420038 0.37667683 -2.1036813
9.0494108 0.43151093 -2.0915949
10.817111 0.51390445 -2.105005
13.273608 0.62597173 -2.1046696
17.074795 0.80223769 -2.098834
24.189213 1.1280496 -2.1185818
0.66775358 0.029855382 -0.17910279
9.0605268 0.40192896 -2.0938444
10.806987 0.47751293 -2.1027153
13.285479 0.58238029 -2.1062338
17.091242 0.74622071 -2.1005402
24.188841 1.04765 -2.1182332
0.66012812 0.027321137 -0.17703223
9.0676508 0.37212247 -2.0951941
10.820358 0.44026777 -2.105005
13.27352 0.53776377 -2.1040437
17.105644 0.68703818 -2.1020026
24.188368 0.96304381 -2.1178844
0.66601533 0.025120044 -0.17858516
0.67184651 0.025105465 -0.15521623
10.833671 0.40103924 -2.1072946
13.273428 0.48904052 -2.1037309
17.115982 0.62462348 -2.1029775
24.17979 0.87395608 -2.1168387
0.7201634 0.024519565 -0.19307902
0.66803879 0.022511421 -0.15431643
10.838929 0.36335406 -2.108058
13.279079 0.4405089 -2.1043568
17.118059 0.56487733 -2.1029775
24.166763 0.78902102 -2.1154442
41.269814 1.3330182 -2.1639874
0.70479321 0.021656757 -0.1889379
0.66810971 0.020296136 -0.15431643
10.832226 0.32717398 -2.1065314
13.296263 0.396952 -2.1068597
17.099995 0.50752318 -2.1005402
24.137383 0.70795852 -2.1126552
0.71644795 0.019636841 -0.19204374
0.6623292 0.01792217 -0.15296671
10.821475 0.29093164 -2.1042418
13.289608 0.35264459 -2.1056082
17.129446 0.44855294 -2.1039524
24.183413 0.62904525 -2.1164899
0.68174869 0.016304281 -0.18272625
0.66823238 0.015747977 -0.15431643
10.838126 0.25352028 -2.1072946
13.271009 0.30580077 -2.1024795
17.146784 0.38912117 -2.1059024
24.19343 0.54481012 -2.1171873
0.66634995 0.013609008 -0.17858516
0.66243821 0.013297804 -0.15296671
10.833055 0.21557169 -2.1061497
13.271996 0.25947091 -2.1024795
17.136129 0.32903218 -2.10444
24.211121 0.46065268 -2.1185818
0.66832489 0.011315773 -0.17910279
0.65468675 0.010856279 -0.15116711
10.849447 0.17801592 -2.1092029
13.290596 0.21342966 -2.1052952
17.141144 0.2692717 -2.1049275
24.224535 0.37632811 -2.1196277
0.67415535 0.0090608429 -0.1806557
0.65082353 0.0085197398 -0.1502673
10.84804 0.14012013 -2.1088212
13.28336 0.1669327 -2.1040437
17.138008 0.20939142 -2.10444
24.241636 0.29195189 -2.121022
0.66838759 0.0066497107 -0.17910279
0.65474552 0.0063997079 -0.15116711
10.836683 0.10213864 -2.1065314
13.301618 0.12304334 -2.1068597
17.138609 0.15256201 -2.10444
24.242508 0.2073361 -2.121022
0.66647422 0.0044202241 -0.17858516
0.66255862 0.0041632983 -0.15296671
10.848742 0.066271298 -2.1088212
13.282214 0.076506637 -2.1037309
17.143007 0.09275309 -2.1049275
24.247049 0.12696964 -2.1213708
0.6645537 0.0020881556 -0.17806751
0.6508764 0.0019312749 -0.1502673
10.848907 0.028398829 -2.1088212
13.284369 0.03246196 -2.1040437
17.143221 0.035899568 -2.1049275
24.251328 0.042331368 -2.1217194
40.931778 0.064284503 -2.1451464
0.66262507 -0.0002312998 -0.17754988
0.64893031 -0.0004530389 -0.14981739
10.858756 -0.0094760535 -2.1107292
13.290324 -0.016237203 -2.1049824
17.135296 -0.026916079 -2.1039524
24.275236 -0.042368319 -2.1238112
85.548721 -0.20903538 -1.4932628
0.66262025 -0.0025442916 -0.17754988
0.64892483 -0.0027182256 -0.14981739
10.846877 -0.047328725 -2.1084394
13.288213 -0.062619686 -2.1046696
17.139069 -0.08674936 -2.10444
24.262987 -0.12704185 -2.1227653
0.64135754 -0.0047014803 -0.17185585
0.65280873 -0.0050133094 -0.1507172
10.84861 -0.085206531 -2.1088212
13.295815 -0.10906864 -2.105921
17.142632 -0.14660929 -2.1049275
24.270363 -0.21180426 -2.1234624
107.04295 -1.0088859 -1.8685244
0.63940549 -0.0069193034 -0.17133822
0.65278721 -0.0072920071 -0.1507172
10.850209 -0.123097 -2.1092029
13.291401 -0.15543281 -2.1052952
17.153925 -0.20659079 -2.1063898
24.281431 -0.29666841 -2.1245084
0.64903575 -0.0092894388 -0.17392641
0.65275782 -0.0095706154 -0.1507172
10.855602 -0.16105792 -2.1103475
13.296704 -0.20191751 -2.1062338
17.149128 -0.26640621 -2.1059024
24.268293 -0.38123679 -2.1234624
0.65672547 -0.011692497 -0.17599694
0.64882356 -0.011778365 -0.14981739
10.8589 -0.199022 -2.1111107
13.295918 -0.24833043 -2.1062338
17.156033 -0.32641727 -2.1068773
24.2708 -0.46602321 -2.1238112
0.66826916 -0.014231618 -0.17910279
0.64098543 -0.013874426 -0.14801779
10.844398 -0.23662561 -2.1084394
13.291021 -0.29465279 -2.1056082
17.150822 -0.38621166 -2.1063898
24.28496 -0.55110282 -2.1252055
0.65855914 -0.016324857 -0.1765146
0.65846622 -0.016552547 -0.15206692
10.853321 -0.2747266 -2.1103475
13.29781 -0.34124798 -2.1068597
17.149368 -0.44607684 -2.1063898
24.298822 -0.63628709 -2.1266
0.66429132 -0.018787403 -0.17806751
0.66230029 -0.018962465 -0.15296671
10.867994 -0.31306231 -2.1134005
13.280742 -0.38720337 -2.1043568
17.155643 -0.50617075 -2.1073649
24.276539 -0.72051078 -2.1248569
0.6642217 -0.021106096 -0.17806751
0.65444279 -0.020909702 -0.15116711
10.866835 -0.35099676 -2.1134005
13.27741 -0.43117771 -2.1040437
17.157839 -0.56318843 -2.1078525
24.309719 -0.80643648 -2.1279945
0.67573208 -0.023715168 -0.18117334
0.6426807 -0.022779826 -0.14846769
10.869536 -0.38717037 -2.1141639
13.281745 -0.47773486 -2.1049824
17.159735 -0.62322104 -2.1083398
24.330803 -0.88791788 -2.1300862
0.68143642 -0.026297258 -0.18272625
0.65038633 -0.025326373 -0.1502673
10.856349 -0.42464942 -2.1118741
13.279997 -0.52409387 -2.1049824
17.137619 -0.68232614 -2.1059024
24.327555 -0.97284281 -2.1300862
41.257782 -1.664296 -2.1639874
0.69678164 -0.029325627 -0.18686737
0.6561349 -0.027844362 -0.15161701
10.841069 -0.46195748 -2.1092029
13.282036 -0.57061613 -2.1056082
17.139101 -0.74231529 -2.1063898
24.312069 -1.0572367 -2.1290405
0.67158705 -0.030614043 -0.18013807
0.66187376 -0.030402787 -0.15296671
10.847236 -0.50015867 -2.1107292
13.268123 -0.61642557 -2.1037309
17.148304 -0.80269426 -2.1078525
24.312212 -1.1422821 -2.129389
0.6618284 -0.032484598 -0.17754988
0.66954911 -0.033097837 -0.15476632
10.847384 -0.53811687 -2.1111107
13.277728 -0.66332757 -2.1056082
17.157291 -0.8631466 -2.1093147
24.320013 -1.2277431 -2.1304348
0.66171098 -0.03479461 -0.17754988
0.64607728 -0.034198698 -0.1493675
10.853281 -0.57639444 -2.1126373
13.263496 -0.70903879 -2.1037309
17.138317 -0.92217821 -2.1073649
24.35537 -1.3147764 -2.1339211
0.66930073 -0.037536904 -0.17962041
0.64789963 -0.036563523 -0.14981739
10.849243 -0.61416507 -2.1122558
13.253051 -0.75488335 -2.1024795
17.127066 -0.98154217 -2.1063898
24.314831 -1.3977264 -2.1307836
0.66338032 -0.039528247 -0.17806751
0.64193231 -0.038475115 -0.14846769
10.837234 -0.65144318 -2.1103475
13.262166 -0.80185586 -2.1043568
17.127497 -1.0415617 -2.1068773
24.325712 -1.4835628 -2.1321781
0.66131032 -0.041722 -0.17754988
0.65346307 -0.041455928 -0.15116711
10.838813 -0.6895175 -2.1111107
13.247458 -0.84738791 -2.1024795
17.131683 -1.1018511 -2.1078525
24.340267 -1.5697485 -2.1339211
0.65730548 -0.043773413 -0.1765146
0.6474812 -0.043346182 -0.14981739
10.83634 -0.72734779 -2.1111107
13.236536 -0.89309317 -2.101228
17.139614 -1.1624511 -2.1093147
24.350544 -1.6557837 -2.1353157
0.66678429 -0.046743043 -0.17910279
0.6434381 -0.045332141 -0.1489176
10.841569 -0.76572263 -2.1126373
13.233338 -0.93929178 -2.101228
17.135452 -1.2222725 -2.1093147
24.356539 -1.7416253 -2.1363616
0.67047042 -0.04935392 -0.18013807
0.64327598 -0.047577884 -0.1489176
10.825126 -0.80254591 -2.109966
13.237859 -0.98606592 -2.1024795
17.135038 -1.2823751 -2.1098022
24.350309 -1.8266351 -2.1363616
0.67029399 -0.051693998 -0.18013807
0.65476346 -0.050726179 -0.15161701
10.814428 -0.83971983 -2.1084394
13.226458 -1.0316544 -2.101228
17.138376 -1.3428003 -2.1107774
24.387484 -1.9150538 -2.1401963
107.09552 -8.4662161 -1.8751913
0.65663022 -0.052946568 -0.1765146
0.66818851 -0.053995926 -0.15476632
10.811431 -0.87746412 -2.1084394
13.224933 -1.0756693 -2.1015408
17.141743 -1.4002721 -2.1117523
24.35285 -1.9978898 -2.1377561
0.65837616 -0.055285383 -0.17703223
0.64857751 -0.05469057 -0.1502673
10.8202 -0.91430318 -2.1107292
13.219129 -1.1216594 -2.101228
17.148617 -1.4611105 -2.1132145
24.393732 -2.0827036 -2.1419394
106.99397 -9.2102413 -1.8744932
0.66972619 -0.058593445 -0.18013807
0.6483826 -0.056954194 -0.1502673
10.82672 -0.95292771 -2.1126373
13.205295 -1.1669264 -2.0996637
17.135504 -1.5202599 -2.1122396
24.398224 -2.1688991 -2.1429853
0.6675936 -0.060755774 -0.17962041
0.65400183 -0.059749015 -0.15161701
10.815508 -0.98999858 -2.1111107
13.209008 -1.2137375 -2.100915
17.130093 -1.5800645 -2.1122396
24.410343 -2.2558849 -2.1447284
0.66930079 -0.063267551 -0.18013807
0.64602917 -0.061295263 -0.14981739
10.800261 -1.0266311 -2.1088212
13.216491 -1.2609637 -2.1027923
17.132378 -1.640607 -2.1132145
24.370586 -2.3380349 -2.1419394
0.65754008 -0.06447237 -0.17703223
0.65162945 -0.064122483 -0.15116711
10.790749 -1.0637467 -2.1076763
13.20218 -1.3061179 -2.101228
17.134449 -1.701185 -2.1141896
24.386068 -2.4254563 -2.144031
0.66499883 -0.067548119 -0.17910279
0.65334028 -0.066594303 -0.15161701
10.785018 -1.1012077 -2.1072946
13.187715 -1.3511873 -2.0996637
17.136303 -1.7617968 -2.1151645
24.381418 -2.5109732 -2.1443799
0.64938891 -0.068253525 -0.17496169
9.0465546 -0.95402402 -2.100143
10.796727 -1.1404976 -2.1103475
13.184882 -1.397421 -2.0999765
17.133999 -1.8220228 -2.1156518
24.376467 -2.596487 -2.1447284
7.8281708 -0.85041142 -2.1098928
9.0296078 -0.98411852 -2.0969937
10.782921 -1.1771129 -2.1084394
13.191706 -1.4447267 -2.1018538
17.1078 -1.8796525 -2.1132145
24.398943 -2.6850481 -2.1475174
7.8136358 -0.87643963 -2.1067872
9.0358 -1.0167214 -2.0992434
10.768993 -1.2136459 -2.1065314
13.182657 -1.4903218 -2.101228
17.105082 -1.939806 -2.1137023
24.377542 -2.7688506 -2.1464715
7.8143663 -0.90415305 -2.1078224
9.034132 -1.0484805 -2.0996931
10.772491 -1.252136 -2.108058
13.169525 -1.5354136 -2.0999765
17.10215 -1.9999632 -2.1141896
24.371689 -2.8543909 -2.1468203
7.8092451 -0.93119603 -2.1073048
9.0284824 -1.0797777 -2.0992434
10.766105 -1.2894979 -2.1076763
13.164085 -1.5813745 -2.0999765
17.095064 -2.0596488 -2.1141896
24.357618 -2.9389689 -2.1464715
7.8193688 -0.96009779 -2.1109281
9.0246582 -1.1112865 -2.0992434
58.115429 -7.1665668 3.0687714
10.775178 -1.3287526 -2.1103475
13.146723 -1.6258614 -2.0980992
17.08383 -2.1188202 -2.1137023
24.414436 -3.0323248 -2.1523981
7.823637 -0.9883551 -2.1129987
9.0207243 -1.1427816 -2.0992434
58.165356 -7.3789368 3.0727489
10.768526 -1.36611 -2.109966
13.148806 -1.6727394 -2.0993509
17.080269 -2.1789436 -2.1141896
24.427418 -3.120558 -2.15449
7.800981 -1.0131704 -2.1078224
9.020545 -1.1747663 -2.100143
10.746172 -1.401406 -2.1065314
13.154639 -1.7201638 -2.101228
17.060747 -2.2370026 -2.1127272
24.392672 -3.2026944 -2.1523981
7.7916527 -1.0396284 -2.1062696
9.0260477 -1.2075387 -2.1023927
10.756782 -1.4409939 -2.1095843
13.140723 -1.7650195 -2.0999765
17.072508 -2.2991915 -2.1151645
24.385292 -3.2883532 -2.1527467
7.801374 -1.0686553 -2.1098928
9.0063324 -1.236917 -2.0987935
10.751686 -1.4785334 -2.1095843
13.122741 -1.8092599 -2.0980992
17.060446 -2.3582287 -2.114677
24.377611 -3.3740001 -2.1530955
7.7880306 -1.0945364 -2.1073048
8.9980993 -1.2678034 -2.0978935
10.742571 -1.5155061 -2.1088212
13.12808 -1.8567156 -2.0999765
17.048603 -2.4142334 -2.1141896
24.361742 -3.4585137 -2.1527467
7.792007 -1.1214571 -2.1093752
8.9977045 -1.2981921 -2.0987935
10.719998 -1.5485953 -2.1053865
13.114032 -1.8991072 -2.0987251
17.05229 -2.4724643 -2.1156518
24.326479 -3.5358419 -2.150655
7.7920675 -1.1478533 -2.1104105
8.9991331 -1.3288764 -2.100143
10.718688 -1.5847096 -2.1061497
13.11157 -1.9431635 -2.0993509
17.032217 -2.5272501 -2.1141896
24.314619 -3.616492 -2.150655
7.7748466 -1.1716713 -2.1067872
9.0004568 -1.3595843 -2.1014926
10.711432 -1.619952 -2.1057682
13.10896 -1.9872247 -2.0999765
17.03944 -2.5860999 -2.1161394
24.290676 -3.6953044 -2.1496093
7.7685909 -1.1998647 -2.1062696
8.9800062 -1.3901786 -2.0978935
10.713184 -1.6604031 -2.1072946
13.093781 -2.0340452 -2.0987251
17.025463 -2.6508963 -2.1156518
24.280905 -3.7849228 -2.1499579
7.7643557 -1.2269748 -2.1062696
8.9712505 -1.4209067 -2.0969937
10.711201 -1.6984041 -2.108058
13.074896 -2.0778782 -2.0968478
17.063154 -2.7178044 -2.1215017
24.259676 -3.8684013 -2.1492605
7.7638392 -1.2546865 -2.1073048
8.9720068 -1.453148 -2.0983434
10.709084 -1.7364113 -2.1088212
13.079262 -2.1254065 -2.0987251
17.077074 -2.7811782 -2.1244266
24.242092 -3.9524188 -2.148912
7.7689424 -1.283354 -2.1098928
8.9726467 -1.4854121 -2.0996931
10.687462 -1.7712141 -2.1057682
13.071763 -2.1710486 -2.0987251
17.035933 -2.8355565 -2.1205268
24.239939 -4.03898 -2.1499579
7.7606053 -1.3098218 -2.1088579
8.9712505 -1.5173733 -2.1005929
10.687021 -1.8094928 -2.1069131
13.05242 -2.2146819 -2.0968478
17.029846 -2.8956716 -2.1210144
24.186409 -4.1168818 -2.1464715
80.133377 -13.69745 -1.4190203
7.7483706 -1.3355907 -2.1067872
8.9582186 -1.547353 -2.0987935
10.68064 -1.8467865 -2.1069131
13.03293 -2.2582061 -2.0949705
17.01181 -2.9537404 -2.1200392
24.164042 -4.1999183 -2.1457744
80.138268 -13.986365 -1.4199628
7.7417588 -1.3622947 -2.1062696
8.9489231 -1.5779366 -2.0978935
10.677995 -1.8847401 -2.1076763
13.024968 -2.3036857 -2.0949705
17.017033 -3.0158761 -2.1219893
24.145309 -4.2835455 -2.1454258
77.348518 -13.777868 -1.3713752
7.7445626 -1.3906759 -2.1083403
8.9452791 -1.6095097 -2.0983434
10.671351 -1.9220018 -2.1076763
13.0324 -2.3519442 -2.0974736
16.990774 -3.0724323 -2.1200392
24.173342 -4.3756094 -2.1492605
40.593124 -7.3623848 -2.1621032
77.174034 -14.024899 -1.3691413
7.722558 -1.4145683 -2.1036813
8.9396067 -1.6407248 -2.0983434
10.64913 -1.9564024 -2.1046233
13.024112 -2.3974214 -2.0974736
16.979946 -3.1317225 -2.1200392
24.110897 -4.4512825 -2.1450772
7.7251701 -1.4429353 -2.105752
8.9414873 -1.6733537 -2.100143
10.653813 -1.9957315 -2.1069131
13.007896 -2.441412 -2.0962222
16.996225 -3.196111 -2.1234517
24.091297 -4.5346804 -2.1447284
7.7295752 -1.4716991 -2.1083403
8.9355917 -1.7045553 -2.100143
10.64871 -2.0332766 -2.1072946
13.014817 -2.4897723 -2.0987251
16.981064 -3.2546716 -2.1229641
24.058859 -4.6199431 -2.1433339
7.7222323 -1.4996512 -2.1078224
8.9181089 -1.7335049 -2.0974436
10.635405 -2.0711663 -2.1061497
13.009482 -2.538214 -2.0993509
16.977394 -3.3154492 -2.1239393
24.046497 -4.7046614 -2.1436825
71.660744 -14.059277 -1.2746888
7.7188458 -1.5269727 -2.1083403
8.9136076 -1.7665584 -2.0978935
10.622334 -2.1071322 -2.105005
13.027669 -2.5890007 -2.1037309
16.96961 -3.3754654 -2.1244266
24.029928 -4.7885699 -2.1436825
71.666138 -14.320307 -1.2756662
7.6872253 -1.5472243 -2.1010931
8.9057894 -1.7957221 -2.0974436
10.617212 -2.1427341 -2.1053865
13.0345 -2.6353192 -2.1062338
16.954433 -3.430933 -2.1239393
23.974865 -4.8603139 -2.1401963
68.643555 -13.953213 -1.2226808
7.6877303 -1.5738698 -2.1026461
8.9169664 -1.8287686 -2.1014926
10.610049 -2.1779304 -2.1053865
12.998601 -2.6729584 -2.1018538
16.954018 -3.4924965 -2.1254015
23.942142 -4.9407501 -2.1388018
7.6913657 -1.6040082 -2.1052344
8.9048071 -1.8586892 -2.100143
10.609682 -2.2184105 -2.1069131
12.967448 -2.7161281 -2.098412
16.976696 -3.5589876 -2.1297889
23.955948 -5.0308452 -2.1415908
65.765816 -13.847044 -1.1731158
7.6913891 -1.6320493 -2.1067872
8.8903103 -1.8896937 -2.0983434
10.601873 -2.2554317 -2.1069131
12.965617 -2.7630231 -2.0996637
16.932474 -3.6145554 -2.1258888
23.949932 -5.1169338 -2.1426368
7.6913109 -1.6601101 -2.1083403
8.8779449 -1.9194797 -2.0969937
10.597774 -2.2932558 -2.1076763
12.961685 -2.8095202 -2.1006021
16.935274 -3.6770086 -2.1278389
23.912455 -5.1962729 -2.1408937
7.6816945 -1.6861194 -2.1073048
8.8826103 -1.9529684 -2.0996931
10.585869 -2.3293912 -2.1069131
12.967231 -2.8581491 -2.1031051
16.910706 -3.7335334 -2.1263764
23.89806 -5.2805715 -2.1412423
7.6625638 -1.7099776 -2.1036813
8.8779879 -1.9828384 -2.100143
10.589169 -2.3689003 -2.1092029
12.946116 -2.898545 -2.101228
16.917603 -3.7939346 -2.1288137
23.875595 -5.3630857 -2.1408937
61.125942 -13.764116 -1.0936725
7.6662722 -1.7375134 -2.1062696
8.8710117 -2.0138164 -2.100143
10.585084 -2.4048719 -2.109966
12.943624 -2.945471 -2.1024795
16.911997 -3.8547299 -2.1297889
23.857679 -5.4422302 -2.1408937
7.6676908 -1.7659975 -2.1083403
8.8582325 -2.0434554 -2.0987935
10.565147 -2.4391563 -2.1076763
12.940963 -2.992415 -2.1037309
16.882967 -3.910157 -2.1278389
23.850182 -5.5281749 -2.1419394
7.6614795 -1.792752 -2.1083403
8.8548393 -2.0752532 -2.0996931
10.560391 -2.4769173 -2.1084394
12.941977 -3.0402796 -2.1056082
16.869217 -3.9690659 -2.1278389
23.846254 -5.6150475 -2.1433339
7.6457777 -1.8172512 -2.105752
8.8475409 -2.1061497 -2.0996931
10.55932 -2.5155849 -2.109966
12.954342 -3.0909383 -2.1093626
16.843674 -4.0251575 -2.1263764
23.826509 -5.6982522 -2.1433339
7.6321969 -1.8407834 -2.1036813
8.8442974 -2.1363928 -2.1005929
10.552829 -2.5510485 -2.1103475
12.924822 -3.1292315 -2.1062338
16.830233 -4.0809913 -2.1263764
23.815228 -5.7791119 -2.144031
7.6332312 -1.8692517 -2.105752
8.8348932 -2.1667881 -2.100143
10.561019 -2.5920806 -2.1137822
12.909984 -3.1733854 -2.1056082
16.842871 -4.146358 -2.1297889
23.783302 -5.8593478 -2.1429853
7.6247845 -1.8954192 -2.1052344
8.8291664 -2.1980853 -2.1005929
10.559527 -2.6308284 -2.1153085
12.917993 -3.2232122 -2.1087368
16.805185 -4.1993508 -2.126864
23.757801 -5.9455113 -2.1426368
7.630898 -1.9266632 -2.1088579
8.8195515 -2.2284141 -2.100143
10.5422 -2.6675868 -2.1137822
12.902263 -3.269567 -2.1081111
16.778879 -4.2550578 -2.1254015
23.736902 -6.0284052 -2.1426368
7.6072826 -1.9489728 -2.1041989
8.8132114 -2.2612085 -2.1005929
10.52712 -2.7029047 -2.1126373
12.890773 -3.3145845 -2.1081111
16.76317 -4.3165274 -2.1254015
23.723433 -6.113214 -2.1433339
7.5948243 -1.9740577 -2.1026461
8.8207521 -2.2943461 -2.104192
10.53092 -2.7430992 -2.1153085
12.895 -3.3612995 -2.1106141
16.741081 -4.3700867 -2.1244266
23.717369 -6.2000189 -2.1447284
7.5994453 -2.0021853 -2.105752
8.8089209 -2.3241282 -2.1032922
10.521767 -2.7780058 -2.1153085
12.864093 -3.401242 -2.1074855
16.729565 -4.4295139 -2.1249142
23.700533 -6.279655 -2.1450772
7.5924101 -2.0287001 -2.105752
8.7913418 -2.3523443 -2.1010427
10.515798 -2.8157325 -2.1160717
12.855957 -3.4471486 -2.1081111
16.729336 -4.492002 -2.126864
23.690012 -6.365449 -2.1461229
7.5871468 -2.0556955 -2.1062696
8.7924814 -2.3855686 -2.1032922
10.494536 -2.8493357 -2.1137822
12.840034 -3.4909666 -2.1074855
16.679077 -4.5409842 -2.1224766
23.683027 -6.4522939 -2.1475174
7.5836501 -2.0831902 -2.1073048
8.7916164 -2.4183133 -2.105092
10.484527 -2.885951 -2.1137822
12.854431 -3.5431137 -2.1118655
16.693741 -4.6076279 -2.1263764
23.618109 -6.5232539 -2.1436825
7.5670266 -2.1070583 -2.1047165
8.794385 -2.4521275 -2.1077914
10.474389 -2.9225314 -2.1137822
12.834374 -3.5858364 -2.1106141
16.677557 -4.6658716 -2.1263764
23.632414 -6.6205244 -2.1471689
7.5648313 -2.1363542 -2.1062696
8.7745199 -2.4796307 -2.105092
10.465496 -2.961437 -2.1141639
12.821146 -3.6328528 -2.1106141
16.653528 -4.7218928 -2.1254015
23.612993 -6.7040644 -2.1475174
7.5610423 -2.16381 -2.1073048
8.7616253 -2.5107009 -2.104192
10.473967 -3.0033617 -2.11798
12.808386 -3.6775849 -2.1106141
16.632296 -4.7818022 -2.1249142
23.631573 -6.7985668 -2.1513524
41.209377 -11.871103 -2.2475154
7.553443 -2.1901898 -2.1073048
8.7551231 -2.5402849 -2.1046422
10.459649 -3.0388086 -2.1172168
12.79612 -3.7200384 -2.1106141
16.62397 -4.8391495 -2.1258888
23.557964 -6.8665204 -2.1468203
7.5442853 -2.2146819 -2.1067872
8.7536802 -2.5730283 -2.1064417
10.44198 -3.0712614 -2.1156902
12.790638 -3.7669151 -2.1118655
16.610785 -4.898272 -2.1263764
23.55035 -6.9491148 -2.1482146
7.534657 -2.2404525 -2.1062696
8.7521172 -2.6057932 -2.1082413
10.433078 -3.108253 -2.1160717
12.777411 -3.8115394 -2.1118655
16.593586 -4.9562244 -2.1263764
23.495407 -7.0221491 -2.1454258
7.5323391 -2.2684107 -2.1078224
8.7336397 -2.6335149 -2.1059918
10.427803 -3.1463532 -2.1172168
12.756464 -3.8538325 -2.1106141
16.591385 -5.0187144 -2.1283264
23.47838 -7.1064296 -2.1461229
7.5373101 -2.2986341 -2.1114457
8.7267218 -2.6630306 -2.1064417
10.428022 -3.1861763 -2.1195064
12.747393 -3.8972685 -2.1112397
16.582243 -5.0760307 -2.1293013
23.43819 -7.1836696 -2.1447284
7.5333385 -2.3247557 -2.1124811
8.7192345 -2.6940517 -2.1068916
10.400517 -3.2155201 -2.1160717
12.737484 -3.94291 -2.1118655
16.553047 -5.1303568 -2.1278389
23.416779 -7.2666221 -2.1450772
7.5173912 -2.3500452 -2.1104105
8.7172174 -2.7267983 -2.1086912
10.386789 -3.2530315 -2.1156902
12.730487 -3.9919329 -2.113117
16.53125 -5.1869173 -2.1273515
23.383667 -7.3459291 -2.1443799
43.085068 -13.551606 -2.3670509
7.4925661 -2.371026 -2.105752
8.7164536 -2.7616737 -2.1109407
10.382856 -3.2916415 -2.1172168
12.705178 -4.0327601 -2.1112397
16.523479 -5.25108 -2.1288137
23.350286 -7.4250927 -2.1436825
42.101162 -13.403816 -2.3155522
7.5026412 -2.4030583 -2.1109281
8.6961126 -2.7869945 -2.1082413
10.37691 -3.3296638 -2.1183615
12.684213 -4.0724549 -2.1099885
16.505976 -5.3058448 -2.1288137
23.339399 -7.5114393 -2.1450772
41.969028 -13.515193 -2.3107374
7.5001454 -2.4297106 -2.1124811
8.6863308 -2.8173325 -2.1082413
10.36021 -3.3622389 -2.1172168
12.673676 -4.1179271 -2.1106141
16.483578 -5.3622012 -2.1283264
23.28405 -7.5789266 -2.1422882
41.545597 -13.539077 -2.2900124
7.4732609 -2.4498587 -2.1073048
8.6861982 -2.8491583 -2.1104908
10.350277 -3.3989947 -2.1175983
12.663705 -4.1611652 -2.1112397
16.461935 -5.4155927 -2.1278389
23.261236 -7.6614041 -2.1426368
40.730331 -13.422968 -2.2475154
7.4811668 -2.4814041 -2.1119635
8.6793976 -2.8822043 -2.1113906
10.325307 -3.4307697 -2.1149271
12.652117 -4.2087989 -2.1118655
16.44574 -5.4771466 -2.1283264
23.249472 -7.7475929 -2.144031
40.680859 -13.57216 -2.2475154
7.4468174 -2.4988985 -2.1047165
8.6729774 -2.9137249 -2.1122904
10.324434 -3.4705443 -2.1172168
12.637348 -4.2529378 -2.1118655
16.445335 -5.5408573 -2.1307638
23.207184 -7.8236089 -2.1426368
7.4508557 -2.5292246 -2.1083403
8.6627541 -2.9439814 -2.1122904
10.315973 -3.5078263 -2.11798
12.618686 -4.2957506 -2.1112397
16.422136 -5.5969481 -2.1302764
23.213676 -7.9161463 -2.1457744
7.454772 -2.5596092 -2.1119635
8.637681 -2.9691343 -2.1086912
10.305523 -3.5444527 -2.1183615
12.592407 -4.3359132 -2.1093626
16.383732 -5.647769 -2.1278389
23.144464 -7.9828348 -2.1419394
7.4311914 -2.5805454 -2.1078224
8.6364689 -3.0024672 -2.1109407
10.291233 -3.5797594 -2.11798
12.588388 -4.3837404 -2.1112397
16.356421 -5.7023101 -2.126864
23.142796 -8.0727644 -2.1443799
7.4330745 -2.6103101 -2.1109281
8.6259356 -3.0325956 -2.1109407
10.269416 -3.6124029 -2.1160717
12.573009 -4.4276557 -2.1112397
16.340158 -5.7606897 -2.1273515
23.106958 -8.1508465 -2.1436825
7.4220972 -2.6355939 -2.1104105
8.62815 -3.0672565 -2.11409
10.256743 -3.6482282 -2.1160717
12.553755 -4.4701915 -2.1106141
16.308731 -5.8136926 -2.1258888
23.085873 -8.2341328 -2.1443799
7.4201255 -2.6640973 -2.1124811
8.6142635 -3.0945337 -2.1131902
10.249489 -3.6860018 -2.1172168
12.546298 -4.5144715 -2.1118655
16.296835 -5.8704343 -2.126864
23.045744 -8.3106117 -2.1433339
7.4130664 -2.6893473 -2.1129987
8.6015768 -3.123919 -2.1127403
10.24828 -3.7239931 -2.1195064
12.52675 -4.5568881 -2.1112397
16.276243 -5.9272852 -2.126864
23.042803 -8.4005604 -2.1457744
7.4085999 -2.7184956 -2.1145515
8.5887909 -3.1532536 -2.1122904
10.234562 -3.7615302 -2.1195064
12.521088 -4.606863 -2.113117
16.240551 -5.9785771 -2.1249142
23.0096 -8.4795656 -2.1454258
7.3936319 -2.7423251 -2.1129987
8.5808296 -3.1860685 -2.1131902
10.206647 -3.7917628 -2.1164536
12.512337 -4.6532965 -2.1143684
16.233412 -6.0436025 -2.126864
22.964922 -8.5542679 -2.144031
7.3858232 -2.7687948 -2.1135163
8.5829897 -3.2192967 -2.1163394
10.195188 -3.8280578 -2.1168351
12.485742 -4.6905947 -2.1124914
16.202133 -6.0932083 -2.1254015
22.916277 -8.6273584 -2.1422882
7.3747945 -2.7925878 -2.1129987
8.5625887 -3.2457838 -2.11409
10.187943 -3.8639336 -2.11798
12.47668 -4.7369542 -2.1137428
16.19932 -6.1567802 -2.1278389
22.917339 -8.7146358 -2.1450772
7.3722181 -2.8210752 -2.1150692
8.5384684 -3.2707734 -2.1109407
10.190893 -3.9057961 -2.1214147
12.460069 -4.780477 -2.1137428
16.166611 -6.2090182 -2.1263764
22.909098 -8.8031559 -2.1471689
7.371335 -2.8502753 -2.1176574
8.5397205 -3.3054821 -2.11409
10.168043 -3.9378004 -2.1195064
12.450673 -4.826798 -2.1149943
16.141138 -6.2639761 -2.1258888
22.863371 -8.8772993 -2.1457744
7.3469458 -2.8703649 -2.1135163
8.5244999 -3.3338516 -2.1131902
10.145095 -3.9696922 -2.1175983
12.426392 -4.8673472 -2.1137428
16.141352 -6.3289771 -2.1288137
22.832245 -8.9570541 -2.1457744
7.3135219 -2.8867722 -2.1067872
8.5273104 -3.3693163 -2.1167896
10.134827 -4.0065241 -2.1183615
12.412999 -4.912148 -2.1143684
16.11178 -6.3823571 -2.1278389
22.800838 -9.0366983 -2.1457744
7.3374944 -2.9258792 -2.1166222
8.5046377 -3.3947272 -2.11409
10.135365 -4.0477028 -2.1214147
12.395777 -4.9554477 -2.1143684
16.107834 -6.4459352 -2.1302764
22.817247 -9.1354876 -2.1503065
7.3075252 -2.9435337 -2.1109281
8.4836998 -3.4207492 -2.1118405
10.104788 -4.0764465 -2.11798
12.374741 -4.9972072 -2.1137428
16.118362 -6.5155134 -2.1346636
22.792606 -9.2180672 -2.1510036
7.3043642 -2.9719367 -2.1129987
8.4825363 -3.4547527 -2.1145399
10.083225 -4.1087308 -2.1164536
12.379169 -5.049325 -2.1174972
16.042223 -6.5499763 -2.1275952
22.797178 -9.3126402 -2.15449
61.12093 -24.992779 -3.4606631
7.3100266 -3.0040238 -2.1176574
8.4776335 -3.4873061 -2.1163394
10.063375 -4.1416607 -2.1153085
12.354163 -5.0894961 -2.1162457
16.010086 -6.6021504 -2.1263764
22.7719 -9.3951998 -2.1551871
7.290575 -3.0258193 -2.1150692
8.4636087 -3.5161297 -2.1158895
10.065172 -4.1835446 -2.1187432
12.33997 -5.1341071 -2.1168714
16.016264 -6.670207 -2.1302764
22.727932 -9.4700336 -2.1541414
7.2835321 -3.0527439 -2.1161046
61.005367 -25.581673 1.1546861
8.44769 -3.5441444 -2.1149898
10.048697 -4.2178931 -2.1183615
12.307405 -5.1710286 -2.1143684
15.996542 -6.727612 -2.1307638
22.713102 -9.5570393 -2.1558845
7.2781682 -3.0804079 -2.1176574
60.915703 -25.794466 1.1546861
8.4298849 -3.5713301 -2.1136403
10.035721 -4.2537107 -2.1187432
12.289279 -5.2139583 -2.1143684
15.951035 -6.7740989 -2.1278389
22.679604 -9.6362638 -2.1558845
7.265595 -3.1050358 -2.1171398
8.417367 -3.6007345 -2.1136403
10.011788 -4.2848539 -2.1168351
12.281899 -5.2614908 -2.1162457
15.941887 -6.8359952 -2.1297889
22.660475 -9.7216568 -2.1572788
7.2547121 -3.1303785 -2.1171398
8.4101143 -3.6324122 -2.1149898
9.9949675 -4.3189964 -2.1164536
12.267083 -5.3058991 -2.1168714
15.914284 -6.8900237 -2.1293013
22.611776 -9.7943621 -2.1558845
7.243741 -3.155683 -2.1171398
8.4098873 -3.6671996 -2.118139
9.9870272 -4.3569994 -2.11798
12.237626 -5.3439441 -2.1149943
15.897414 -6.9487133 -2.1302764
22.584751 -9.8764248 -2.1565816
70.496719 -30.887218 -1.3434514
7.2344499 -3.1817269 -2.1176574
8.3952513 -3.6957479 -2.1176891
9.9789457 -4.3949995 -2.1195064
12.211667 -5.383441 -2.1137428
15.894855 -7.0137801 -2.1332014
22.539202 -9.9503717 -2.1555357
70.234863 -31.065161 -1.3405194
7.2250652 -3.2077446 -2.118175
33.595333 -14.92249 0.64165521
8.3769569 -3.722656 -2.1163394
9.9635429 -4.4298058 -2.1195064
12.192801 -5.4260354 -2.1137428
15.866648 -7.0676055 -2.1327136
22.504332 -10.028987 -2.1555357
69.979912 -31.244915 -1.337727
7.2208757 -3.2361054 -2.1202457
8.3603554 -3.7502792 -2.1154397
9.944437 -4.4629502 -2.1187432
12.184597 -5.4734192 -2.1156199
15.838259 -7.1213179 -2.1322262
22.46192 -10.104213 -2.1548386
70.052742 -31.571165 -1.3412175
7.2095356 -3.2612917 -2.1202457
8.3560896 -3.7834585 -2.1176891
9.9216442 -4.4943948 -2.1172168
12.158222 -5.5126557 -2.1143684
15.838613 -7.188046 -2.1356385
22.411999 -10.175968 -2.1534441
7.1875634 -3.2816231 -2.1171398
8.3523617 -3.8151963 -2.1199389
9.9130373 -4.5322657 -2.1187432
12.125504 -5.54637 -2.1118655
15.811078 -7.2388768 -2.1351511
22.372719 -10.252479 -2.1530955
33.544003 -15.378892 -1.9339186
7.18717 -3.3102891 -2.1202457
8.3283739 -3.839433 -2.1172395
9.9050846 -4.5684028 -2.1202698
12.10607 -5.5886617 -2.1118655
15.800131 -7.3006854 -2.1371009
22.324129 -10.319924 -2.151701
70.812653 -32.795059 -1.3621603
7.1773229 -3.3361714 -2.1207633
33.473919 -15.566489 0.64437777
8.3166876 -3.8693025 -2.1176891
9.9015369 -4.6087494 -2.122941
12.090069 -5.6325545 -2.1124914
15.781746 -7.3591495 -2.1380758
22.302414 -10.404526 -2.1530955
7.1708813 -3.3636656 -2.1223164
33.453773 -15.699383 0.64504099
8.2978382 -3.8958254 -2.1163394
9.8800583 -4.6407804 -2.1217961
12.059608 -5.6696792 -2.1106141
15.748778 -7.4108114 -2.1371009
22.255146 -10.477221 -2.1520495
7.1503654 -3.3845439 -2.1197281
33.434063 -15.825634 0.64566922
8.2901573 -3.9258225 -2.1176891
9.8567028 -4.6718764 -2.1202698
12.040739 -5.7096391 -2.1106141
15.720529 -7.4612937 -2.1366136
22.207638 -10.549712 -2.1510036
7.1408458 -3.4090686 -2.1202457
8.2799196 -3.9564168 -2.1185889
9.8376141 -4.7028432 -2.1195064
12.027864 -5.7550449 -2.1118655
15.708711 -7.5229821 -2.1385634
22.13834 -10.611666 -2.147866
7.1265626 -3.4343798 -2.1197281
8.2607927 -3.9827566 -2.1172395
9.8150043 -4.7363086 -2.1183615
11.988902 -5.7904992 -2.1087368
15.678782 -7.5760431 -2.1380758
22.093988 -10.685409 -2.1471689
7.12148 -3.4626138 -2.1217985
8.2408829 -4.0104485 -2.1158895
9.8125353 -4.7774158 -2.1214147
11.97927 -5.8375049 -2.1106141
15.650908 -7.6334581 -2.1380758
22.081623 -10.774699 -2.1496093
7.1110849 -3.4883025 -2.1223164
8.2320824 -4.0417671 -2.1172395
9.7957983 -4.8116388 -2.1214147
11.955276 -5.8775425 -2.1099885
15.617043 -7.6845374 -2.1371009
22.004553 -10.832353 -2.1457744
72.318184 -35.663383 -1.4074668
7.091939 -3.5096762 -2.1202457
8.2196693 -4.0713425 -2.1176891
9.775424 -4.844059 -2.1206512
11.938226 -5.9209929 -2.1106141
