# .PCD v0.7 - Point Cloud Data file format
VERSION 0.7
FIELDS x y z
SIZE 4 4 4
TYPE F F F
COUNT 1 1 1
WIDTH 1483
HEIGHT 1
VIEWPOINT 0 0 0 1 0 0 0
POINTS 1483
DATA ascii
-27.777912 5.6565261 7.5958219
-7.7271986 1.5833558 -2.1135163
-8.882288 1.8232701 -2.0933945
-10.621206 2.1821527 -2.1076763
-12.988461 2.673233 -2.1002893
-16.860088 3.4762146 -2.1137023
-23.840679 4.9198055 -2.1297376
-27.832846 5.7588377 6.5618224
-27.778805 5.7577682 7.6015153
-7.7008214 1.6059809 -2.1078224
-8.8834982 1.8558601 -2.0951941
-10.611603 2.2188129 -2.1072946
-12.996449 2.722203 -2.1031051
-16.855623 3.5366733 -2.114677
-23.870155 5.0128284 -2.1339211
-27.827827 5.85917 6.5654216
-7.6460347 1.6224245 -2.0943637
-8.8868275 1.8873311 -2.0974436
-10.601873 2.2554302 -2.1069131
-12.987352 2.7652831 -2.1031051
-16.847685 3.5933776 -2.1151645
-23.821337 5.0894608 -2.1311321
-7.6519427 1.6502146 -2.0974696
-8.891614 1.9208118 -2.100143
-10.594336 2.290575 -2.1069131
-12.97955 2.8110223 -2.1034181
-16.842798 3.6538491 -2.1161394
-23.819902 5.1718097 -2.1325266
-29.861149 6.4889436 5.9398842
-7.6517973 1.6781566 -2.0990226
-8.8810482 1.9509994 -2.0992434
-10.599698 2.3304939 -2.1095843
-12.963873 2.8550351 -2.1024795
-16.849325 3.7168999 -2.1185768
-23.813381 5.2574973 -2.1335726
-7.6534343 1.706538 -2.1010931
-8.8665762 1.9802892 -2.0974436
-10.587667 2.3666234 -2.1088212
-12.95961 2.9015651 -2.1034181
-16.828503 3.7739513 -2.1176019
-23.814323 5.3449535 -2.1353157
-7.6530838 1.7345226 -2.1026461
-8.8675623 2.0114057 -2.0992434
-10.58317 2.4044368 -2.1095843
-12.967253 2.9484673 -2.1062338
-16.819763 3.8306181 -2.1180894
-23.78775 5.4262767 -2.1346183
-40.964382 9.3519983 -2.2020879
-28.232689 6.4505897 6.6859956
-7.6510549 1.7607584 -2.1036813
-8.8642845 2.0432227 -2.100143
-10.575139 2.4395168 -2.1095843
-12.962655 2.9950478 -2.1071725
-16.814026 3.8910973 -2.1190643
-23.768663 5.5092793 -2.1346183
-40.721363 9.4461918 -2.1907833
-28.225185 6.5526271 6.6895943
-7.6483111 1.7896712 -2.1047165
-8.8722782 2.0777051 -2.1037421
-10.573771 2.4800558 -2.1111107
-12.934283 3.0384727 -2.1043568
-16.796476 3.9488575 -2.1185768
-23.757046 5.5940413 -2.1353157
-29.472004 6.9451637 5.8856945
-40.643707 9.5852852 -2.1884806
-7.6457777 1.81725 -2.105752
-8.8608112 2.1093094 -2.1028426
-10.56314 2.5164928 -2.1107292
-12.927442 3.0845203 -2.1049824
-16.793474 4.0131617 -2.1200392
-23.732508 5.6801443 -2.1349669
-41.705463 9.989502 -2.2475154
-7.6409431 1.8457165 -2.1062696
-8.8420305 2.1374774 -2.100143
-10.565294 2.5579665 -2.113019
-12.925649 3.1342056 -2.1065466
-16.771646 4.0698853 -2.1190643
-23.743513 5.7704811 -2.1377561
-41.241642 10.038367 -2.2244878
-7.6366568 1.8715029 -2.1067872
-8.8420858 2.1701872 -2.1019428
-10.556753 2.5929885 -2.113019
-12.932447 3.1812987 -2.1093626
-16.768904 4.1312504 -2.1205268
-23.751329 5.8558636 -2.1401963
-40.417004 9.979743 -2.1817815
-7.6319523 1.8986149 -2.1073048
-8.8480768 2.2027924 -2.105092
-10.538114 2.6274457 -2.1111107
-12.917994 3.2232108 -2.1087368
-16.758965 4.1877985 -2.1210144
-23.703684 5.9319701 -2.1377561
-29.822912 7.4633389 5.9757562
-40.081448 10.038024 -2.1654527
-7.6031365 1.9182403 -2.1010931
-8.8384447 2.2331874 -2.1046422
-10.527439 2.661896 -2.1107292
-12.921984 3.2721632 -2.1112397
-16.75194 4.2482247 -2.1219893
-23.717592 6.0235038 -2.1408937
-29.918459 7.5983243 6.0001798
-39.631924 10.072583 -2.1430531
-7.6166401 1.9513702 -2.1067872
-8.8381462 2.2659595 -2.1064417
-10.534726 2.7048576 -2.1141639
-12.892685 3.3150754 -2.1084239
-16.744698 4.3086534 -2.1229641
-23.657835 6.0963087 -2.1374075
-38.995228 10.063076 -2.1106048
-7.6172619 1.9798878 -2.1088579
-8.8165798 2.2949038 -2.1032922
-10.529021 2.7426016 -2.1149271
-12.888681 3.3620541 -2.1096754
-16.728794 4.369997 -2.1229641
-23.663397 6.1859083 -2.1398478
-38.809155 10.159671 -2.1024401
-28.176979 7.381577 6.7246866
-7.6121716 2.0069575 -2.1093752
-8.8122845 2.3266585 -2.104192
-10.515587 2.778338 -2.1141639
-12.880686 3.4080312 -2.1103013
-16.7096 4.4273481 -2.1224766
-23.660917 6.2735777 -2.1415908
-37.399029 9.9301434 -2.0279138
-7.6032534 2.03302 -2.1088579
-8.8116388 2.3594215 -2.1059918
-10.507721 2.8155355 -2.1145453
-12.878251 3.4555326 -2.1118655
-16.686377 4.4835887 -2.1215017
-23.658115 6.3613052 -2.1433339
-37.117279 9.9941626 -2.0145159
-7.5886526 2.057524 -2.1067872
-8.8052292 2.3906784 -2.1064417
-10.503511 2.8537416 -2.1156902
-12.86611 3.5004685 -2.1118655
-16.685949 4.5459795 -2.1234517
-23.608854 6.4365125 -2.1408937
-37.109142 10.131021 -2.0159812
-7.5981889 2.0886092 -2.1114457
-8.7968302 2.4214001 -2.1064417
-10.491594 2.8898649 -2.1153085
-12.851908 3.5448334 -2.1115527
-16.673803 4.6052575 -2.1239393
-23.632336 6.5316234 -2.1450772
-36.488388 10.098554 -1.984161
-29.813997 8.2569475 7.1421962
-7.5945745 2.1161566 -2.1124811
-8.794385 2.4521289 -2.1077914
-10.494679 2.9301658 -2.11798
-12.84579 3.5890274 -2.1124914
-16.673733 4.6647997 -2.1258888
-23.624739 6.6183705 -2.1464715
-35.166206 9.858283 -1.9140308
-29.786451 8.3557701 7.1421962
-7.6023889 2.1455274 -2.1166222
-8.7838964 2.48228 -2.1073413
-10.481127 2.9638832 -2.1172168
-12.842687 3.636534 -2.1140556
-16.64971 4.7208123 -2.1249142
-23.598829 6.69559 -2.1461229
-34.83955 9.8980188 -1.8981206
-29.802094 8.472476 7.1529937
-7.5799947 2.1678004 -2.1124811
-8.7793627 2.5124674 -2.1082413
-10.46883 2.9999111 -2.1168351
-12.843849 3.6829138 -2.1162457
-16.641594 4.7781863 -2.1258888
-23.590631 6.7823291 -2.1475174
-28.209892 8.1103706 5.7055712
-33.662567 9.6843891 -1.8357362
-29.773832 8.5712585 7.1529937
-7.5727644 2.192925 -2.1124811
-8.7761545 2.5447261 -2.109591
-10.462595 3.0357046 -2.1175983
-12.840401 3.7304807 -2.11781
-16.632439 4.8384657 -2.126864
-23.545055 6.8538399 -2.1454258
-33.360115 9.7235842 -1.8210821
-29.773664 8.6838675 7.160192
-7.5669169 2.2198896 -2.1129987
-8.7634783 2.5742469 -2.1086912
-10.453818 3.0727587 -2.11798
-12.814034 3.7713752 -2.1156199
-16.623064 4.8987393 -2.1278389
-23.536276 6.940495 -2.1468203
-28.853056 8.5138073 5.8475327
-33.157406 9.7902031 -1.8118711
-7.5702319 2.2495933 -2.1161046
-8.7544394 2.6048198 -2.1086912
-10.450555 3.1114745 -2.1195064
-12.81215 3.8194649 -2.1174972
-16.586842 4.9510574 -2.1254015
-23.518314 7.0289955 -2.1475174
-33.153645 9.9150419 -1.8135457
-7.5674853 2.2789938 -2.1176574
-8.7434282 2.6348004 -2.1082413
-10.431562 3.1474857 -2.11798
-12.790502 3.8641164 -2.1162457
-16.58466 5.0135179 -2.1273515
-23.489822 7.1098928 -2.1471689
-33.140018 10.04344 -1.8148018
-7.5539412 2.3037052 -2.1161046
-8.7411671 2.6691055 -2.1100409
-10.416758 3.1827326 -2.1172168
-12.792048 3.9133604 -2.1187487
-16.577562 5.0777626 -2.1288137
-23.48772 7.1988454 -2.1492605
-33.32243 10.225858 -1.8267344
-7.5421615 2.3289194 -2.1150692
-8.737854 2.6998041 -2.1113906
-10.418712 3.2231388 -2.1198881
-12.777113 3.9551752 -2.1184359
-16.564423 5.133884 -2.1293013
-23.451031 7.2772465 -2.1482146
-7.5325532 2.3533416 -2.1145515
-8.7227964 2.728543 -2.1100409
-10.411714 3.2588415 -2.1206512
-12.763229 3.999752 -2.1184359
-16.552086 5.1934528 -2.1300325
-23.44578 7.3609419 -2.1499579
-28.235567 8.8701458 5.7528915
-33.602638 10.562634 -1.8459941
-7.5390286 2.3842814 -2.1186929
-8.7076454 2.75721 -2.1086912
-10.409634 3.2981308 -2.1225593
-12.74354 4.0424876 -2.1174972
-16.530071 5.2499971 -2.1295452
-23.446524 7.4511871 -2.1523981
-28.294243 8.9972038 5.7712092
-33.280071 10.58903 -1.8302932
-7.526979 2.409405 -2.1176574
-8.7053909 2.7899659 -2.1104908
-10.384971 3.3302507 -2.1198881
-12.744399 4.0917783 -2.1200001
-16.513535 5.3082738 -2.1297889
-23.393818 7.5244451 -2.1499579
-33.208687 10.694116 -1.8284091
-7.5240374 2.4374509 -2.1192105
-8.7030134 2.8227434 -2.1122904
-10.369548 3.3652689 -2.1191249
-12.724401 4.134408 -2.1190615
-16.502457 5.3683376 -2.1307638
-23.367411 7.60606 -2.1499579
-33.053413 10.771611 -1.8219194
-7.5081401 2.4612911 -2.1171398
-8.7042179 2.8567519 -2.1149898
-10.367064 3.4045055 -2.121033
-12.723027 4.1831188 -2.1212516
-16.479845 5.4246721 -2.1302764
-23.363426 7.6950612 -2.1520495
-32.844906 10.830624 -1.8124989
-7.4976692 2.4868762 -2.1166222
-8.6867943 2.8846595 -2.1131902
-10.360706 3.4425299 -2.1221778
-12.698977 4.2243848 -2.1196871
-16.468342 5.4846735 -2.1312513
-23.343985 7.7790818 -2.1527467
-31.692873 10.573542 -1.7509519
-7.5035939 2.5179517 -2.1207633
-8.6729774 2.9137235 -2.1122904
-10.350487 3.4793029 -2.1225593
-12.678537 4.2667966 -2.1187487
-16.445335 5.5408545 -2.1307638
-23.324242 7.8630676 -2.1534441
-31.61414 10.670056 -1.7486492
-7.4965887 2.5447483 -2.1212809
-8.6651134 2.9430954 -2.1127403
-10.33828 3.5154097 -2.1225593
-12.675539 4.3126349 -2.120626
-16.441904 5.6004801 -2.1327136
-23.311735 7.9495859 -2.1548386
-31.695782 10.814824 -1.7551389
-28.214796 9.6325769 6.8830523
-7.4826274 2.567713 -2.1197281
-84.766922 29.104868 1.5643988
-8.6658449 2.9771233 -2.1154397
-10.322852 3.5483971 -2.1217961
-12.666011 4.3587832 -2.1215644
-16.418499 5.6565456 -2.1322262
-23.27631 8.0283136 -2.1541414
-31.32555 10.810715 -1.7367165
-28.217838 9.7437363 6.8920507
-7.4695163 2.5938537 -2.1186929
-84.759262 29.433384 1.5661441
-8.6535606 3.0067134 -2.1149898
-10.317194 3.5887885 -2.1233225
-12.644354 4.4032288 -2.120626
-16.413652 5.719049 -2.1341763
-23.251907 8.1108217 -2.15449
-31.342285 10.945219 -1.7398568
-28.513079 9.9627914 6.9730325
-7.4622397 2.6205499 -2.1192105
-8.6479959 3.0403512 -2.1163394
-10.304605 3.6247783 -2.1233225
-12.623317 4.4453707 -2.1196871
-16.407558 5.7844496 -2.136126
-23.219696 8.1906118 -2.1541414
-31.955503 11.284658 -1.7760731
-7.4585071 2.6485233 -2.1207633
-8.6231766 3.0637932 -2.1127403
-10.299287 3.6633604 -2.1248491
-12.619673 4.4911809 -2.1215644
-16.384544 5.8374953 -2.1356385
-23.202223 8.27563 -2.1551871
-29.813902 10.633843 6.1528273
-31.105286 11.100567 -1.730855
-7.4515018 2.673893 -2.1212809
-8.6271019 3.099144 -2.1163394
-10.290777 3.6988199 -2.1256123
-12.607635 4.5365424 -2.1221902
-16.360332 5.8933072 -2.1351511
-23.114674 8.3309097 -2.1496093
-30.976171 11.17654 -1.7258307
-7.442122 2.6998892 -2.1212809
-8.618063 3.129905 -2.1167896
-10.270423 3.7320399 -2.1240859
-12.597294 4.5825472 -2.1231289
-16.354584 5.9558148 -2.1371009
-23.268909 8.478384 -2.1666918
-28.21557 10.297521 6.9343414
-7.4272122 2.7238538 -2.1197281
-8.6125736 3.1619835 -2.118139
-10.259175 3.7685447 -2.1244676
-12.577511 4.6251316 -2.122503
-16.352325 6.0197215 -2.1395385
-23.332649 8.5939922 -2.1754072
-7.4194698 2.7504346 -2.1202457
-8.5905199 3.1879621 -2.1154397
-10.251479 3.8063807 -2.1256123
-12.563142 4.6696959 -2.1228158
-16.331213 6.0767651 -2.1395385
-23.302509 8.6753874 -2.1754072
-30.344641 11.309192 -1.6971506
-7.4170604 2.7790282 -2.1223164
-8.5829897 3.219296 -2.1163394
-10.236293 3.8414526 -2.1252308
-12.556011 4.7169919 -2.1243804
-16.306181 6.1323404 -2.1390507
-30.798409 11.600908 -1.7247839
-7.4127345 2.8069522 -2.1238692
-8.5680552 3.2478554 -2.1154397
-10.224656 3.8778565 -2.1256123
-12.539469 4.7607918 -2.1243804
-16.280968 6.1878085 -2.1385634
-7.3974781 2.8307414 -2.1223164
-8.5712242 3.2833204 -2.1190388
-10.207392 3.9121192 -2.1248491
-12.531997 4.8080721 -2.1259446
-16.266682 6.2474499 -2.1395385
-22.87562 8.790288 -2.144031
-30.809875 11.851484 -1.7300174
-29.853888 11.489739 7.3851433
-7.3767414 2.852366 -2.1192105
-8.5597115 3.3132179 -2.1190388
-10.199165 3.9498529 -2.125994
-12.509611 4.8496461 -2.125006
-16.255878 6.3085027 -2.1410007
-22.878229 8.8830671 -2.1471689
-7.3739362 2.8809102 -2.1212809
-8.5499086 3.3437889 -2.119489
-10.19263 3.9882927 -2.1275203
-12.492606 4.8932834 -2.125006
-16.244848 6.3695517 -2.1424632
-22.843374 8.9614182 -2.1468203
-28.277281 11.098827 5.9047756
-30.8528 12.115933 -1.7371352
-29.812849 11.713548 7.3950405
-7.3674302 2.9080498 -2.1223164
-8.5273104 3.3693168 -2.1167896
-10.180471 4.0245667 -2.127902
-12.477286 4.9375882 -2.1253188
-16.207748 6.4203739 -2.1405134
-23.026808 9.1262569 -2.1670403
-30.943993 12.276587 -1.7446717
-7.3751783 2.9409046 -2.1274927
-8.5209274 3.4012277 -2.118139
-10.166362 4.0600791 -2.127902
-12.458141 4.9803762 -2.125006
-16.2048 6.4814582 -2.1429508
-23.079899 9.2406406 -2.1750586
-29.844578 11.961155 7.422935
-7.3528409 2.9602952 -2.1238692
-8.5150242 3.4316509 -2.119489
-10.134635 4.0864282 -2.1240859
-12.458043 5.028316 -2.1278217
-16.172174 6.5306964 -2.1414883
-23.0676 9.3245935 -2.1768019
-33.836815 13.691574 -1.912984
-29.804749 12.060058 7.422935
-7.3447733 2.9853897 -2.1243868
-8.5054026 3.460604 -2.1199389
-10.13921 4.1274157 -2.127902
-12.428494 5.064383 -2.1256318
-16.152954 6.5886121 -2.1419756
-22.990641 9.3869839 -2.1726184
-33.746849 13.785581 -1.9104719
-29.762472 12.164016 7.422935
-7.3302078 3.0108218 -2.1233516
-8.4968748 3.4917536 -2.1208386
-10.138539 4.1705251 -2.130955
-12.420809 5.1144147 -2.1275089
-16.144543 6.6510019 -2.1439257
-22.913527 9.4489498 -2.1684349
-33.725639 13.921363 -1.9121468
-29.746506 12.284929 7.4301333
-7.3267918 3.0393517 -2.1254222
-8.4732218 3.5183892 -2.118139
-10.113041 4.2013707 -2.1286652
-12.40288 5.1577406 -2.1275089
-16.116392 6.7086048 -2.1434383
-22.979723 9.5702381 -2.1778476
-29.87104 12.446345 6.2902102
-29.717833 12.394691 7.4337325
-7.3197012 3.0664017 -2.1264575
-8.4644823 3.5494518 -2.1190388
-10.096503 4.2358871 -2.1282835
-12.390265 5.2032986 -2.1284475
-16.092875 6.7648249 -2.1434383
-23.151875 9.7369051 -2.1973705
-28.123652 11.83943 -1.5991776
-29.735449 12.524063 7.4490294
-7.3089533 3.0919318 -2.1264575
-8.4628086 3.5835364 -2.1217382
-10.079849 4.2703366 -2.127902
-12.372026 5.2465172 -2.1284475
-16.087437 6.828711 -2.1458757
-23.143421 9.8285646 -2.199811
-39.415741 16.755348 -2.2445846
-29.766867 12.659816 7.4679251
-7.2910094 3.1143906 -2.1243868
-8.4627905 3.6184163 -2.1248875
-10.064881 4.3054962 -2.127902
-12.34819 5.2873363 -2.1275089
-16.056204 6.8816977 -2.1449006
-23.061361 9.8888702 -2.1952789
-39.364357 16.895987 -2.2450035
-29.769051 12.783637 7.4796224
-7.2788672 3.1377869 -2.1238692
-8.4400101 3.6418278 -2.1221881
-10.064968 4.3450742 -2.130955
-12.334216 5.3298235 -2.1281347
-16.02965 6.9333282 -2.1444132
-22.885818 9.9035721 -2.1816826
-27.934269 12.099815 -1.5954094
-29.801598 12.914833 7.4985189
-7.2784986 3.1678019 -2.1269751
-8.4254599 3.6704891 -2.1217382
-10.04254 4.3770466 -2.1294286
-12.324589 5.3767948 -2.129699
-0.83689725 0.36528364 0.1121198
-16.016266 6.9940066 -2.1458757
-22.869368 9.991375 -2.1834257
-28.104136 12.29008 -1.6075513
-29.813467 13.04377 7.5129156
-7.269165 3.1939664 -2.1274927
-8.4143791 3.7006617 -2.1221881
-10.020013 4.4089098 -2.127902
-12.307552 5.4205794 -2.1300118
-0.81745148 0.36019835 0.10968242
-16.002655 7.0546732 -2.1473379
-22.710384 10.016475 -2.1715724
-39.115204 17.268164 -2.2408166
-29.767752 13.147767 7.5129156
-7.2491417 3.2154047 -2.1249044
-8.4067545 3.7323837 -2.123538
-10.004561 4.4438596 -2.127902
-12.299384 5.4683261 -2.1318891
-0.79805177 0.35498166 0.10724504
-15.974304 7.1088758 -2.1468506
-22.515112 10.024376 -2.1562331
-38.697128 17.245251 -2.2203009
-7.2431636 3.2430582 -2.1264575
-8.4007883 3.764894 -2.1253376
-9.9925709 4.4803615 -2.1286652
-12.273015 5.507988 -2.1306376
-0.79318595 0.35613906 0.10675755
-15.945769 7.162971 -2.146363
-22.287352 10.01633 -2.1377561
-28.035826 12.611567 -1.6111103
-7.2317996 3.2683201 -2.1264575
-8.375165 3.788573 -2.1221881
-9.9840269 4.5184507 -2.1301918
-12.242917 5.5459051 -2.1287606
-0.78832173 0.35726678 0.10627007
-15.938748 7.2267818 -2.1488004
-22.154274 10.049622 -2.1283433
-38.441212 17.453884 -2.2125549
-7.2256193 3.2959492 -2.1280103
-8.3618908 3.8177829 -2.1221881
-9.9789076 4.5581708 -2.1324816
-12.234262 5.5935354 -2.1306376
-0.77443343 0.35423633 0.10456391
-15.909815 7.2807221 -2.1483128
-22.068333 10.10367 -2.1234624
-38.31469 17.55801 -2.208787
-28.185383 12.922129 7.1583924
-7.2193341 3.3235769 -2.1295633
-8.3544941 3.8479373 -2.123538
-9.9451056 4.5847564 -2.1286652
-12.212058 5.6324205 -2.1300118
-0.76964957 0.35513893 0.10407643
-15.87477 7.3284502 -2.1468506
-21.975056 10.153894 -2.1178844
-38.20549 17.661505 -2.2058561
-28.145914 13.017161 7.1592922
-7.2012649 3.3442426 -2.1274927
-8.3445454 3.8787193 -2.1244378
-9.9440899 4.6243343 -2.1317184
-12.206652 5.6816807 -2.132515
-0.77380377 0.36033753 0.10480764
-15.852692 7.3854961 -2.1473379
-25.516878 11.893287 -2.4630213
-37.99519 17.725521 -2.197273
-28.188597 13.156531 7.181787
-7.1842995 3.3669021 -2.1259398
-8.339777 3.9119618 -2.1266873
-9.917222 4.6540132 -2.1294286
-12.183167 5.7225757 -2.1318891
-0.77972764 0.36641347 0.1057826
-15.84478 7.4492297 -2.1497755
-21.494366 10.1099 -2.0781415
-37.79575 17.793377 -2.1893179
-7.1725035 3.3919578 -2.1259398
-8.3243084 3.9402177 -2.1262374
-9.9222107 4.6986837 -2.1340079
-12.163116 5.7650714 -2.1318891
-0.77126938 0.3657307 0.10480764
-15.836617 7.5130014 -2.1522129
-25.235226 11.977171 -2.4438469
-37.747841 17.932058 -2.1901553
-7.1728239 3.4227979 -2.1295633
-8.2999544 3.96421 -2.123538
-9.9057484 4.7332902 -2.1340079
-12.14292 5.8074908 -2.1318891
-0.77715069 0.3718479 0.1057826
-15.792387 7.559669 -2.1497755
-25.053104 11.998056 -2.4302506
-37.594959 18.020557 -2.1849217
-7.1590919 3.4469771 -2.1290457
-8.2860661 3.9931586 -2.123538
-9.8856277 4.7661338 -2.1332448
-12.138585 5.8575692 -2.1347051
-0.76154661 0.36765414 0.10383269
-15.76948 7.6164727 -2.1502628
-24.709692 11.939808 -2.4009664
-37.459911 18.11689 -2.1807349
-7.147017 3.4719443 -2.1290457
-8.2843437 4.0280228 -2.1266873
-9.8618698 4.7971773 -2.1317184
-12.125169 5.9033642 -2.1359563
-0.77096647 0.37552583 0.10529512
-15.739227 7.6697326 -2.1497755
-24.578318 11.982334 -2.3922508
-37.328236 18.214256 -2.1767573
-7.127914 3.4934721 -2.1269751
-8.264986 4.0543399 -2.1253376
-9.8450642 4.8315725 -2.1317184
-12.104489 5.9456501 -2.1359563
-0.7732141 0.37996572 0.1057826
-15.715923 7.7263784 -2.1502628
-24.357555 11.980122 -2.3748195
-37.185581 18.305634 -2.1721518
-7.1174073 3.5191884 -2.1274927
-8.2514954 4.0817256 -2.1253376
-9.8422136 4.8728781 -2.1347711
-12.075856 5.9813743 -2.1343923
-0.76305646 0.37812075 0.10456391
-15.704443 7.7855062 -2.1522129
-24.215643 12.015481 -2.3650582
-37.138985 18.435951 -2.1729891
-7.1022406 3.5410476 -2.1264575
-8.2371969 4.1105042 -2.1253376
-9.8260002 4.9054894 -2.1347711
-12.06904 6.0305548 -2.1368952
-0.75462943 0.3772316 0.10358895
-15.67362 7.8384981 -2.1517253
-24.063089 12.044644 -2.3542509
-37.017262 18.536852 -2.1696396
-7.0978441 3.5713949 -2.1290457
-8.2262783 4.1409869 -2.1262374
-9.80445 4.939702 -2.1340079
-12.05391 6.0783062 -2.1381464
-0.75685316 0.38165089 0.10407643
-15.63553 7.8877978 -2.1502628
-24.070702 12.153707 -2.3591316
-36.895596 18.64539 -2.1664996
-7.0870566 3.5970235 -2.1295633
-8.2127838 4.1719904 -2.1266873
-9.7766447 4.9685612 -2.1317184
-12.032619 6.1203461 -2.1381464
-0.75367999 0.38352224 0.10383269
-15.638356 7.9612622 -2.1546502
-23.946461 12.196061 -2.3511133
-36.787582 18.752287 -2.1639874
-7.0710177 3.6199794 -2.1285279
-8.2051077 4.2041879 -2.1284869
-9.7732191 5.0098205 -2.1347711
-12.011182 6.1623106 -2.1381464
-0.74880463 0.38433766 0.10334522
-15.635194 8.0284967 -2.1580625
-23.875385 12.265017 -2.3483243
-7.0531893 3.6419811 -2.1269751
-8.1799965 4.2274356 -2.1257875
-9.7486954 5.040298 -2.1332448
-0.9308483 0.48147571 0.091687836
-12.010652 6.2150946 -2.141901
-0.74745846 0.38694918 0.10334522
-15.610599 8.0848513 -2.1585498
-23.878422 12.372114 -2.3528564
-7.0575671 3.6755023 -2.1321514
-0.90985185 0.47384071 0.017906168
-8.1676607 4.2554369 -2.1262374
-0.92451805 0.48188901 0.054638743
-9.7536726 5.0860977 -2.1382058
-0.92916209 0.48472187 0.091687836
-11.986474 6.2530594 -2.1412752
-0.74617118 0.38942572 0.10334522
-15.601298 8.1457615 -2.1609874
-7.094943 3.7249286 -2.1471629
-0.87278539 0.45841664 0.017208073
-8.2027826 4.3102102 -2.1392844
-0.89462644 0.47008783 0.052963994
-9.7715082 5.1366844 -2.145838
-0.92754954 0.48780045 0.091687836
-12.062469 6.3463717 -2.1587958
-0.75886017 0.39942473 0.10529512
-0.94497532 0.49759647 -0.13113143
-0.89195365 0.4698759 -0.088201612
-0.89396942 0.47133622 -0.052963994
-0.88259619 0.46553695 -0.017417502
-0.87126034 0.46130839 0.017208073
-0.83520424 0.44240433 -0.21820252
-0.88239121 0.46759659 0.052335959
-0.83086181 0.44047558 -0.18279503
-0.83783329 0.44435906 0.082972266
-0.86558163 0.4590759 -0.155183
-0.75753146 0.40193903 0.10529512
-0.82058328 0.43557703 -0.11406972
-0.86567491 0.45989996 -0.085761249
-0.85712856 0.45555118 -0.050870556
-28.154758 14.970149 7.3617482
-0.85271835 0.45358926 -0.016859025
-0.85547751 0.45678225 -0.25985435
-0.79548311 0.42492694 0.015742071
-0.80607766 0.43076688 -0.21100408
-0.84896749 0.4538776 0.050451867
-0.85009539 0.45448062 -0.18737444
-0.80816692 0.4322463 0.080183282
-0.81860864 0.43801457 -0.14704841
-0.75430322 0.40377587 0.10505138
-0.82598096 0.44233045 -0.11504468
-0.81488997 0.43657398 -0.08088053
-0.84137148 0.45113942 -0.050033178
-28.12718 15.08798 7.368947
-0.83343005 0.44725585 -0.016509976
-0.8436721 0.45427048 -0.2567485
-0.81512135 0.43908098 0.01616093
-0.82515514 0.44467172 -0.21640292
-0.85089397 0.45873412 0.05066121
-0.84159124 0.45371884 -0.18584797
-0.80665332 0.43506455 0.080183282
-0.83098233 0.44837353 -0.14955136
-0.74066114 0.39980602 0.10334522
-0.86285883 0.46596235 -0.12040692
-0.83790219 0.45267388 -0.083320886
-0.82925028 0.44837394 -0.04940515
-28.142904 15.22315 7.3869429
-0.82482898 0.44635549 -0.016370358
-0.83529025 0.45352548 -0.25467795
-0.82061249 0.44574156 0.016300548
-0.80989975 0.44010571 -0.21280369
-0.83181924 0.45201689 0.049614493
-0.833103 0.45290282 -0.18432149
-0.7981286 0.43407008 0.079486035
-0.8224715 0.44749519 -0.14829989
-0.73926103 0.40238899 0.10334522
-0.83689928 0.4555347 -0.11699458
-0.78935325 0.42983317 0.14235538
-0.83806646 0.45654929 -0.0834952
-0.81014454 0.44170493 -0.048358425
-28.160709 15.353708 7.4049392
-0.80052239 0.43664026 -0.015916595
-0.83886576 0.45907527 -0.25623086
-0.81737578 0.44750008 0.016265644
-0.79647171 0.43623611 -0.20965438
-0.81980538 0.44901624 0.048986461
-0.80404866 0.44056883 -0.17821561
-0.80017906 0.43862984 0.079834662
-0.82271504 0.45117003 -0.14861277
-0.73966295 0.4057931 0.10358895
-0.81972057 0.44971424 -0.11480093
-0.85026473 0.46666411 0.15361866
-0.8173371 0.44877756 -0.08157777
-0.81392652 0.44727477 -0.048672445
-28.143791 15.465778 7.4139366
-0.79731774 0.43832892 -0.015881689
-0.81196499 0.44785875 -0.2484663
-0.80888397 0.44634372 0.016126024
-0.7950207 0.43887493 -0.20965438
-0.80774289 0.44608167 0.048358425
-0.78711623 0.43469045 -0.17478105
-0.78651255 0.43453649 0.078614481
-0.82121438 0.45389578 -0.14861277
-0.74526209 0.41208601 0.10456391
-0.8077237 0.44680747 -0.1133385
-0.79332268 0.43902209 0.14360686
-0.8089444 0.44803599 -0.048463102
-28.123726 15.582814 7.422935
-0.78528893 0.43529284 -0.015672261
-0.81369424 0.45271039 -0.24950157
-0.79683638 0.44333127 0.015916595
-0.80710602 0.44922918 -0.2132536
-0.79222089 0.44112557 0.047521055
-0.79409307 0.44234961 -0.17668915
-0.76751077 0.42771724 0.076871365
-0.80574232 0.44920743 -0.1461098
-0.75768989 0.42241785 0.10651381
-0.79749072 0.44478953 -0.1121198
-0.81938571 0.4571887 0.14861277
-0.80548555 0.44961724 -0.080706216
-0.81252766 0.45392039 -0.048777115
-28.151478 15.733325 7.4454303
-0.79074699 0.44193345 -0.015811879
-0.80705452 0.45271242 -0.24794866
-0.7829991 0.43939838 0.015672261
-0.78506273 0.44073683 -0.20785476
-0.81149584 0.45576248 0.048777115
-0.79254425 0.44511867 -0.17668915
-0.76427603 0.42941803 0.076697052
-0.78522754 0.44137022 -0.14266825
-0.74575484 0.41935423 0.10505138
-0.81142616 0.45646903 -0.11431345
-0.78671777 0.44275007 0.14298111
-0.76918495 0.43288293 -0.077219985
-0.78831547 0.44401163 -0.047416382
-28.10997 15.839151 7.4490294
-0.78563803 0.44286481 -0.015742071
-0.81387717 0.46028182 -0.25053686
-0.79190308 0.44803724 0.015881689
-0.78012758 0.44155473 -0.20695497
-0.79947197 0.45268771 0.048149083
-0.78927726 0.44691512 -0.17630751
-0.76970673 0.43601128 0.077394299
-0.78368205 0.44410849 -0.14266825
-0.75464785 0.42782876 0.10651381
-0.79946762 0.45342284 -0.11285102
-0.80922079 0.45914105 0.14736128
-0.80579281 0.45719606 -0.081054844
-0.80239183 0.45563671 -0.048358425
-0.78582585 0.44659254 -0.015776975
-0.80555248 0.45929277 -0.2484663
-0.77643836 0.44287267 0.015602452
-0.78027421 0.44524086 -0.20740487
-0.80317056 0.45830598 0.048463102
-0.77407229 0.44188127 -0.17325458
-0.7716403 0.44067153 0.077742919
-0.77526635 0.44292152 -0.14141677
-0.75487322 0.4314456 0.10675755
-0.77038431 0.44031093 -0.1089512
-0.84199071 0.48143232 0.15361866
-0.79727429 0.45604885 -0.080357596
-0.79212981 0.45347342 -0.047835067
-0.7773996 0.44522068 -0.015637357
-0.80067492 0.46003652 -0.24743101
-0.77496547 0.44544503 0.015602452
-0.77203602 0.44394025 -0.20560527
-0.78086931 0.44901964 0.047207039
-0.78281337 0.45031932 -0.17554428
-0.78053582 0.44919071 0.078788787
-0.78406495 0.45140359 -0.14329399
-0.75687867 0.43592802 0.10724504
-0.78096116 0.44979843 -0.11065737
-0.79588836 0.45858079 0.14548407
-0.77849609 0.44874033 -0.078614481
-0.77851152 0.44911158 -0.047102366
-0.76725906 0.44279847 -0.015462833
-0.78242648 0.45300952 -0.24225464
-0.78386629 0.45402607 0.015811879
-0.7739318 0.44845206 -0.20650508
-0.78966475 0.4577525 0.047835067
-0.77444327 0.44910979 -0.17401782
-0.77559483 0.4497776 0.078440167
-0.77572906 0.45003611 -0.14204252
-0.76057965 0.4414247 0.10797625
-0.78968656 0.4585022 -0.1121198
-0.77720147 0.45143434 0.14235538
-0.76314348 0.44344699 -0.077219985
-0.78902489 0.45885456 -0.047835067
-30.822933 17.924965 8.2318592
-0.77953637 0.4535189 -0.015742071
-0.79577547 0.464641 -0.24691339
-0.77529025 0.45286146 0.015672261
-0.78742576 0.46013442 -0.21055418
-0.77763623 0.45459589 0.047207039
-0.78804451 0.46086499 -0.17745239
-0.77910078 0.45563453 0.078963101
-0.77236921 0.45187894 -0.14172964
-0.72811866 0.42616025 0.10358895
-0.79142696 0.46339935 -0.11260728
-0.83690304 0.49022311 0.15361866
-0.77182698 0.45228496 -0.078265861
-0.79767472 0.46780592 -0.048463102
-30.790642 18.057543 8.2408571
-0.78304327 0.45940855 -0.015846785
-0.80904955 0.47637635 -0.25157213
-0.78740919 0.46381941 0.015951499
-0.78237617 0.46103868 -0.20965438
-0.79325181 0.46744749 0.048253756
-0.79150474 0.46660405 -0.17859723
-0.77742559 0.458487 0.078963101
-0.78942269 0.46574804 -0.1451712
-0.72313273 0.42680806 0.10310147
-0.78459519 0.46326911 -0.11187606
-0.80112183 0.47321597 -0.081403457
-0.79431772 0.4695709 -0.048358425
-0.79004097 0.46722874 -0.016021309
-0.81070429 0.48116955 -0.25260741
-0.79102558 0.46948984 0.016056214
-0.78419429 0.46562043 -0.21055418
-0.7898981 0.46919361 0.048149083
-0.77974463 0.4633466 -0.17630751
-0.78095835 0.46425229 0.079486035
-0.79296786 0.47139153 -0.1461098
-0.73195052 0.43529177 0.10456391
-0.76940656 0.45774868 -0.10992616
-28.814642 17.149715 5.3109508
-0.80288893 0.47804812 -0.081752084
-0.78074473 0.46504781 -0.047625724
-0.77981693 0.46486405 -0.015846785
-0.78755027 0.47096559 -0.2458781
-0.78080171 0.46711513 0.015881689
-0.78423625 0.4693557 -0.21100408
-0.77976894 0.46668205 0.047625724
-0.76304406 0.45685306 -0.17287296
-0.78625143 0.4709346 0.080183282
-0.7811507 0.4680647 -0.1442326
-0.73893964 0.44294718 0.1057826
-0.79504317 0.47676626 -0.11382597
-28.757614 17.245176 5.3109508
-0.77737993 0.46635854 -0.079311721
-0.77226728 0.46365806 -0.047207039
-0.76112854 0.45715126 -0.015497738
-0.78259236 0.47171742 -0.24484283
-0.7809611 0.47073415 0.015916595
-0.77600026 0.46792862 -0.20920448
-0.78326589 0.47249594 0.04793974
-0.77152991 0.46560028 -0.17516267
-0.76925194 0.46440873 0.078614481
-0.76606548 0.46248502 -0.14172964
-0.74256456 0.44847375 0.10651381
-0.78326344 0.47324082 -0.11236355
-0.75869793 0.45875987 -0.077568613
-0.77243435 0.4672502 -0.047311708
-0.77150255 0.46705472 -0.015742071
-0.78597748 0.47731814 -0.24639574
-0.77760404 0.47241905 0.015881689
-0.76603574 0.46557376 -0.20695497
-0.79185116 0.48145288 0.048567772
-0.77501434 0.47121593 -0.17630751
-0.76940984 0.46799251 0.078788787
-0.76444656 0.46515614 -0.14172964
-0.72403806 0.44074145 0.10407643
-0.79177952 0.48216689 -0.11382597
-0.75879312 0.46244249 -0.077742919
-0.77591455 0.47306275 -0.047625724
-0.76986766 0.46974474 -0.015742071
-0.77598512 0.4751516 -0.24380755
-0.76912886 0.47095338 0.015742071
-0.76274419 0.46722695 -0.20650508
-0.79527456 0.48734489 0.048881788
-0.77662963 0.47610551 -0.17707075
-0.78297538 0.48018372 0.080357596
-0.77115524 0.47312015 -0.14329399
-0.72757125 0.44638047 0.10480764
-0.78332436 0.4807741 -0.11285102
-0.76396507 0.46925959 -0.078440167
-0.75375766 0.46335217 -0.046369661
-0.7801469 0.47976187 -0.015986405
-0.75952578 0.46872643 -0.2391488
-0.77250206 0.4769209 0.015846785
-0.75273657 0.46489939 -0.20425557
-0.77487642 0.47857326 0.047730397
-0.75993133 0.4695262 -0.1736362
-0.77790475 0.48081905 0.080008969
-0.75605798 0.46749783 -0.14079103
-0.73437142 0.45426542 0.10602634
-0.78662091 0.48677582 -0.11358224
-0.74707609 0.46248484 -0.076871365
-0.75213563 0.4659805 -0.046369661
-0.77676779 0.48142853 -0.015951499
-6.7635493 4.2066627 -2.1342218
-0.82695216 0.51433182 0.016998643
-7.8362093 4.8757129 -2.1307364
-0.79015732 0.49182954 0.048777115
-9.3611031 5.8290391 -2.1435483
-0.76776612 0.47826412 0.079137415
-11.528815 7.1816382 -2.1512871
-0.72612208 0.45249873 0.10505138
-14.945367 9.3171558 -2.1624498
-23.858007 14.884982 -2.4602323
-28.257963 17.636972 -1.7457184
-30.034874 18.760576 -0.61812937
-6.7430139 4.2249656 -2.1321514
-7.8224444 4.905107 -2.1316364
-9.3367329 5.8569207 -2.1424036
-0.8303051 0.52105129 0.085761249
-11.490292 7.2134356 -2.1487842
-0.73462439 0.46136507 0.10651381
-14.909394 9.3671541 -2.1619625
-23.78904 14.957569 -2.4584892
-27.952776 17.582373 -1.7306455
-28.070421 17.670048 -0.57896608
-6.7323833 4.2527475 -2.1337044
-27.975008 17.6714 0.57756996
-7.8151593 4.9386296 -2.1343358
-27.973595 17.684162 1.7344139
-9.3268185 5.8984475 -2.1450748
-27.9228 17.665703 2.8907816
-11.457099 7.2512755 -2.1475327
-0.71791321 0.45437214 0.10432017
-14.873249 9.417016 -2.1614747
-27.870445 17.653019 5.2252245
-23.615503 14.963742 -2.4459386
-27.895582 17.682589 6.4199595
-27.99947 17.755293 -1.7375538
-28.011946 17.770069 -0.57903594
-6.7256455 4.2814093 -2.1362925
-28.011257 17.838255 0.57966423
-7.7871442 4.9609575 -2.1316364
-27.975956 17.829514 1.7386006
-9.3045168 5.929914 -2.1446934
-28.005445 17.855171 2.9057722
-11.443376 7.2986593 -2.1497226
-0.71624303 0.45700037 0.10432017
-14.882141 9.4992313 -2.1678119
-27.928761 17.833723 5.2483773
-23.422823 14.962242 -2.4316452
-27.984442 17.883041 -1.7404847
-28.034233 17.928635 -0.58085102
-6.7099085 4.3060308 -2.1362925
-7.7730594 4.9902158 -2.1325359
-9.2876749 5.9671597 -2.145838
-11.426519 7.3469605 -2.1515999
-0.71798301 0.46164474 0.10480764
-14.898978 9.5833435 -2.1751244
-22.901369 14.74195 -2.382838
-28.002665 18.039566 -1.7457184
-27.863903 17.957056 -0.5786171
-6.689858 4.3228946 -2.1342218
-7.7646503 5.021256 -2.1347857
-9.2606421 5.9909749 -2.14393
-11.406696 7.3849721 -2.1522255
-0.70978355 0.45970666 0.10383269
-14.958742 9.6920652 -2.1885297
-23.272915 15.084748 -2.4264159
-33.415051 21.675121 -2.0873675
-27.794138 18.042828 -0.57840765
-6.6714902 4.3441119 -2.1331868
-7.7454443 5.0472636 -2.1343358
-9.2380276 6.022192 -2.1435483
-11.375887 7.4215031 -2.1512871
-0.71482402 0.4665212 0.10480764
-15.029538 9.8125906 -2.2038856
-23.2001 15.152821 -2.424324
-33.232189 21.721691 -2.0806684
-27.791231 18.179146 -0.57966423
-6.6595154 4.369493 -2.1342218
-7.7261481 5.0731993 -2.1338856
-9.231719 6.0641036 -2.1469829
-11.349911 7.4611678 -2.1512871
-0.71319103 0.46901375 0.10480764
-15.001827 9.869359 -2.2048604
-23.206984 15.273139 -2.4305992
-33.216213 21.877111 -2.0844367
-6.642611 4.3916473 -2.1337044
-7.7060323 5.0966425 -2.1329858
-9.213768 6.0984612 -2.1477461
-11.31687 7.4933119 -2.1497226
-0.69011748 0.45712516 0.10163904
-14.897861 9.8719025 -2.1943796
-23.12364 15.334234 -2.4274616
-33.063595 21.934145 -2.0794125
-6.6328354 4.4168615 -2.135257
-7.6930599 5.1267538 -2.1343358
-9.1902266 6.1268044 -2.1469829
-11.300504 7.5393472 -2.1515999
-0.7033776 0.46944946 0.10383269
-14.810484 9.8885698 -2.1865799
-23.052778 15.397551 -2.42537
-32.774296 21.907351 -2.0660143
-6.6141682 4.4378366 -2.1342218
-7.6727796 5.150064 -2.1334357
-9.1671553 6.1577497 -2.1466014
-11.27544 7.5767803 -2.1515999
-0.7051121 0.47399402 0.10432017
-14.817146 9.9642162 -2.1924298
-22.919548 15.424538 -2.4170032
-32.893646 22.1453 -2.0781562
-50.941315 34.32156 -1.0721711
-6.5994163 4.4597445 -2.1342218
-7.6692853 5.1866398 -2.137485
-9.1434317 6.185915 -2.145838
-11.24238 7.6116629 -2.1503484
-0.70345318 0.47645259 0.10432017
-14.747762 9.9924927 -2.1873109
-22.841887 15.482566 -2.4142139
-32.925236 22.333984 -2.0850646
-50.846024 34.51601 -1.0726948
-6.5854039 4.4838424 -2.1347394
-7.6463027 5.2100873 -2.1361351
-9.1298952 6.2233233 -2.1477461
-11.219008 7.6530848 -2.1509743
-0.6985063 0.47666737 0.10383269
-14.620979 9.9812346 -2.1736617
-22.715309 15.512766 -2.4065444
-32.906437 22.489353 -2.0888329
-6.5713062 4.507894 -2.135257
-7.6216421 5.232337 -2.1343358
-9.1145897 6.2596006 -2.1492727
-11.193851 7.6933212 -2.1512871
-0.69356662 0.4768534 0.10334522
-14.497731 9.9714622 -2.1604998
-22.664864 15.600436 -2.4072416
-32.788261 22.576887 -2.0863209
-6.5579185 4.5341463 -2.1362925
-7.6097417 5.2633433 -2.1361351
-9.0851278 6.2884965 -2.1477461
-11.176948 7.7421684 -2.1534772
-0.701689 0.48605347 0.10480764
-14.410622 9.9858313 -2.1527004
-22.505489 15.606788 -2.3960855
-32.708565 22.699196 -2.08653
-6.5372939 4.553699 -2.1347394
-7.5904007 5.2911973 -2.1361351
-9.0631218 6.3201709 -2.1477461
-11.149854 7.781136 -2.1534772
-0.70641339 0.49316752 0.1057826
-14.341376 10.015845 -2.1478255
-22.431271 15.671565 -2.3939939
-32.625866 22.810938 -2.0863209
-6.5213599 4.5764894 -2.1347394
-7.5760021 5.3185778 -2.1370349
-9.044219 6.3540239 -2.1485093
-11.119141 7.8146601 -2.1525385
-0.70477408 0.49550739 0.1057826
-14.259372 10.029089 -2.1405134
-22.301485 15.697018 -2.3859756
-32.553307 22.921303 -2.08653
-6.5124588 4.6025505 -2.1368101
-7.5573907 5.3449907 -2.1370349
-9.0359201 6.3930526 -2.1515625
-11.093407 7.8545685 -2.1528513
-0.69656062 0.49337482 0.10480764
-14.112517 9.9996138 -2.1236954
-22.210297 15.743237 -2.3817921
-32.31345 22.921551 -2.0762722
-6.491631 4.6218929 -2.135257
-7.5307522 5.3656855 -2.1347857
-9.0119495 6.4234157 -2.1511807
-11.062705 7.8909497 -2.1522255
-0.68513876 0.48888507 0.10334522
-14.01936 10.007296 -2.1149206
-22.122784 15.797508 -2.3783059
-32.148743 22.973825 -2.0708292
-6.4880171 4.6535335 -2.1393983
-7.5167255 5.395349 -2.1361351
-8.9926634 6.4571247 -2.1519439
-11.038301 7.9318233 -2.1528513
-0.6930992 0.49822572 0.10480764
-13.881197 9.9819994 -2.0993216
-22.025452 15.844383 -2.3737738
-31.97434 23.018225 -2.0647585
-6.4623399 4.6693621 -2.1362925
-7.5010042 5.4238381 -2.1370349
-8.9541616 6.4769669 -2.1481278
-11.013746 7.9726219 -2.1534772
-0.70743406 0.51228476 0.10724504
-13.748204 9.9593544 -2.0844533
-21.934517 15.895449 -2.3699389
-31.829123 23.082796 -2.0605714
-6.4428768 4.6896181 -2.135257
-7.486753 5.4534297 -2.1383848
-8.9394302 6.5139661 -2.1500359
-10.995428 8.0179996 -2.1553543
-0.71526372 0.52177054 0.10870746
-13.809568 10.077496 -2.0990777
-21.820969 15.929623 -2.3636637
-31.699972 23.158415 -2.0574312
-6.4264665 4.712081 -2.135257
-7.4582434 5.4726124 -2.1356852
-8.9292994 6.5544248 -2.1530888
-10.953045 8.0458078 -2.1525385
-0.69104314 0.50780737 0.10529512
-13.707132 10.076253 -2.0888407
-21.688183 15.949043 -2.3552969
-31.589989 23.24761 -2.0555472
-6.4161959 4.7390747 -2.1373277
-7.4422283 5.5009322 -2.136585
-8.9079447 6.58672 -2.1534703
-10.939182 8.0945692 -2.1553543
-0.71479487 0.52911323 0.10919494
-13.568179 10.047252 -2.0729976
-21.568338 15.977216 -2.3483243
-31.617754 23.438623 -2.062665
-6.404264 4.7649016 -2.1388805
-7.4339232 5.5350218 -2.1397343
-8.8801756 6.6142559 -2.1523256
-10.917196 8.1374245 -2.1566057
-13.528251 10.090997 -2.0722666
-21.576311 16.100063 -2.3552969
-31.442919 23.479542 -2.0565939
-6.3845005 4.7849112 -2.1378453
-7.4052033 5.5539217 -2.1370349
-8.8507509 6.640501 -2.150799
-10.899783 8.1837854 -2.1587958
-13.362809 10.040373 -2.0522799
-21.586874 16.225559 -2.362618
-31.233078 23.493111 -2.0482202
-6.3708434 4.8094945 -2.1388805
-7.3966565 5.5879607 -2.1401844
-8.836915 6.6784577 -2.1530888
-10.869574 8.2205915 -2.158483
-13.242206 10.022266 -2.0391181
-21.393494 16.197384 -2.3476269
-31.189095 23.630932 -2.0507324
-6.3463268 4.8258591 -2.1362925
-7.3740044 5.611383 -2.1392844
-8.8088636 6.7056966 -2.1519439
-10.817244 8.2405262 -2.15379
-13.143994 10.020291 -2.0293684
-21.368505 16.296133 -2.3511133
-31.131819 23.759047 -2.052407
-6.33251 4.8503318 -2.1373277
-7.343544 5.6287928 -2.1361351
-8.7869596 6.7375989 -2.1523256
-10.788411 8.2782373 -2.15379
-13.105789 10.063689 -2.0288811
-21.270414 16.339062 -2.3465812
-31.036024 23.857834 -2.0515697
-6.3293066 4.8830252 -2.1419864
-7.3284788 5.6579657 -2.137485
-8.7664967 6.7706285 -2.1530888
-10.761011 8.3170547 -2.1541028
-13.130246 10.15553 -2.0381432
-21.194342 16.398581 -2.3444896
-30.889389 23.917118 -2.0473828
-6.2954445 4.8920503 -2.1362925
-7.3163772 5.6894917 -2.1397343
-8.744359 6.8023939 -2.1534703
-10.795822 8.4043188 -2.1669304
-13.605227 10.599009 -2.1176019
-21.121254 16.460217 -2.3427463
-30.761616 23.990406 -2.044452
-6.2798505 4.9151869 -2.1368101
-7.3010745 5.7186012 -2.1410842
-8.7143774 6.8280354 -2.1519439
-10.788185 8.4590149 -2.1713107
-17.07184 13.390845 -2.6640639
-20.994713 16.47971 -2.3350766
-30.646271 24.07296 -2.0423586
-6.2680683 4.9395719 -2.1383629
-7.2774801 5.7391615 -2.1397343
-8.7024775 6.8654056 -2.1546154
-10.71666 8.4604692 -2.1625502
-16.952564 13.388325 -2.6523647
-20.86648 16.491177 -2.326884
-30.506744 24.127375 -2.0383811
-6.2516532 4.960331 -2.1383629
-7.2599349 5.7644749 -2.1401844
-8.6827374 6.8966684 -2.1553786
-10.694732 8.5008783 -2.1638019
-16.890188 13.435066 -2.6499274
-20.74464 16.506939 -2.3193886
-30.345322 24.163715 -2.032938
-6.2358103 4.9833274 -2.1388805
-7.238246 5.7885642 -2.1397343
-8.6555462 6.9244804 -2.1546154
-10.65574 8.5307512 -2.1619246
-16.806011 13.46415 -2.6440775
-20.593611 16.504492 -2.3089299
-30.2234 24.239494 -2.030426
-6.2213864 5.0074887 -2.1399159
-7.2210331 5.8162389 -2.1406343
-8.625206 6.9497261 -2.1530888
-10.628972 8.5703745 -2.1625502
-16.73419 13.502788 -2.6401777
-20.511066 16.556253 -2.3061409
-29.911764 24.161615 -2.0151439
-6.1963654 5.0230923 -2.1373277
-7.2067394 5.8463202 -2.1424339
-8.6176624 6.9934001 -2.1572866
-10.592858 8.6024437 -2.161299
-16.619171 13.506032 -2.6294532
-20.496437 16.662941 -2.3110216
-29.678507 24.144878 -2.0050952
-6.1847796 5.0495787 -2.1393983
-7.1832685 5.8689771 -2.1415341
-8.5931988 7.0234394 -2.1572866
-10.547474 8.6268606 -2.1581702
-16.578072 13.568988 -2.6304281
-20.378027 16.68516 -2.3042235
-29.770163 24.392633 -2.0170279
-6.1671166 5.071135 -2.1393983
-7.1507006 5.88411 -2.1379349
-8.5716619 7.0558858 -2.1580498
-10.556938 8.6962814 -2.1663048
-16.464737 13.572483 -2.6199474
-20.228968 16.681404 -2.2939391
-29.734129 24.537083 -2.0203774
-6.1493773 5.0926318 -2.1393983
-7.1346188 5.9127631 -2.1392844
-8.5454693 7.0845108 -2.1576684
-10.556926 8.7583027 -2.1725621
-16.39435 13.610853 -2.6162913
-20.11544 16.706085 -2.2876639
-29.52849 24.541153 -2.012213
-6.1360121 5.1177797 -2.1409512
-7.1199207 5.942627 -2.1410842
-8.5116434 7.1067495 -2.1553786
-10.514162 8.7849665 -2.1700592
-16.30258 13.631067 -2.6092229
-20.023378 16.748075 -2.283829
-29.375261 24.587666 -2.0076075
-6.1077576 5.1304679 -2.1373277
-7.1110673 5.9774756 -2.1446834
-8.50632 7.1528416 -2.1603396
-10.468316 8.8088989 -2.1669304
-16.285267 13.713464 -2.6140976
-19.887079 16.752411 -2.2749391
-29.249552 24.656586 -2.0048862
-6.092761 5.1542521 -2.1383629
-7.084209 5.9972248 -2.1428835
-8.4827986 7.1837597 -2.1607211
-10.401338 8.8147335 -2.1594217
-16.205505 13.743264 -2.6089792
-19.820889 16.815279 -2.2740676
-29.178524 24.771469 -2.0059328
-6.0776734 5.1779947 -2.1393983
-7.0558171 6.0155954 -2.1406343
-8.4591637 7.2146001 -2.1611028
-10.394546 8.8715057 -2.1644275
-16.190641 13.828112 -2.6143415
-19.734804 16.861069 -2.2709301
-29.028126 24.818653 -2.0015366
-6.0654268 5.2042084 -2.1414688
-7.0436473 6.0478063 -2.1433337
-8.4205265 7.2325702 -2.1576684
-10.360518 8.9051609 -2.1638019
-15.091807 12.981001 -2.444212
-19.64562 16.903862 -2.2674437
-28.883804 24.870308 -1.9975591
-45.798431 39.462463 -1.0552423
-6.0457611 5.2240872 -2.1409512
-7.0239692 6.0736294 -2.1437836
-8.3952274 7.2619214 -2.1576684
-10.398075 9.0007401 -2.1781938
-15.976675 13.839428 -2.5953298
-19.479593 16.879694 -2.2550676
-28.902435 25.062571 -2.0048862
-6.0187445 5.2375507 -2.1378453
-7.0081983 6.1007266 -2.1451333
-8.38167 7.3014989 -2.1607211
-10.391997 9.0559349 -2.1831996
-15.951639 13.910599 -2.5987422
-19.41004 16.938423 -2.2538474
-28.734909 25.084724 -1.9990244
-45.257694 39.536469 -1.0489595
-6.0071554 5.2625728 -2.1399159
-6.985394 6.1238675 -2.1446834
-8.3588867 7.3305478 -2.1611028
-10.338053 9.0726118 -2.1785066
-15.892546 13.957024 -2.5970359
-19.314877 16.974506 -2.2496638
-28.614174 25.155855 -1.9967215
-45.089378 39.667793 -1.0482614
-5.9878283 5.2845535 -2.1399159
-6.9566693 6.141767 -2.1424339
-8.3290215 7.3585339 -2.1603396
-10.312131 9.1169844 -2.1800709
-15.79466 13.969016 -2.5889926
-19.264465 17.049746 -2.2507098
-28.497854 25.239386 -1.9950469
-44.875801 39.758636 -1.0465162
-5.9693446 5.3054233 -2.1399159
-6.9457631 6.1775832 -2.146033
-8.2988853 7.3836484 -2.1591947
-10.269916 9.1437292 -2.177881
-15.741873 14.025492 -2.5887487
-19.261351 17.167263 -2.2573338
-27.68816 24.695271 -1.9443855
-37.947651 33.869576 -0.88783884
-5.9536676 5.328804 -2.1409512
-6.9270601 6.204391 -2.1469328
-8.2701359 7.4099512 -2.1584315
-10.243817 9.1847973 -2.1791322
-15.725324 14.109522 -2.5941112
-19.122723 17.163857 -2.248095
-28.386337 25.496437 -1.9996524
-5.927855 5.3430872 -2.1383629
-6.9082551 6.231142 -2.1478326
-8.2471352 7.4414058 -2.1591947
-10.217557 9.2257977 -2.1803839
-15.63768 14.129725 -2.5877738
-19.040518 17.21047 -2.2454805
-28.107574 25.42388 -1.9862545
-5.9177504 5.3715372 -2.1414688
-45.534073 41.345715 1.0735674
-6.8806915 6.2499795 -2.146033
-8.2254677 7.4741087 -2.1603396
-10.14437 9.2241945 -2.1716235
-15.551561 14.150823 -2.5816805
-18.912554 17.215132 -2.237462
-27.794216 25.317411 -1.9703443
-5.8970532 5.388526 -2.1404335
-45.337673 41.442516 1.0721711
-6.8570514 6.2701321 -2.1451333
-8.20788 7.5079699 -2.1622477
-10.147239 9.2884607 -2.1788194
-15.447459 14.150022 -2.5721745
-18.858299 17.280445 -2.2378109
-27.621786 25.328442 -1.9640639
-5.8853173 5.4156175 -2.1430218
-45.148598 41.559902 1.0711241
-6.8379893 6.2966704 -2.146033
-8.1801805 7.5352435 -2.1618662
-10.113302 9.3224869 -2.1785066
-15.392135 14.19848 -2.5711997
-18.695368 17.251587 -2.2256091
-27.365929 25.270243 -1.9521314
-36.919136 34.115742 -0.87743717
-5.8692107 5.4387541 -2.144057
-44.93285 41.652 1.0694486
-6.8202562 6.3244743 -2.1473827
-8.1466312 7.557076 -2.1599579
-10.103863 9.3792353 -2.1835127
-15.28721 14.200782 -2.5619376
-18.40443 17.102453 -2.1980679
-27.257074 25.346573 -1.9506661
-36.87302 34.312523 -0.87918246
-5.8417158 5.4513001 -2.1409512
-44.73748 41.762199 1.0682619
-6.8052597 6.3548932 -2.1496322
-8.124505 7.5894876 -2.1611028
-10.066733 9.4103975 -2.1825738
-15.227398 14.244565 -2.5602314
-18.24861 17.07674 -2.1865633
-27.334627 25.597195 -1.9625984
-36.825977 34.509396 -0.88092768
-5.8240576 5.4729829 -2.1414688
-6.7787762 6.3746042 -2.1482825
-8.1036816 7.6231842 -2.1626294
-10.048207 9.4590197 -2.1857026
-15.121234 14.244542 -2.5507255
-18.14249 17.096611 -2.1809855
-27.198618 25.6486 -1.959249
-36.84782 34.772228 -0.88434833
-5.8035159 5.49195 -2.1409512
-6.7522373 6.3942108 -2.1469328
-8.0770245 7.6514235 -2.1626294
-10.00939 9.4886036 -2.1844511
-15.082941 14.308169 -2.5526755
-18.082697 17.15984 -2.1809855
-27.048094 25.685623 -1.9548528
-5.7940993 5.5215039 -2.1445746
-6.7312875 6.4190841 -2.1473827
-8.0559492 7.6849918 -2.1641557
-10.003359 9.5493994 -2.1903956
-14.97692 14.30726 -2.5431697
-18.215708 17.407305 -2.2043431
-26.453045 25.296757 -1.9182175
-44.025852 42.130848 -1.0636544
-5.7747903 5.5416951 -2.1445746
-6.7074342 6.4411926 -2.1469328
-8.0177469 7.7021847 -2.1611028
-10.068225 9.6787186 -2.2119834
-14.899709 14.3333 -2.5385387
-18.14909 17.465256 -2.2036457
-26.868116 25.873829 -1.9548528
-43.708599 42.120544 -1.0595356
-5.745688 5.5524216 -2.1409512
-6.6905122 6.469985 -2.1487324
-8.0006914 7.7396779 -2.163774
-10.11102 9.7879992 -2.2288785
-14.819641 14.356216 -2.5334201
-18.019337 17.461948 -2.1952789
-25.917353 25.133205 -1.8920496
-43.469467 42.183723 -1.0573018
-5.7290387 5.5751395 -2.1419864
-6.6623044 6.4878607 -2.1469328
-7.967999 7.7620807 -2.1622477
-10.109326 9.8549452 -2.2360744
-14.719706 14.359344 -2.5248892
-17.952572 17.519173 -2.1945815
-25.818033 25.21236 -1.8912123
-5.7136831 5.5991607 -2.1435394
-6.6368322 6.5083499 -2.146033
-7.9520679 7.8008461 -2.1653006
-10.059356 9.8749533 -2.2326329
-14.644006 14.385593 -2.5205021
-17.806042 17.497948 -2.1841228
-25.134619 24.716959 -1.8474596
-5.6982293 5.6231403 -2.1450922
-6.6154594 6.532846 -2.1464829
-7.9192033 7.8230362 -2.163774
-9.9995384 9.8850117 -2.2270014
-14.661438 14.503639 -2.5322015
-17.739189 17.554392 -2.1834257
-24.994249 24.751146 -1.843482
-5.6758256 5.6402736 -2.144057
-6.6022892 6.565516 -2.1496322
-7.8862805 7.8450937 -2.1622477
-9.9621735 9.9170656 -2.2263756
-14.508058 14.452458 -2.5144086
-17.682041 17.62042 -2.1839485
-25.54694 25.475698 -1.8907937
-5.6465435 5.650486 -2.1404335
-6.5779548 6.5871439 -2.1491826
-7.8630085 7.8767424 -2.1633925
-9.903779 9.9280052 -2.2210569
-14.485551 14.531125 -2.5192833
-17.616209 17.677801 -2.1834257
-25.42404 25.530748 -1.8882815
-5.6335897 5.6770186 -2.1430218
-6.5576644 6.6128325 -2.1500821
-7.8354659 7.9041414 -2.1633925
-9.8593321 9.952692 -2.2188668
-14.345361 14.491314 -2.503684
-17.568407 17.753349 -2.1851687
-24.261829 24.534353 -1.8083122
-5.6164503 5.6994009 -2.144057
-6.5277042 6.6287398 -2.1478326
-7.8147135 7.9384403 -2.1653006
-9.8092918 9.9715576 -2.2154253
-14.287731 14.534222 -2.5024652
-17.428125 17.734985 -2.1754072
-5.6046281 5.7272553 -2.1471629
-6.5045261 6.6514859 -2.1478326
-7.7814651 7.9600544 -2.163774
-9.7702837 10.001498 -2.2144866
-14.250773 14.598216 -2.5049026
-17.380028 17.809973 -2.1771505
-23.621426 24.222689 -1.7731423
-5.5751791 5.7370858 -2.1435394
-6.4905806 6.6814065 -2.150532
-7.753634 7.9871669 -2.163774
-9.6999197 9.9955683 -2.206039
-14.182944 14.625435 -2.5014904
-17.296955 17.84907 -2.1745358
-23.332531 24.085699 -1.7574416
-46.06673 47.587006 -1.1560824
-5.5547819 5.7541523 -2.1430218
-6.4685707 6.7054243 -2.1509819
-7.7284684 8.0142488 -2.1641557
-9.6211071 9.9838495 -2.1960273
-14.104261 14.646259 -2.4966154
-17.216944 17.884802 -2.1719213
-23.245537 24.164124 -1.7572322
-45.905884 47.753281 -1.1562219
-5.538672 5.7776904 -2.1445746
-6.441083 6.7237406 -2.1496322
-7.7004461 8.0411777 -2.1641557
-9.5821028 10.013089 -2.1950886
-14.002289 14.642322 -2.4875972
-17.119993 17.908783 -2.1675632
-23.177605 24.262453 -1.7584883
-36.951515 38.708107 -0.93408769
-5.5224667 5.801187 -2.1461277
-6.4122005 6.7405348 -2.1478326
-7.6790919 8.0751228 -2.1660638
-9.5443707 10.043612 -2.194463
-13.977062 14.718459 -2.4922283
-17.040915 17.951094 -2.1654716
-22.993797 24.238878 -1.7509519
-36.772152 38.790421 -0.93297076
-5.5035105 5.8218331 -2.1466453
-6.3939853 6.7685437 -2.1496322
-7.6495118 8.1004505 -2.1656821
-9.4780712 10.043823 -2.1872668
-13.906536 14.746937 -2.488816
-16.918011 17.946682 -2.1578019
-22.892622 24.301546 -1.7496959
-36.639267 38.921455 -0.93304056
-5.4805093 5.8381906 -2.1456099
