# .PCD v0.7 - Point Cloud Data file format
VERSION 0.7
FIELDS x y z
SIZE 4 4 4
TYPE F F F
COUNT 1 1 1
WIDTH 1480
HEIGHT 1
VIEWPOINT 0 0 0 1 0 0 0
POINTS 1480
DATA ascii
4.79179 -7.4697137 -2.0488544
5.7042165 -8.8988895 -2.0546315
7.2895737 -11.376503 -2.1400237
14.497299 -22.642662 -3.3011971
22.27354 -34.814777 -3.6159174
4.1124892 -6.4553156 -2.0508821
4.7604542 -7.4781752 -2.0466046
5.6736212 -8.9161015 -2.0542498
7.2402787 -11.386877 -2.137208
14.437334 -22.723289 -3.3055842
22.110973 -34.814445 -3.6082478
4.0899315 -6.4696307 -2.0508821
4.7239137 -7.4782701 -2.0421057
5.6466565 -8.9424906 -2.0557761
7.1973248 -11.407069 -2.1362693
14.334637 -22.736605 -3.3002222
22.053049 -34.992554 -3.6187062
4.0714293 -6.4904137 -2.0529528
4.7029562 -7.5029707 -2.0443552
5.6206183 -8.9704647 -2.0576842
7.1532712 -11.425426 -2.1350179
14.261501 -22.796598 -3.3016844
21.787098 -34.839577 -3.595
4.0436444 -6.4963861 -2.0503645
4.6829123 -7.5292697 -2.0470545
5.5789061 -8.9733572 -2.0538683
7.1060481 -11.43858 -2.1328278
14.154619 -22.802393 -3.2953472
21.581308 -34.77998 -3.5810549
4.0189128 -6.5071745 -2.0493293
4.6576247 -7.5472283 -2.0475044
5.5496106 -8.9961185 -2.0546315
7.0733323 -11.475086 -2.1350179
14.085347 -22.868563 -3.2977848
4.0012202 -6.5293994 -2.0519176
4.6159873 -7.5385132 -2.040756
5.5212493 -9.0204582 -2.0557761
7.0177727 -11.47443 -2.1303248
13.97231 -22.86339 -3.2899852
3.9753942 -6.5383739 -2.0503645
4.5906572 -7.5562444 -2.0412059
5.4958434 -9.0497437 -2.0580659
6.9766521 -11.497167 -2.1300118
13.867716 -22.871284 -3.2841353
3.9575355 -6.560482 -2.0529528
4.5682769 -7.5788994 -2.0430055
5.4591546 -9.0604658 -2.0561578
6.9436102 -11.533297 -2.1322021
13.783704 -22.912746 -3.2831602
3.9306426 -6.5676255 -2.0508821
4.5447941 -7.5998168 -2.0443552
5.4214501 -9.069356 -2.0538683
6.9073606 -11.564247 -2.1334534
13.675153 -22.912992 -3.2763357
3.9047353 -6.576323 -2.0493293
4.5182376 -7.6156349 -2.0443552
5.3957677 -9.0983572 -2.0561578
6.8609095 -11.578093 -2.1315763
13.593065 -22.957174 -3.2758482
3.8797946 -6.5865836 -2.0482941
4.4856954 -7.6212826 -2.0416558
5.3639765 -9.117136 -2.0561578
6.8334661 -11.624108 -2.1356435
13.468608 -22.929173 -3.2651238
3.8606782 -6.6067591 -2.0503645
4.4590659 -7.6368942 -2.0416558
5.3321185 -9.1358042 -2.0561578
6.8227029 -11.699082 -2.1450298
13.404479 -23.00349 -3.2690237
3.8375926 -6.6201944 -2.0503645
4.4323807 -7.6524129 -2.0416558
5.3041306 -9.1611576 -2.0576842
6.7847924 -11.727957 -2.1459682
13.308249 -23.013441 -3.2641487
3.8098378 -6.6228371 -2.0472586
4.4108653 -7.6738272 -2.0434554
5.2678533 -9.1684828 -2.0553946
6.7173419 -11.700711 -2.1368952
13.22198 -23.040232 -3.2617114
3.782109 -6.6253676 -2.044153
4.3873243 -7.6917977 -2.0443552
5.2383938 -9.1876059 -2.0557761
6.6540589 -11.680011 -2.1290734
13.121832 -23.051741 -3.2568367
3.7644613 -6.6509538 -2.0477762
4.3527713 -7.6934967 -2.040756
5.2056503 -9.2084532 -2.0561578
6.6461802 -11.766241 -2.1403368
13.015913 -23.05246 -3.2504992
3.7421679 -6.6657386 -2.0482941
4.324544 -7.7093987 -2.040756
5.1773152 -9.2334185 -2.0576842
6.632102 -11.837623 -2.149097
12.904182 -23.05151 -3.2436748
3.72241 -6.6878495 -2.0508821
4.3023438 -7.7329621 -2.0430055
5.1405764 -9.2471838 -2.0565395
6.5733223 -11.83422 -2.1440909
12.775459 -23.009638 -3.2314878
3.6962414 -6.6957283 -2.0493293
4.2730317 -7.7469726 -2.0425556
5.104476 -9.258194 -2.0550129
6.5205355 -11.836332 -2.1403368
12.677637 -23.031961 -3.2280755
3.6654243 -6.6950336 -2.0451882
4.2440925 -7.7584214 -2.0416558
5.0730691 -9.2776785 -2.0553946
6.4573965 -11.819147 -2.1331406
12.593358 -23.069105 -3.2271006
3.6383445 -6.7009974 -2.0431178
4.2160554 -7.7714763 -2.0412059
5.0425248 -9.2987823 -2.0561578
6.4189234 -11.846828 -2.1340792
12.501665 -23.082809 -3.2232008
3.6243491 -6.728332 -2.0477762
4.1865664 -7.7785501 -2.0394061
5.0163112 -9.3240967 -2.0580659
6.3955021 -11.897627 -2.1393981
12.413774 -23.103157 -3.2202759
3.6047487 -6.7454252 -2.0493293
4.159832 -7.7906713 -2.0389564
4.9825907 -9.3354845 -2.056921
6.3606601 -11.927485 -2.1409624
12.342389 -23.163868 -3.2227132
3.5748487 -6.7460184 -2.0457058
4.1399069 -7.8189235 -2.0425556
4.9463005 -9.3458786 -2.0553946
6.3254519 -11.961839 -2.1431525
12.280005 -23.241911 -3.2275879
3.5467858 -6.7499056 -2.0431178
4.1116819 -7.8315997 -2.0421057
4.9163837 -9.3683033 -2.0565395
6.2735672 -11.964602 -2.1397109
12.255917 -23.393658 -3.2426999
3.5303433 -6.7759509 -2.0472586
4.0789204 -7.8355341 -2.0394061
4.8854642 -9.3888903 -2.0573027
6.2381434 -11.998696 -2.141901
12.192482 -23.471525 -3.2475746
3.5013499 -6.7779346 -2.044153
4.0515451 -7.8497238 -2.0394061
4.8508611 -9.4023972 -2.0565395
6.1889811 -12.006351 -2.1393981
12.112294 -23.517473 -3.2480619
3.4811916 -6.7969928 -2.0462234
4.0214567 -7.858614 -2.0380566
4.8189058 -9.4210215 -2.056921
6.1317506 -11.99798 -2.1340792
12.051798 -23.602039 -3.2539117
3.4556952 -6.8056583 -2.0451882
3.9984086 -7.8812938 -2.0403061
4.784215 -9.4342833 -2.0561578
6.0996547 -12.038693 -2.1375208
11.972924 -23.651051 -3.2548869
3.4284434 -6.8107777 -2.0431178
3.9691217 -7.8917208 -2.0394061
4.7556624 -9.4596949 -2.0580659
6.0336547 -12.012252 -2.1290734
11.888512 -23.68915 -3.2543991
3.4098244 -6.8330746 -2.0462234
3.9406807 -7.9037833 -2.0389564
4.7208614 -9.472724 -2.0573027
5.9643922 -11.978423 -2.1193743
11.796907 -23.712732 -3.2519619
3.3881819 -6.8524532 -2.0482941
3.908751 -7.9087558 -2.0367069
4.6843729 -9.4864426 -2.0565395
5.9344339 -12.028546 -2.1243804
11.715816 -23.757328 -3.2524493
3.3608406 -6.8572993 -2.0462234
3.8848796 -7.9335294 -2.0394061
4.6512303 -9.5027361 -2.0565395
5.8872032 -12.038541 -2.122503
11.579862 -23.70023 -3.2388
3.3351963 -6.8655138 -2.0451882
3.8571625 -7.947042 -2.0394061
4.6171756 -9.5171471 -2.0561578
5.8485909 -12.066128 -2.1237545
11.408812 -23.55827 -3.2139387
3.3103719 -6.8753743 -2.0446706
3.8293993 -7.9604573 -2.0394061
4.5847754 -9.534976 -2.0565395
5.7995934 -12.072226 -2.1212516
11.291098 -23.513659 -3.2027266
3.2908835 -6.8932872 -2.046741
3.8054974 -7.9783897 -2.040756
4.5556655 -9.5554438 -2.0576842
5.7603774 -12.093175 -2.1215644
11.213061 -23.550972 -3.2027266
3.2638738 -6.8954315 -2.044153
3.7715216 -7.9751101 -2.0367069
4.5206065 -9.5677376 -2.056921
5.7151814 -12.101494 -2.1196871
11.120622 -23.568424 -3.1998017
3.2385795 -6.9073472 -2.044153
3.7439184 -7.9924092 -2.0376067
4.4888372 -9.5913553 -2.0584474
5.6858568 -12.154566 -2.1253188
11.040888 -23.623413 -3.2017517
27.744888 -59.499111 -1.145925
3.2189367 -6.9314361 -2.0477762
3.7195203 -8.0166845 -2.0403061
4.447897 -9.5909357 -2.0550129
5.6612005 -12.21834 -2.1328278
10.965903 -23.68894 -3.205164
3.1842225 -6.919816 -2.0410471
3.6882586 -8.0225363 -2.0385065
4.4176683 -9.6135387 -2.0565395
5.6341767 -12.272137 -2.1387722
10.881492 -23.723467 -3.2046766
3.1672621 -6.9467082 -2.0457058
3.6553845 -8.0247221 -2.0358069
4.3824582 -9.6253271 -2.0557761
5.5594039 -12.221604 -2.1265705
10.787118 -23.736002 -3.2012641
27.192448 -59.973236 -1.1494155
3.1453805 -6.9630036 -2.0472586
3.6249464 -8.0321035 -2.0344574
4.3536758 -9.6513033 -2.0580659
5.4956074 -12.19411 -2.1184359
10.671596 -23.701111 -3.1915147
26.982937 -60.067791 -1.1494155
3.1194766 -6.9704137 -2.0462234
3.6000693 -8.0518236 -2.0362568
4.3159552 -9.6574812 -2.0561578
5.393414 -12.079741 -2.0952835
10.558965 -23.660233 -3.1812778
21.176365 -47.562897 -0.90878171
3.091645 -6.9701252 -2.0431178
3.5717697 -8.0601549 -2.0353572
4.2847004 -9.6735344 -2.0565395
5.394093 -12.189687 -2.1112397
10.475628 -23.684225 -3.1798151
3.0685148 -6.9803391 -2.0431178
3.548156 -8.079093 -2.0371568
4.2525992 -9.6876898 -2.0565395
5.2981033 -12.080874 -2.089339
10.388113 -23.709738 -3.1783528
3.041816 -6.9856935 -2.0415647
3.5168231 -8.084281 -2.0353572
4.2211051 -9.7078772 -2.0576842
5.2110405 -11.99602 -2.0715053
10.308445 -23.753139 -3.1793277
20.685482 -47.778431 -0.90878171
3.0250642 -7.0140076 -2.046741
3.4862697 -8.0911379 -2.0340075
4.1823907 -9.7160702 -2.0561578
5.1597662 -11.992363 -2.0677509
10.198817 -23.726969 -3.1710405
2.9993362 -7.0250483 -2.046741
3.4573541 -8.1056538 -2.0344574
4.1467514 -9.7313337 -2.0561578
5.1211953 -12.023915 -2.069941
10.099349 -23.734964 -3.1671407
2.9713118 -7.0306559 -2.0451882
3.431412 -8.1272478 -2.0367069
4.1112313 -9.7421312 -2.0553946
5.1146932 -12.131797 -2.0852716
10.021537 -23.793774 -3.1700656
2.9430227 -7.0320745 -2.0425999
3.4007673 -8.1337824 -2.0353572
4.0787139 -9.760046 -2.0561578
5.0822086 -12.173273 -2.089339
9.93536 -23.821285 -3.1690907
24.450262 -58.766884 -1.1110202
2.9214165 -7.0494437 -2.0446706
3.3730996 -8.1474047 -2.0358069
4.0476222 -9.7814808 -2.0576842
5.0540237 -12.225625 -2.0952835
9.832449 -23.808113 -3.1627536
23.903191 -57.993492 -1.0948942
2.8997257 -7.0667467 -2.046741
3.3408878 -8.1459236 -2.0326576
4.0134535 -9.7955494 -2.0576842
5.0845733 -12.415979 -2.125006
9.7414169 -23.811193 -3.1588538
2.8777299 -7.0799026 -2.0477762
3.3138978 -8.1611471 -2.0335574
3.9750426 -9.7942514 -2.0546315
4.9580712 -12.228622 -2.0899646
9.6433353 -23.808254 -3.1539788
2.8508353 -7.0845284 -2.0462234
3.2846637 -8.1708565 -2.0331075
3.9393661 -9.8044243 -2.0538683
4.9499402 -12.332015 -2.1046696
9.5631256 -23.84914 -3.1549537
2.819654 -7.0782847 -2.0415647
3.2597258 -8.1913261 -2.0353572
3.9094715 -9.8290606 -2.0561578
4.8426719 -12.187672 -2.077137
9.4549189 -23.819645 -3.1466668
17.806168 -44.950321 -0.84392858
2.7970557 -7.0934758 -2.0431178
3.2311151 -8.1984653 -2.0344574
3.8794527 -9.8536081 -2.0584474
4.7544918 -12.082343 -2.0564878
9.3642578 -23.821308 -3.142767
17.75135 -45.272835 -0.84881526
2.7749224 -7.1063108 -2.044153
3.2024772 -8.2096939 -2.0344574
3.8446169 -9.8609304 -2.0573027
4.7854109 -12.286617 -2.0884004
9.2666521 -23.816851 -3.137892
2.7474658 -7.1128302 -2.0431178
3.1730986 -8.2190046 -2.0340075
3.8063297 -9.8694611 -2.0561578
4.6892142 -12.171356 -2.0658739
9.1592073 -23.786064 -3.1296048
17.38682 -45.270592 -0.84647661
2.7246897 -7.1277905 -2.0446706
3.1429527 -8.2305794 -2.0340075
3.7718554 -9.8826876 -2.0561578
4.6551456 -12.209799 -2.0696282
9.0634851 -23.797218 -3.1266801
17.212254 -45.311577 -0.84605771
2.6977417 -7.1318374 -2.0431178
3.1155818 -8.2451458 -2.0349073
3.7366414 -9.8939562 -2.0557761
4.6138911 -12.22967 -2.0702538
8.9705639 -23.802704 -3.1232679
2.6735084 -7.1430197 -2.0436354
3.0854158 -8.2523212 -2.0340075
3.7027693 -9.9087791 -2.0561578
4.524888 -12.121708 -2.0492916
8.8652296 -23.774349 -3.115468
2.6525831 -7.163178 -2.046741
3.0566807 -8.2588511 -2.0331075
3.6715634 -9.93085 -2.0580659
4.5243773 -12.244117 -2.0674381
8.7835913 -23.796169 -3.1144934
2.6301448 -7.1755619 -2.0477762
3.0298436 -8.2749615 -2.0344574
3.6352375 -9.933753 -2.0561578
4.4748292 -12.241282 -2.0643096
8.689579 -23.79685 -3.1105936
2.599154 -7.168355 -2.0431178
17.321831 -47.772865 0.8870011
3.0017219 -8.2831306 -2.0340075
3.5985351 -9.9408436 -2.0550129
4.5061202 -12.45481 -2.0977864
8.5795803 -23.739658 -3.0993814
16.163542 -44.846844 -0.8320958
2.5760207 -7.1787529 -2.0436354
17.187374 -47.923386 0.88867652
2.9760783 -8.3027296 -2.0362568
3.5642259 -9.9490271 -2.0542498
4.4000549 -12.295635 -2.0683768
8.4873056 -23.743292 -3.095969
16.01474 -44.900196 -0.8320958
2.5509472 -7.1877007 -2.0436354
16.779554 -47.279076 0.87569195
2.9439685 -8.299696 -2.0331075
3.5334101 -9.9725094 -2.0565395
8.4072018 -23.767563 -3.0954816
15.857908 -44.955826 -0.8320958
2.5239463 -7.1951799 -2.0431178
2.9114349 -8.3091002 -2.0326576
3.49424 -9.9779816 -2.0550129
4.3602209 -12.464786 -2.0915291
8.3158789 -23.799669 -3.0954816
15.619378 -44.827549 -0.82860535
2.5019877 -7.2171583 -2.046741
2.8849638 -8.3265791 -2.0344574
3.458287 -9.9925766 -2.0553946
4.2293143 -12.234244 -2.0502305
8.1912632 -23.708471 -3.0798824
2.4705148 -7.2075739 -2.0415647
16.366274 -47.77475 0.88148618
2.8519008 -8.3297215 -2.0326576
3.418936 -9.9915857 -2.0527232
4.1942496 -12.271363 -2.0539849
8.1043119 -23.738335 -3.0798824
2.4422412 -7.207005 -2.0389764
16.124992 -47.611881 0.87743717
2.8228083 -8.3396254 -2.0326576
3.3884428 -10.016477 -2.0553946
4.1659327 -12.328972 -2.0611808
7.9896598 -23.672436 -3.0676954
14.838913 -44.092953 -0.81206048
2.4195244 -7.2228127 -2.0410471
2.7949169 -8.3531246 -2.0335574
3.3547018 -10.031968 -2.0561578
4.132885 -12.373416 -2.0661867
7.9019551 -23.685116 -3.0657456
2.3967252 -7.2385516 -2.0431178
15.718085 -47.499271 0.87331837
2.7651296 -8.3609791 -2.0331075
3.3196645 -10.043616 -2.0561578
7.7931194 -23.633373 -3.0555084
14.514497 -44.14608 -0.81115294
2.3726456 -7.250545 -2.044153
15.606881 -47.721107 0.87639004
2.7365327 -8.3724337 -2.0335574
3.2815382 -10.045813 -2.0542498
4.011477 -12.294925 -2.0483532
7.6933532 -23.607586 -3.0486836
2.3443489 -7.2495923 -2.0415647
15.519917 -47.993313 0.88043898
2.7099531 -8.38517 -2.0344574
3.2440376 -10.049732 -2.0527232
3.9512765 -12.248 -2.0383413
7.6004133 -23.587622 -3.042834
2.3197076 -7.255486 -2.0410471
15.286566 -47.841473 0.87666929
2.6806667 -8.3945789 -2.0344574
3.2130823 -10.067916 -2.0542498
3.9288962 -12.325708 -2.0489788
7.4831042 -23.504299 -3.0286973
13.472453 -42.41917 -0.77687645
2.2943668 -7.2635393 -2.0410471
15.13807 -47.92432 0.87726265
2.6528151 -8.4034224 -2.0344574
3.1790996 -10.082815 -2.0550129
3.8927484 -12.353742 -2.0514817
7.4098873 -23.544134 -3.0306473
2.2702682 -7.2711077 -2.0410471
17.384306 -55.711807 1.018697
2.6211436 -8.4051895 -2.0326576
3.1433103 -10.085804 -2.0534863
3.8173125 -12.263518 -2.0342741
7.3170485 -23.535734 -3.0262597
13.241106 -42.722294 -0.78071594
2.2488587 -7.2919111 -2.0446706
2.5912151 -8.412426 -2.0322077
3.1086628 -10.098591 -2.0538683
3.7582285 -12.2239 -2.0255136
7.2231951 -23.523182 -3.0213852
2.2200141 -7.2886281 -2.0415647
2.5646691 -8.4307413 -2.0344574
3.0728216 -10.107503 -2.0534863
3.7281609 -12.278528 -2.0323968
7.1341286 -23.525454 -3.0184603
12.898548 -42.668217 -0.77806318
2.1916173 -7.2911654 -2.0400119
2.5357859 -8.4415083 -2.0349073
3.0334985 -10.111176 -2.05196
3.7188542 -12.411324 -2.0521076
7.0291853 -23.474148 -3.0087106
2.1656024 -7.2969198 -2.0394943
2.5037217 -8.44701 -2.0340075
3.0004151 -10.129232 -2.0534863
3.64973 -12.337094 -2.0377157
6.9296041 -23.454063 -3.0028608
2.1412051 -7.3081422 -2.0405295
2.4724107 -8.4440441 -2.0313082
2.9661427 -10.143413 -2.0542498
3.5866346 -12.273286 -2.0252008
6.847342 -23.461666 -3.000911
12.054449 -41.437679 -0.75328076
2.1169584 -7.3152022 -2.0405295
2.4423802 -8.4507513 -2.0308583
2.93031 -10.145649 -2.0527232
3.6050887 -12.498306 -2.0602422
6.7588058 -23.462536 -2.9979861
11.998027 -41.787033 -0.75886554
2.0890722 -7.3191972 -2.0394943
2.4150043 -8.4667206 -2.0326576
2.8920288 -10.152545 -2.05196
3.502502 -12.311937 -2.027391
6.6681824 -23.455435 -2.9940863
11.242611 -39.677681 -0.71984196
2.06194 -7.3208666 -2.0379412
2.3865943 -8.4848948 -2.0349073
2.8560417 -10.160687 -2.0515785
3.4856637 -12.417279 -2.0427215
6.5757384 -23.456781 -2.9911613
11.03405 -39.46632 -0.71530432
2.0358546 -7.326158 -2.0374236
2.3558376 -8.4833736 -2.0326576
2.8226538 -10.178162 -2.0531049
3.4017344 -12.274577 -2.017379
6.4841495 -23.428717 -2.9848242
10.850488 -39.338818 -0.71230257
2.0146158 -7.3440466 -2.0405295
2.3231215 -8.4802694 -2.0299582
2.7873323 -10.181787 -2.05196
3.386477 -12.387364 -2.0339613
6.3793268 -23.366947 -2.9740996
10.797102 -39.685181 -0.71788728
1.9889679 -7.3510342 -2.0405295
2.2965553 -8.4996138 -2.0326576
2.7517741 -10.191454 -2.05196
3.359158 -12.458236 -2.0436602
6.2884293 -23.35457 -2.9697125
1.9627985 -7.3560658 -2.0400119
2.2668719 -8.5075788 -2.0326576
2.7146676 -10.195305 -2.0508151
3.3242791 -12.502339 -2.0489788
6.191587 -23.318819 -2.9624002
10.527968 -39.79052 -0.71844572
1.9361258 -7.3591361 -2.0389764
2.2371616 -8.51544 -2.0326576
2.6800585 -10.208517 -2.0515785
3.2430472 -12.370557 -2.0255136
6.1041179 -23.317245 -2.9594753
10.166928 -38.975651 -0.70308769
1.9099407 -7.3639793 -2.0384588
2.207912 -8.5250835 -2.0331075
2.6453927 -10.221611 -2.0523417
3.2166522 -12.446828 -2.0361512
6.0087991 -23.284592 -2.9526505
10.038777 -39.041889 -0.70364612
1.8861384 -7.378088 -2.0405295
2.1776583 -8.5308504 -2.0326576
2.6111517 -10.23649 -2.0534863
3.1902499 -12.524979 -2.0471017
5.9128065 -23.247707 -2.9453385
1.8594277 -7.3808808 -2.0394943
10.213037 -40.569866 0.73024362
2.1454895 -8.5289507 -2.0304081
2.5749249 -10.243638 -2.0531049
3.1378536 -12.501552 -2.0414701
5.8084559 -23.175779 -2.933639
9.7340174 -38.954113 -0.70085371
1.833653 -7.3873262 -2.0394943
10.122763 -40.782059 0.73345482
2.11954 -8.545476 -2.0326576
2.5382092 -10.248753 -2.0523417
3.1063445 -12.552156 -2.0480404
5.7201438 -23.148664 -2.9277894
9.6591721 -39.236393 -0.70532155
1.8091455 -7.3933663 -2.0394943
9.9413977 -40.657867 0.73059267
2.0878487 -8.5452509 -2.0308583
2.501415 -10.245669 -2.0500519
3.0554938 -12.534136 -2.0433471
5.6299119 -23.129915 -2.9229145
9.4099989 -38.80735 -0.69701427
1.7815827 -7.3980689 -2.0389764
2.0589192 -8.5562754 -2.0317578
2.4661391 -10.264314 -2.05196
2.967139 -12.368529 -2.0145633
5.5352597 -23.091515 -2.9156024
9.2020235 -38.536537 -0.69156909
1.7561944 -7.4061227 -2.0394943
9.5764351 -40.416637 0.72500789
2.0248508 -8.5523863 -2.0290585
2.4316516 -10.278591 -2.0531049
2.9425645 -12.457633 -2.027391
5.4373727 -23.055614 -2.908534
9.0826674 -38.663441 -0.69324446
1.7312086 -7.4159703 -2.0405295
9.3408146 -40.044754 0.71774769
1.9967554 -8.5669937 -2.0308583
2.3939753 -10.279368 -2.0515785
2.8874304 -12.417804 -2.0192564
5.3438416 -23.018377 -2.9014654
8.9503593 -38.706604 -0.69345391
1.7048795 -7.4200854 -2.0400119
1.9677091 -8.5777111 -2.0317578
2.3563254 -10.280007 -2.0500519
2.8431833 -12.423955 -2.0186305
5.2457728 -22.959484 -2.891716
8.8166246 -38.712677 -0.69303507
1.6764128 -7.4146852 -2.036906
1.9401128 -8.5879898 -2.0326576
2.3212893 -10.292 -2.0508151
2.7767813 -12.321548 -2.0004842
5.160892 -22.938019 -2.8868413
1.6526549 -7.4239755 -2.0379412
8.9253597 -40.127102 0.71753824
1.9075866 -8.5832958 -2.0299582
2.287149 -10.299641 -2.0508151
2.7149417 -12.246308 -1.9867179
5.0662088 -22.889996 -2.8785541
1.6275555 -7.4334736 -2.0389764
1.8763649 -8.5841913 -2.0286086
2.2511811 -10.307562 -2.0508151
2.6957426 -12.363792 -2.0042386
4.9795213 -22.876507 -2.8746543
8.3819456 -38.669983 -0.69066155
1.6015986 -7.4391088 -2.0389764
8.6752806 -40.329197 0.72005141
1.8472087 -8.5944986 -2.0295084
2.2143641 -10.311519 -2.0500519
2.6471853 -12.348018 -2.0001712
4.8801107 -22.802515 -2.8631985
8.2702456 -38.808533 -0.69261616
1.5751214 -7.4487095 -2.0400119
8.4028959 -39.737083 0.70895165
1.8184055 -8.6066151 -2.0308583
2.1741245 -10.30804 -2.0477622
2.6283641 -12.483281 -2.0205078
4.7935405 -22.786386 -2.859055
8.2126226 -39.209034 -0.69924814
1.5487186 -7.452271 -2.0394943
8.2523165 -39.744122 0.70853281
1.7880359 -8.6189461 -2.0322077
2.138129 -10.315566 -2.0477622
2.5663633 -12.403398 -2.0061157
4.6995487 -22.753258 -2.8527179
7.9406667 -38.581322 -0.68755502
1.5223083 -7.4557385 -2.0389764
8.1068726 -39.704651 0.70734602
1.7578861 -8.6171894 -2.0304081
2.1028912 -10.326814 -2.0485253
2.512615 -12.349896 -1.996104
4.6106396 -22.702576 -2.8444309
7.7147937 -38.157993 -0.67952687
1.4975755 -7.4607458 -2.0389764
7.9989014 -39.885639 0.71006858
1.7262653 -8.6156311 -2.0286086
2.0678635 -10.329882 -2.0477622
2.4981349 -12.501937 -2.0192564
4.5274811 -22.699062 -2.8419933
7.7809463 -39.188934 -0.69739819
1.4722713 -7.4697189 -2.0400119
7.9260774 -40.250786 0.71607226
1.6976849 -8.6292515 -2.0304081
2.0310366 -10.333183 -2.046999
2.4339414 -12.405906 -2.0023613
4.4390626 -22.667974 -2.8361437
7.5071359 -38.513187 -0.68490225
1.4461889 -7.474812 -2.0400119
7.7771769 -40.235012 0.71530432
1.6675527 -8.6351252 -2.0304081
1.9942107 -10.336355 -2.0462358
2.4003348 -12.464759 -2.0104959
4.3526168 -22.62409 -2.8288314
7.3267317 -38.262905 -0.68001556
1.4192293 -7.4681797 -2.036906
7.9846234 -42.056232 0.74720734
1.6396354 -8.6444368 -2.0313082
1.959924 -10.342912 -2.0462358
2.3725693 -12.544466 -2.0220721
4.2694645 -22.595486 -2.8234692
7.1975894 -38.275204 -0.67980617
1.3958732 -7.4804411 -2.0389764
7.8209319 -41.952728 0.74490362
1.6098897 -8.6440792 -2.0299582
1.9263327 -10.353213 -2.046999
2.3197777 -12.492057 -2.0123732
4.1724744 -22.512659 -2.8112822
7.1299496 -38.658001 -0.68615884
1.3704485 -7.489069 -2.0400119
1.578656 -8.6438961 -2.0286086
1.8901812 -10.359875 -2.046999
2.2789876 -12.515627 -2.0148761
4.0881882 -22.495836 -2.8073823
6.9764609 -38.58033 -0.68434376
1.3442981 -7.4938073 -2.0400119
1.5488166 -8.6512718 -2.0290585
1.8526241 -10.358679 -2.0454724
2.2349401 -12.52156 -2.0145633
4.0061536 -22.490427 -2.804945
6.6239982 -37.375778 -0.66256315
1.31646 -7.4889402 -2.0374236
1.5199564 -8.6643028 -2.0308583
1.8164539 -10.365083 -2.0454724
2.2024477 -12.593498 -2.0248878
3.9207995 -22.465164 -2.8000703
6.4907503 -37.382915 -0.6622839
1.2903105 -7.4934897 -2.0374236
1.4890416 -8.6657143 -2.0299582
1.7789344 -10.363621 -2.043946
2.1528046 -12.568011 -2.0195692
3.8339977 -22.429794 -2.7939768
6.3039088 -37.07415 -0.65641993
1.2647877 -7.5017586 -2.0384588
1.4581378 -8.667016 -2.0290585
1.744049 -10.377511 -2.0454724
2.1082687 -12.571552 -2.0189433
3.7435539 -22.3706 -2.7849586
6.1337438 -36.85133 -0.65209174
1.2385937 -7.5061278 -2.0384588
1.4256588 -8.6585922 -2.0259092
1.7084512 -10.387411 -2.0462358
2.0749297 -12.643163 -2.0292683
3.659029 -22.344349 -2.7800837
6.0571437 -37.192257 -0.65774632
1.2136161 -7.518034 -2.0405295
1.3979048 -8.6789083 -2.0295084
1.6703104 -10.381681 -2.043946
2.0339148 -12.669831 -2.0323968
3.570961 -22.294266 -2.772284
5.9386086 -37.284267 -0.6590029
1.1852582 -7.5088668 -2.036906
1.367299 -8.6818094 -2.0290585
1.6319268 -10.373873 -2.0412748
1.9814061 -12.624164 -2.0239494
3.4869771 -22.267368 -2.7674091
5.812727 -37.332428 -0.65949154
1.1587453 -7.5110497 -2.0363884
1.3378745 -8.6923075 -2.0304081
1.5960032 -10.381446 -2.0416565
1.9391257 -12.642719 -2.0258267
3.3993213 -22.214651 -2.7593658
5.6835837 -37.360401 -0.65963113
1.1322316 -7.5131378 -2.0358706
1.3060758 -8.6872902 -2.0281587
1.5615044 -10.398602 -2.043946
1.8867874 -12.59471 -2.0170662
3.3202868 -22.216566 -2.7581472
5.5337462 -37.249462 -0.65732741
1.1074058 -7.5266008 -2.0384588
1.2748942 -8.6860113 -2.026809
1.522635 -10.386508 -2.0405114
1.8522446 -12.665721 -2.027391
3.2324021 -22.157305 -2.7493727
5.4765654 -37.771221 -0.66619325
1.0822234 -7.5380692 -2.0405295
1.24512 -8.6942673 -2.027709
1.4869246 -10.395647 -2.0412748
1.8055103 -12.65451 -2.024575
3.147207 -22.113426 -2.742548
5.296524 -37.449551 -0.66018963
1.0542974 -7.5303221 -2.0374236
1.2153026 -8.7024202 -2.0286086
1.4509 -10.402718 -2.0416565
1.7517999 -12.592256 -2.0136247
3.0612655 -22.061356 -2.7347481
5.1821499 -37.586666 -0.6622839
1.0267001 -7.5243855 -2.0348353
1.1843922 -8.7027473 -2.027709
1.4151087 -10.411609 -2.0424197
1.7280022 -12.747062 -2.0374026
2.9786551 -22.030596 -2.7296298
5.0237675 -37.402374 -0.65872365
1.0014459 -7.535584 -2.036906
1.1537503 -8.7048969 -2.0272589
1.3787553 -10.416486 -2.0424197
1.6827204 -12.747142 -2.0364642
2.9019945 -22.042828 -2.7298737
4.9294806 -37.697277 -0.66361034
0.97538412 -7.5409493 -2.0374236
1.122111 -8.6992083 -2.0250094
1.3426384 -10.423182 -2.0428011
1.6351937 -12.729426 -2.0327096
2.8149431 -21.974064 -2.720124
4.7968478 -37.706318 -0.66347069
0.94881314 -7.5423923 -2.036906
5.1077428 -40.660194 0.71530432
1.0931942 -8.714673 -2.027709
1.3045367 -10.414169 -2.0401299
1.5880576 -12.713495 -2.0292683
2.7298791 -21.91678 -2.7118368
4.6598024 -37.679169 -0.66270274
0.92248017 -7.5456576 -2.036906
1.0627675 -8.7184362 -2.027709
1.2677031 -10.414762 -2.0393667
1.5424777 -12.709157 -2.0277038
2.6500218 -21.898584 -2.7084246
4.4795938 -37.290184 -0.65558225
0.89590824 -7.5469131 -2.0363884
1.0325569 -8.7240286 -2.0281587
1.2308812 -10.415224 -2.0386035
1.4960258 -12.696806 -2.0248878
2.5654588 -21.838697 -2.6998937
4.3415251 -37.23806 -0.65439546
0.86955804 -7.5499949 -2.0363884
1.002321 -8.7295151 -2.0286086
1.1954106 -10.427259 -2.0401299
1.4485574 -12.674474 -2.0205078
2.4892113 -21.847521 -2.6998937
4.2276907 -37.396057 -0.65690863
0.84319907 -7.5529842 -2.0363884
1.5654581 -14.044873 0.24667232
0.97076434 -8.7232771 -2.0263591
1.1587896 -10.429418 -2.0397482
1.4108281 -12.738356 -2.0298939
2.4050913 -21.785044 -2.691119
4.1158495 -37.581532 -0.65991038
0.81745172 -7.5616436 -2.0379412
0.9398917 -8.7227373 -2.0254593
1.1215357 -10.425591 -2.0382218
1.3623542 -12.705884 -2.0239494
2.3262899 -21.767649 -2.6879506
3.9985492 -37.726917 -0.6622141
0.79064959 -7.5606084 -2.036906
1.4688216 -14.069383 0.24691665
0.90964073 -8.7279024 -2.0259092
1.0841218 -10.41968 -2.0363138
1.3239006 -12.767543 -2.0330224
2.2431524 -21.706526 -2.6794198
3.8957748 -38.023125 -0.66717058
0.76328295 -7.5537114 -2.0343177
1.4193013 -14.070445 0.24684684
0.87975353 -8.7368412 -2.0272589
1.0471555 -10.417539 -2.0351689
1.2862176 -12.84088 -2.043973
2.1644111 -21.684593 -2.6757636
3.7516057 -37.921074 -0.66514617
0.73728573 -7.5601749 -2.0353529
1.368821 -14.061382 0.24660251
0.84925169 -8.7398586 -2.0272589
1.0117314 -10.430902 -2.037077
1.2455683 -12.888549 -2.0508561
2.0871816 -21.676208 -2.6738136
3.655683 -38.316143 -0.67184788
0.71107179 -7.5646253 -2.0358706
1.3199157 -14.068065 0.24663742
0.81801069 -8.7350101 -2.0254593
0.97568083 -10.438278 -2.0378401
1.2011188 -12.898718 -2.0517945
2.007473 -21.639877 -2.6684515
3.4961116 -38.047894 -0.66692626
0.68553227 -7.5766826 -2.0384588
1.2708005 -14.072586 0.24663742
0.78751564 -8.737812 -2.0254593
0.93818295 -10.429889 -2.0355504
1.1594372 -12.940214 -2.0577393
1.9289203 -21.61314 -2.6643078
3.3653896 -38.083771 -0.66734517
0.65874559 -7.5751796 -2.0374236
1.2218428 -14.078929 0.24667232
0.75717914 -8.7424488 -2.0259092
0.90176988 -10.433101 -2.0355504
1.116293 -12.9678 -2.0614936
1.8483797 -21.560406 -2.6569958
1.188967 -13.983407 -0.24496198
0.63133609 -7.5658822 -2.0343177
1.1716578 -14.041056 0.24593931
0.72866869 -8.7507372 -2.0272589
1.1656643 -14.028336 0.7377277
0.86469811 -10.428359 -2.034024
1.0760542 -13.004897 -2.0668125
1.772634 -21.51498 -2.6506586
1.1458871 -13.967543 -1.226107
0.60624295 -7.567934 -2.0343177
1.1245499 -14.06898 0.24635819
0.69765347 -8.7474003 -2.0259092
0.83104575 -10.442911 -2.0363138
1.0329905 -13.038113 -2.0715053
0.580118 -7.5738564 -2.0353529
1.0757374 -14.076807 0.24642798
0.66637415 -8.7400665 -2.0236597
3.3645921 -44.231339 2.3247633
0.79503447 -10.45162 -2.0374587
0.98434186 -13.000275 -2.0649352
1.6129917 -21.402121 -2.6353028
2.7107515 -36.391624 -0.63697791
0.55409807 -7.5816154 -2.036906
1.0265932 -14.080477 0.24642798
0.63656914 -8.7520571 -2.0259092
3.2726145 -45.103367 2.3699815
0.75726777 -10.436709 -2.034024
0.93554324 -12.956346 -2.0574262
1.5328674 -21.332382 -2.6260407
2.5754962 -36.285172 -0.63495344
0.5270943 -7.5757947 -2.0348353
0.97785348 -14.089958 0.24653269
0.60547525 -8.7464495 -2.0241096
2.9745483 -43.078167 2.2630069
0.72137409 -10.447124 -2.0355504
0.88882035 -12.937855 -2.0539849
1.4531146 -21.260366 -2.6165349
2.580476 -38.245205 -0.66909033
0.50077373 -7.5795159 -2.0353529
0.9281382 -14.085305 0.24639308
0.57532495 -8.754344 -2.0254593
2.8249371 -43.100246 2.2636349
0.68438733 -10.441742 -2.034024
0.84571069 -12.972418 -2.0589907
1.3773512 -21.241539 -2.6136103
2.4512987 -38.321835 -0.67027712
0.47431305 -7.5812178 -2.0353529
0.87884074 -14.086463 0.24635819
0.54476392 -8.756299 -2.0254593
0.64817876 -10.447987 -2.0347872
0.79859704 -12.945716 -2.0542977
1.3016179 -21.220455 -2.6104414
2.31848 -38.346123 -0.67055637
0.44807529 -7.5866847 -2.0363884
0.8299008 -14.093437 0.24642798
0.51373726 -8.7503653 -2.0236597
2.5624912 -43.776886 2.2981768
0.61136007 -10.444305 -2.0336425
0.7530601 -12.942508 -2.053359
1.2229515 -21.145599 -2.6006918
2.1980307 -38.589565 -0.67467511
0.4218033 -7.5920601 -2.0374236
0.48308304 -8.7501602 -2.0232098
2.4122987 -43.833427 2.300689
0.57457495 -10.440495 -2.0324974
0.71100688 -13.002259 -2.0624323
1.1478393 -21.125956 -2.5977674
2.0554187 -38.449238 -0.6720922
0.39519975 -7.591557 -2.036906
0.45293757 -8.7595778 -2.0250094
2.245096 -43.566322 2.2862442
0.53802723 -10.440475 -2.0321159
0.670259 -13.09541 -2.0768242
1.0712692 -21.074322 -2.5909424
1.9094187 -38.220509 -0.6679734
0.36822915 -7.5832424 -2.0343177
1.8721855 -38.694836 0.67621094
0.42226514 -8.7591581 -2.0245595
2.0989473 -43.697582 2.2927339
0.5019564 -10.450134 -2.0336425
0.62670857 -13.143051 -2.0840201
0.99722713 -21.06802 -2.5897238
1.7557601 -37.791473 -0.66036415
0.34175625 -7.5844817 -2.0343177
1.7333369 -38.617233 0.67474496
0.3916882 -8.7605791 -2.0245595
1.919209 -43.09409 2.2607043
0.46556264 -10.453785 -2.034024
0.58204734 -13.172788 -2.0884004
0.92003047 -20.988077 -2.5794866
1.6389378 -38.148998 -0.66650742
0.31544054 -7.5894885 -2.0353529
1.5998535 -38.655014 0.6753034
0.36078343 -8.7541056 -2.0227599
1.7728643 -43.200302 2.2659378
0.42890796 -10.451422 -2.0332606
0.54208499 -13.322769 -2.1118655
0.84548461 -20.959425 -2.5755868
1.5078167 -38.206432 -0.6674149
0.2891666 -7.5963349 -2.036906
1.4427975 -38.076874 0.66511118
0.33000413 -8.7494678 -2.02141
1.6217605 -43.198242 2.2655191
0.39220303 -10.44697 -2.0321159
0.49756008 -13.377879 -2.1203129
0.77107185 -20.928526 -2.5714433
1.3597775 -37.803795 -0.66029435
0.26244822 -7.5915055 -2.0353529
1.3126287 -38.161617 0.66650742
0.29979378 -8.7603045 -2.0236597
0.35560006 -10.444351 -2.0313528
0.45039186 -13.365715 -2.1181231
0.6962285 -20.877522 -2.5648625
1.2259909 -37.75235 -0.65931708
0.2358271 -7.5885139 -2.0343177
1.2017745 -38.889507 0.67914295
0.26921254 -8.7612982 -2.0236597
0.31908002 -10.443566 -2.0309711
0.40212512 -13.313895 -2.1096754
0.62168646 -20.824268 -2.5580378
1.0945541 -37.768387 -0.65952641
0.20923096 -7.5854282 -2.0332825
1.0642586 -38.829502 0.67802602
0.23857602 -8.7602367 -2.0232098
0.28283539 -10.452467 -2.0324974
0.35585913 -13.323116 -2.1109269
0.54841888 -20.804482 -2.5553565
0.96270549 -37.771976 -0.65952641
0.18303055 -7.5977006 -2.0363884
0.93359196 -39.036892 0.68158627
0.2078556 -8.7551718 -2.0218601
0.24625495 -10.449466 -2.0317342
0.30526957 -13.148517 -2.0830817
0.47438931 -20.744747 -2.5478005
0.62505388 -27.543673 -2.4103792
0.84228712 -38.294907 -0.66860169
0.1564685 -7.5963612 -2.0358706
0.79503906 -38.927952 0.67963159
0.17721497 -8.7519474 -2.0209603
0.20962134 -10.44241 -2.0302079
0.25512576 -12.934227 -2.0489788
0.40054786 -20.672842 -2.5387824
0.70949459 -38.3456 -0.66943944
0.12985288 -7.5910668 -2.0343177
0.70105416 -41.405762 0.72284377
0.14682689 -8.7622547 -2.0232098
0.17297366 -10.431299 -2.0279181
0.21766989 -13.409067 -2.1240675
0.32797578 -20.648312 -2.5356138
0.57569814 -38.351841 -0.66950923
0.10327431 -7.5856786 -2.0327649
0.55609065 -41.375961 0.72228527
0.11623977 -8.7627144 -2.0232098
0.13671447 -10.443619 -2.0302079
0.171189 -13.435423 -2.1281347
0.25557736 -20.623526 -2.5324452
0.44486573 -38.617558 -0.67411667
0.076854073 -7.5917883 -2.0343177
0.41248757 -41.461632 0.72375131
0.085633248 -8.7611179 -2.0227599
0.10018418 -10.43618 -2.0286815
0.12425264 -13.431987 -2.1275089
0.18328531 -20.590546 -2.5283015
0.050391544 -7.5978055 -2.0358706
0.26765746 -41.446823 0.72347206
0.05502598 -8.7574663 -2.0218601
0.063752972 -10.436466 -2.0286815
0.077662542 -13.483699 -2.1356435
0.11116461 -20.545404 -2.5226955
0.17429161 -38.407753 -0.67041671
0.025189338 -7.5959992 -2.0353529
0.1309405 -41.679447 0.727521
0.025968233 -8.7517538 -2.0205104
0.029133925 -10.432693 -2.0279181
0.033063889 -13.531291 -2.1431525
0.042924099 -20.494047 -2.5163584
0.052318767 -27.251854 -2.3842325
0.0473007 -38.716072 -0.67579204
-0.0013244319 -7.5921774 -2.0343177
-0.014927331 -42.775482 0.74664885
-0.0045794733 -8.7459459 -2.0191607
-0.0072779562 -10.424878 -2.0263917
-0.014206947 -13.566881 -2.1487842
-0.028550899 -20.450401 -2.5109961
-0.086588167 -38.164089 -0.66615838
-0.027826279 -7.5921264 -2.0343177
-0.16324964 -42.515213 0.74211127
-0.035138983 -8.7536707 -2.0209603
-0.043666579 -10.424789 -2.0263917
-0.061509084 -13.554895 -2.1469069
-0.09973523 -20.408489 -2.5058775
-0.21886182 -37.999584 -0.66329616
-0.05432779 -7.5919828 -2.0343177
-0.30824983 -42.050468 0.73401332
-0.065709651 -8.7554436 -2.02141
-0.08008606 -10.428499 -2.0271549
-0.10947635 -13.635587 -2.1597345
-0.17048945 -20.350452 -2.4988093
-0.35442743 -38.314526 -0.66881114
-0.08093147 -7.6014056 -2.036906
-0.096164569 -8.7454185 -2.0191607
-0.11653198 -10.432082 -2.0279181
-0.15704878 -13.633147 -2.1594217
-0.24093874 -20.300108 -2.4927156
-0.4888778 -38.369041 -0.66978848
-0.10740951 -7.5972133 -2.0358706
-0.62218601 -43.470928 0.75886554
-0.12674683 -8.7489262 -2.0200605
-0.15285999 -10.425724 -2.0267732
-0.20579307 -13.709546 -2.1716235
-0.31054607 -20.217768 -2.4827225
-0.63754886 -39.274849 -0.68563527
-0.13389423 -7.5948606 -2.0353529
-0.75441283 -42.372833 0.73973769
-0.15732183 -8.7503777 -2.0205104
-0.18918063 -10.4212 -2.02601
-0.25529191 -13.797622 -2.1857026
-0.37984335 -20.149078 -2.4744353
-0.74707049 -37.874863 -0.66123676
-0.1602007 -7.5846901 -2.0327649
-0.92378181 -43.37756 0.7573297
-0.18807375 -8.7595177 -2.0227599
-0.2255978 -10.42244 -2.0263917
-0.30436397 -13.838119 -2.1922729
-0.44893578 -20.09206 -2.4676106
-0.87732559 -37.788059 -0.65977079
-0.18672296 -7.5860157 -2.0332825
-1.0735031 -43.306099 0.75614291
-0.2184061 -8.7490664 -2.0205104
-0.26178047 -10.413738 -2.0248652
-0.35176057 -13.801426 -2.1866412
-0.5179376 -20.046713 -2.4622483
-1.0062362 -37.672825 -0.65781611
-0.21325645 -7.5872488 -2.0338001
-0.24855694 -8.7346153 -2.0173612
-0.29846701 -10.424536 -2.0271549
-0.39924806 -13.77642 -2.1828868
-0.58628398 -19.989223 -2.4554236
-1.1703291 -38.748428 -0.67666471
-0.23998295 -7.5941815 -2.0358706
-1.377589 -43.353516 0.75712031
-0.27916858 -8.7375898 -2.0182607
-0.33422229 -10.403809 -2.0233386
-0.44547537 -13.717687 -2.1738136
-0.65344906 -19.907696 -2.4456742
-1.3022176 -38.644176 -0.67491943
-0.26628709 -7.5875058 -2.0343177
-1.5666889 -44.419609 0.77582932
-0.30987412 -8.7424049 -2.0196106
-0.37039813 -10.398654 -2.0225754
-0.49179292 -13.672617 -2.1669304
-0.72149312 -19.865618 -2.4407995
-0.97932512 -26.835562 -2.3493702
-1.45241 -39.051052 -0.68210989
-0.29277104 -7.5865302 -2.0343177
-1.7908298 -46.196262 0.8069644
-0.34076828 -8.7510061 -2.0218601
-0.40699995 -10.405146 -2.024102
-0.53889346 -13.655027 -2.1644275
-0.78925616 -19.823309 -2.4359245
-1.5753783 -38.718063 -0.67638546
-0.31933174 -7.5873923 -2.0348353
-0.37106529 -8.7439222 -2.0205104
-0.44306645 -10.397776 -2.0229571
-0.58536851 -13.625433 -2.1600473
-0.85080099 -19.643925 -2.414232
-1.711585 -38.736301 -0.67680436
-0.34572786 -7.5843015 -2.0343177
-0.4009583 -8.7289476 -2.0173612
-0.47981244 -10.405972 -2.0248652
-0.63265187 -13.617387 -2.1591089
-0.92131567 -19.682476 -2.4193504
-1.2602867 -26.823835 -2.3493702
-1.8481925 -38.902195 -0.67980617
-0.37200981 -7.5791893 -2.0332825
-0.42990264 -8.7275696 -2.0173612
-0.51535404 -10.388547 -2.0218122
-0.67652899 -13.589566 -2.1550415
-0.98439175 -19.635695 -2.4139881
-1.9939545 -39.091221 -0.68322682
-0.39693931 -7.5740552 -2.0322473
-0.46087852 -8.7357464 -2.0196106
-0.5491786 -10.375018 -2.0195224
-0.72311926 -13.571342 -2.1525385
-1.0493155 -19.564745 -2.4057012
-2.1423645 -39.303658 -0.68706632
-0.42437255 -7.5667634 -2.0306942
-0.49136943 -8.7340841 -2.0196106
-0.58742332 -10.376855 -2.0202856
-0.7715081 -13.544934 -2.1487842
-1.1138643 -19.495562 -2.3976579
-2.2936816 -39.539501 -0.69132477
-0.45112693 -7.5710211 -2.0322473
-0.52337831 -8.7322245 -2.0196106
-0.62364078 -10.374742 -2.0202856
-0.8156848 -13.490892 -2.1406496
-1.1808536 -19.418034 -2.3886392
-2.4417875 -39.582722 -0.69223225
-0.47791803 -7.5751843 -2.0338001
-2.7874069 -44.059193 0.77059358
-0.55262154 -8.7108955 -2.0151114
-0.6598531 -10.372501 -2.0202856
-0.86188787 -13.474164 -2.1384594
-1.244169 -19.344458 -2.3801084
-2.6163633 -40.132683 -0.70200562
-0.50487018 -7.5811796 -2.0358706
-0.58393639 -8.7225237 -2.0182607
-0.69592345 -10.368176 -2.0199041
-0.90705639 -13.443479 -2.1340792
-1.3079234 -19.284542 -2.3732839
-2.7443769 -39.947742 -0.69893396
-0.53092444 -7.5735908 -2.0343177
-0.61438036 -8.7204332 -2.0182607
-0.73141962 -10.355891 -2.0179961
-0.95257765 -13.420527 -2.1309505
-1.372407 -19.240257 -2.3684089
-1.8834429 -26.33988 -2.3103244
-2.8656588 -39.686615 -0.69453597
-0.55664998 -7.562058 -2.0317297
-0.64510334 -8.7221231 -2.0191607
-0.76712883 -10.347403 -2.0168512
-0.996629 -13.379692 -2.125006
-1.434671 -19.170023 -2.3603656
-3.0029624 -39.660419 -0.69425672
-0.58378512 -7.5696998 -2.0343177
-0.67554659 -8.7198181 -2.0191607
-0.8036983 -10.350533 -2.0179961
-1.04041 -13.338713 -2.1190615
-1.4990981 -19.133236 -2.3564658
-3.1056919 -39.199177 -0.68636829
-0.60903913 -7.5696478 -2.0348353
-0.70304537 -8.7000465 -2.0151114
-0.83833492 -10.351726 -2.0187593
-1.0820754 -13.303687 -2.1140556
-1.5557505 -19.045061 -2.3462288
-3.2642965 -39.535427 -0.6924417
-0.63497281 -7.5617003 -2.0332825
-0.73455638 -8.711133 -2.0182607
-0.8742978 -10.34678 -2.0183775
-1.126001 -13.270305 -2.1093626
-1.6186799 -18.997978 -2.3411102
-3.3865037 -39.340496 -0.68923044
-0.66136527 -7.5594378 -2.0332825
-4.1368675 -47.189808 0.82686013
-0.76529974 -8.7123995 -2.0191607
-0.90955031 -10.333886 -2.0164697
-1.1697083 -13.236777 -2.1046696
-1.6798986 -18.934872 -2.3340418
-3.5409355 -39.519646 -0.6925813
-0.68774796 -7.5570831 -2.0332825
-0.79535365 -8.7057924 -2.0182607
-0.94597369 -10.334558 -2.0172329
-1.2137375 -13.209008 -2.100915
-1.7408785 -18.873543 -2.3272171
-3.5987725 -38.646893 -0.67750245
-0.71357858 -7.5488667 -2.0317297
-0.82536876 -8.6990833 -2.0173612
-0.98092908 -10.319467 -2.0149431
-1.2573979 -13.179129 -2.0968478
-1.8003159 -18.800167 -2.3189301
-3.7609646 -38.916737 -0.68245888
-0.73973554 -7.5444074 -2.0312121
-0.85458434 -8.6845131 -2.0146616
-1.0180995 -10.327703 -2.0172329
-1.302618 -13.166796 -2.0955963
-1.8606325 -18.740433 -2.3123491
-3.8748643 -38.684502 -0.67861938
-0.76665092 -7.5475454 -2.0327649
-4.6613336 -45.810444 0.80375314
-0.88568449 -8.6892319 -2.0164614
-1.053744 -10.32018 -2.0164697
-1.3451468 -13.128762 -2.0902774
-1.9173082 -18.648911 -2.3018682
-3.9686263 -38.272934 -0.67163843
-0.79218543 -7.537138 -2.0306942
-4.0184774 -38.169205 0.66992807
-0.91641819 -8.6899643 -2.0173612
-1.0881132 -10.300818 -2.0134165
-1.3892998 -13.108272 -2.0877745
-1.9775659 -18.596704 -2.2962623
-4.0096712 -37.395924 -0.65648973
-0.81828082 -7.5324063 -2.0301766
-4.9516134 -45.506424 0.79900604
-0.94716966 -8.6905861 -2.0182607
-1.1249144 -10.304765 -2.0149431
-1.432469 -13.079779 -2.0840201
-2.0379162 -18.54825 -2.2911439
-4.1238947 -37.234623 -0.65390676
-0.84607643 -7.542942 -2.0338001
-4.2683301 -37.993168 0.66734517
-0.97749895 -8.6872263 -2.0182607
-1.1608782 -10.300776 -2.0149431
-1.4763408 -13.058996 -2.0815172
-2.0963867 -18.485796 -2.2843192
-4.354207 -38.098148 -0.66933471
-0.87262332 -7.541862 -2.0343177
-4.3898773 -37.88269 0.66566968
-1.005345 -8.6624689 -2.0133121
-1.1977346 -10.304461 -2.0164697
-1.5200881 -13.038066 -2.0790143
-2.1535213 -18.41527 -2.2765195
-4.4712567 -37.947674 -0.66696119
-0.89848584 -7.5349336 -2.0332825
-4.4969478 -37.656662 0.66196978
-1.036272 -8.664711 -2.0146616
-1.2329952 -10.29437 -2.0153246
-1.5632328 -13.013067 -2.0758855
-2.211616 -18.356398 -2.2701821
-4.5882683 -37.804783 -0.66472727
-0.92454696 -7.5298343 -2.0327649
-4.6498442 -37.815395 0.66504145
-1.0674632 -8.6687784 -2.0164614
-1.2677217 -10.280259 -2.0134165
-1.6071914 -12.995769 -2.0740085
-2.2683494 -18.289469 -2.2628701
-4.7568884 -38.082214 -0.66989321
-0.94985706 -7.5188947 -2.0306942
-4.7978797 -37.925903 0.66727531
-1.0977176 -8.664999 -2.0164614
-1.304092 -10.279667 -2.0141799
-1.6495558 -12.966564 -2.0702538
-2.3321762 -18.281439 -2.2628701
-4.9025307 -38.164547 -0.67163843
-0.9758485 -7.513617 -2.0301766
-4.9498334 -38.059631 0.66992807
-1.1272016 -8.6553164 -2.0151114
-1.3409827 -10.28284 -2.0157063
-1.6914766 -12.935264 -2.0661867
-2.3874621 -18.208235 -2.2548268
-4.8644032 -36.899078 -0.64964843
-1.0033478 -7.5197396 -2.0327649
-5.1209822 -38.379967 0.6758619
-1.1551237 -8.6457376 -2.013762
-1.3763472 -10.274204 -2.0149431
-1.7309487 -12.904131 -2.0621192
-2.44677 -18.192348 -2.2538519
-4.9942541 -36.889801 -0.64978802
-1.0282788 -7.5163713 -2.0327649
-5.2451491 -38.290539 0.67460537
-1.1866192 -8.6513062 -2.0160115
-1.4088079 -10.257914 -2.0126534
-1.7751725 -12.89214 -2.0611808
-2.5246463 -18.287918 -2.2667699
-4.9969511 -35.964993 -0.63380158
-1.0550135 -7.5068126 -2.0312121
-5.3292389 -37.91951 0.66839224
-1.2165393 -8.6451807 -2.0155613
-1.4461201 -10.250738 -2.0122719
-1.8207531 -12.873813 -2.0593035
-2.5842912 -18.249512 -2.263114
-3.6069329 -25.407227 -2.245132
-1.0803843 -7.4973478 -2.029659
-5.458477 -37.832436 0.66720551
-1.2496104 -8.6503077 -2.0178108
-1.4810505 -10.239799 -2.011127
-1.861712 -12.840009 -2.0549233
-2.6411681 -18.171162 -2.2545829
-5.1941562 -35.561192 -0.62730926
-1.107113 -7.4973531 -2.0306942
-5.5488501 -37.576733 0.66301692
-1.2785734 -8.6480436 -2.0182607
-1.5179363 -10.242333 -2.0126534
-1.9016705 -12.81618 -2.0521076
-2.7022882 -18.168194 -2.2553141
-5.2904363 -35.356945 -0.62402821
-1.1319684 -7.4936404 -2.0306942
-5.8366699 -38.593197 0.68130708
-1.3061286 -8.6261873 -2.0142117
-1.551892 -10.237244 -2.0126534
-1.9428365 -12.786028 -2.0483532
-2.7641966 -18.148836 -2.2540956
-5.4003963 -35.291763 -0.62319052
-1.159005 -7.4953709 -2.0322473
-5.9621739 -38.557819 0.68102783
-1.3350242 -8.6237345 -2.0146616
-1.5876175 -10.231764 -2.0126534
-1.9837086 -12.769755 -2.0467887
-2.8292525 -18.170956 -2.2579956
-5.5514002 -35.450504 -0.62633193
-1.1829489 -7.4857621 -2.0306942
-6.0286112 -38.106194 0.67341858
-1.3654236 -8.6209459 -2.0151114
-1.620308 -10.218689 -2.011127
-2.0223808 -12.725685 -2.0408442
-2.8904762 -18.147245 -2.256289
-5.6335416 -35.210747 -0.62242264
-1.2078402 -7.4739585 -2.0286238
-6.1077275 -37.793827 0.66825265
-1.3955598 -8.6259899 -2.0173612
-1.6559695 -10.21297 -2.011127
-2.0642536 -12.716959 -2.0405314
-2.9439456 -18.096415 -2.2511706
-5.8435812 -35.723705 -0.63184696
-1.2355399 -7.4713869 -2.0291414
-6.180295 -37.332123 0.66050375
-1.4280336 -8.6167231 -2.0164614
-1.6927483 -10.202958 -2.0103636
-2.1104746 -12.693352 -2.0380285
-3.0127566 -18.081062 -2.2506831
-5.9916387 -35.804607 -0.63366199
-1.2622564 -7.470839 -2.0301766
-6.2847338 -37.197067 0.65847933
-1.4536752 -8.5946465 -2.0124121
-1.728352 -10.196987 -2.0103636
-2.1502428 -12.672648 -2.0358384
-3.0733652 -18.074884 -2.2511706
-1.2876803 -7.4704199 -2.0312121
-6.4981837 -37.65966 0.66706586
-1.4836665 -8.5895205 -2.0124121
-1.7614883 -10.187331 -2.0096004
-2.1927798 -12.655334 -2.0342741
-3.1296463 -18.024931 -2.2462959
-1.3147169 -7.463747 -2.0306942
-6.6608229 -37.813992 0.67020732
-1.5160106 -8.5977221 -2.0155613
-1.7981319 -10.176939 -2.0088372
-2.2367387 -12.633596 -2.032084
-3.186311 -17.978714 -2.2419088
-1.3370022 -7.4381976 -2.0250003
-6.756876 -37.553158 0.66601872
-1.5488945 -8.5997801 -2.0173612
-1.834342 -10.174464 -2.0096004
-2.2783668 -12.612104 -2.0298939
-3.2189469 -17.783298 -2.218997
-1.3647004 -7.4429855 -2.0275886
-6.9305215 -37.761429 0.67013752
-1.5778469 -8.5885715 -2.0160115
-1.8705556 -10.171862 -2.0103636
-2.317723 -12.57882 -2.0258267
-3.2936192 -17.840279 -2.2275281
-1.3920933 -7.4457722 -2.029659
-7.0770011 -37.815628 0.6715337
-1.6045878 -8.5657721 -2.0119622
-1.9053273 -10.161411 -2.0096004
-2.3594289 -12.559004 -2.0239494
-3.3485272 -17.789654 -2.2226534
-1.4180757 -7.4408679 -2.029659
-1.6340787 -8.5661469 -2.0133121
-1.940786 -10.154698 -2.0096004
-2.3973505 -12.53171 -2.0208206
-3.406755 -17.774555 -2.2221658
-1.4423741 -7.4342275 -2.0291414
-1.6639715 -8.5603905 -2.0133121
-1.9729488 -10.140498 -2.0080738
-2.4425933 -12.53102 -2.0220721
-3.4680188 -17.758657 -2.2216785
-4.7700267 -24.403198 -2.1754072
-4.7930651 -24.430468 -0.43456492
-1.4664429 -7.419672 -2.0265532
-8.2243052 -41.573872 0.73973769
-1.6968701 -8.5698233 -2.0169113
-2.0083339 -10.133549 -2.0080738
-2.4805484 -12.493355 -2.017379
-3.5172074 -17.682196 -2.213635
-1.4915714 -7.4107199 -2.0255179
-1.7252344 -8.5562057 -2.0151114
-2.0452483 -10.134174 -2.0096004
-2.5217962 -12.473002 -2.015502
-3.5753598 -17.652298 -2.2114413
-4.9402766 -24.369303 -2.1754072
-1.518981 -7.4130387 -2.0275886
-1.7531306 -8.5405865 -2.012862
-2.080611 -10.126974 -2.0096004
-2.5621328 -12.448645 -2.0129991
-3.6321487 -17.616381 -2.2085166
-5.0253091 -24.35191 -2.1754072
-1.5468203 -7.4171472 -2.0301766
-1.78333 -8.5363235 -2.0133121
-2.114341 -10.111962 -2.0080738
-2.6023302 -12.424158 -2.0104959
-3.6862795 -17.568623 -2.204129
-1.573594 -7.4095378 -2.029659
-1.8127124 -8.5281391 -2.012862
-2.1497526 -10.096464 -2.0065475
-2.6486752 -12.418401 -2.0111217
-3.7459242 -17.547886 -2.2031541
-1.5957774 -7.3870053 -2.0250003
-1.847254 -8.5366764 -2.0164614
-2.1858153 -10.092736 -2.0073106
-2.6886561 -12.393636 -2.0086186
-3.8030496 -17.50106 -2.1990106
-1.6232113 -7.388937 -2.0270708
-9.2498131 -42.070587 0.75188458
-1.873691 -8.5149498 -2.012862
-2.2210314 -10.085045 -2.0073106
-2.7280722 -12.366814 -2.0058029
-3.8773963 -17.547766 -2.2065666
-5.3061342 -23.914686 -0.42758396
-1.6498351 -7.3869972 -2.0281062
-9.3905096 -42.010719 0.75139588
-1.9008502 -8.4969482 -2.0101628
-2.2562203 -10.07723 -2.0073106
-2.7703595 -12.353361 -2.0051773
-3.9281714 -17.501884 -2.2024229
-5.3663774 -23.870771 -2.1405451
-5.3448477 -23.736284 -1.2751133
-7.9405117 -35.234844 -0.63045073
-1.6734678 -7.3777175 -2.0270708
-9.5581045 -42.10416 0.75362986
-1.9316061 -8.5019989 -2.012862
-2.2896256 -10.069694 -2.0073106
-2.8086767 -12.33255 -2.0033
-3.9751606 -17.440378 -2.1963296
-7.7804666 -34.025883 -1.8292466
-1.6979243 -7.3721275 -2.0270708
-1.9624177 -8.5069408 -2.0155613
-2.3194726 -10.046741 -2.0042579
-2.8468876 -12.31162 -2.0014229
-3.9907794 -17.231071 -2.1717119
-5.528173 -23.850182 -2.1419394
-5.5021558 -23.700314 -1.2751133
-1.7227675 -7.3623939 -2.0260355
-1.9916551 -8.4981403 -2.0151114
-2.3572183 -10.050053 -2.0065475
-2.8880405 -12.293916 -2.0001712
-4.0509014 -17.217035 -2.1717119
-5.5730367 -23.667835 -2.1272974
-1.7475624 -7.3525767 -2.0250003
-2.0190518 -8.481658 -2.012862
-2.3922155 -10.033707 -2.0050211
-2.9304771 -12.281838 -1.9998584
-4.1040545 -17.173828 -2.1680558
-1.7758601 -7.3517556 -2.0265532
-2.0510409 -8.4779902 -2.013762
-2.4298995 -10.028687 -2.0057843
-2.9740765 -12.265256 -1.9989198
-4.1768084 -17.199181 -2.1731744
-1.805097 -7.3545775 -2.0291414
-2.0807049 -8.4647379 -2.0124121
-2.4647632 -10.012089 -2.0042579
-3.0171194 -12.2466 -1.9976684
-4.2236524 -17.118227 -2.1648872
-1.829236 -7.3366661 -2.0260355
-9.3515282 -37.479069 0.67425627
-2.1126602 -8.4608364 -2.0133121
-2.5004916 -9.9991779 -2.0034947
-3.0634243 -12.24121 -1.998607
-4.3047042 -17.175802 -2.1741493
-5.8718791 -23.394211 -2.1102149
-1.849104 -7.3237138 -2.0239649
-2.1406207 -8.465867 -2.0160115
-2.5293674 -9.9959631 -2.0042579
-3.0934236 -12.207173 -1.9945397
-4.3473454 -17.130247 -2.1700058
-5.9244323 -23.327515 -2.1056828
-1.8741781 -7.3153429 -2.0234473
-9.7195024 -37.909904 0.6831221
-2.1658013 -8.4413548 -2.0119622
-2.5652201 -9.9908762 -2.0050211
-3.1335566 -12.186734 -1.9929754
-4.4036474 -17.101511 -2.1682997
-1.9026181 -7.3199749 -2.0265532
-9.8980856 -38.053791 0.6863333
-2.195744 -8.4356289 -2.0124121
-2.5990896 -9.9780617 -2.0042579
-3.1750786 -12.1719 -1.9923496
-4.467834 -17.103319 -2.1704934
-1.9281583 -7.3132892 -2.0265532
-2.2251766 -8.4279127 -2.0124121
-2.6318977 -9.9613352 -2.0027313
-3.216537 -12.156922 -1.9917238
-4.5275073 -17.08762 -2.1704934
-1.9536748 -7.3065138 -2.0265532
-2.2540784 -8.4182119 -2.0119622
-2.663605 -9.9407082 -2.0004416
-3.2594652 -12.147529 -1.9920367
-4.5897045 -17.081299 -2.1717119
-1.976639 -7.2903266 -2.0239649
-2.2870228 -8.4234562 -2.0151114
-2.699317 -9.9351406 -2.001205
-3.2982183 -12.122734 -1.9898466
