# .PCD v0.7 - Point Cloud Data file format
VERSION 0.7
FIELDS x y z
SIZE 4 4 4
TYPE F F F
COUNT 1 1 1
WIDTH 1507
HEIGHT 1
VIEWPOINT 0 0 0 1 0 0 0
POINTS 1507
DATA ascii
11.650857 -11.270767 -1.9903703
16.582647 -16.052876 -2.0192242
24.155777 -23.392231 -1.7622565
5.461844 -5.309556 -2.0410471
64.297974 -62.505211 1.5652366
6.2742524 -6.1014442 -2.0205104
7.4219255 -7.222549 -2.0130351
9.0007153 -8.7650471 -1.9898466
11.568788 -11.269814 -1.9830582
16.515097 -16.099537 -2.0178297
24.164236 -23.572657 -1.7691648
5.4474182 -5.332644 -2.0425999
64.054161 -62.72646 1.5648875
6.2518477 -6.1243992 -2.0205104
7.4036798 -7.2552829 -2.0149431
8.9601927 -8.7867308 -1.9876565
11.477814 -11.263475 -1.9745274
16.478704 -16.176626 -2.0202701
24.130247 -23.704451 -1.7727237
5.4273949 -5.3502698 -2.0420823
63.754654 -62.848679 1.5626535
6.2301168 -6.1437292 -2.0200605
7.3852963 -7.2879782 -2.0168512
8.9394407 -8.8247213 -1.9895338
11.443223 -11.304264 -1.9750148
16.447643 -16.259262 -2.0234077
24.173641 -23.905115 -1.7817255
5.4178505 -5.3764033 -2.0451882
63.392967 -62.929962 1.5591631
6.2086334 -6.1654391 -2.0200605
7.3457661 -7.2972078 -2.0126534
8.9071798 -8.8544798 -1.9892209
11.412139 -11.352541 -1.9764771
16.399284 -16.319336 -2.0241048
24.194777 -24.093639 -1.7894711
5.4031501 -5.3993788 -2.046741
63.172916 -63.150864 1.5591631
6.1898298 -6.1898298 -2.0209603
7.3216381 -7.3241935 -2.0130351
8.877614 -8.8869152 -1.9895338
11.333172 -11.352969 -1.9696525
16.356293 -16.390583 -2.0258482
24.144375 -24.211891 -1.7919834
5.3747377 -5.4086146 -2.0431178
62.881626 -63.300064 1.5574179
6.1791706 -6.2224603 -2.0245595
7.3001766 -7.3538861 -2.0141799
8.8493214 -8.9206553 -1.9901596
11.252945 -11.351577 -1.962584
16.279282 -16.433439 -2.0237563
24.155277 -24.392527 -1.7991011
5.3670878 -5.4406548 -2.0477762
62.590069 -63.447987 1.5556725
6.1492033 -6.2356668 -2.0218601
7.2759299 -7.3833899 -2.0149431
8.8082504 -8.9445848 -1.9882823
11.202112 -11.379472 -1.9606342
16.241383 -16.510046 -2.0261967
24.099314 -24.515078 -1.8016131
5.3426561 -5.4538364 -2.0457058
62.217186 -63.534096 1.5521821
6.1263065 -6.258163 -2.0218601
7.2501125 -7.4087429 -2.0149431
8.7742119 -8.9724522 -1.9876565
11.164491 -11.42471 -1.9613652
16.18922 -16.57234 -2.0268939
24.072191 -24.659077 -1.8060094
5.3316689 -5.4807611 -2.0488117
62.006161 -63.740067 1.5521821
6.1055198 -6.2784443 -2.0218601
7.2214708 -7.4311895 -2.0141799
8.7499151 -9.0071669 -1.9889081
11.112718 -11.447429 -1.9589281
16.139597 -16.637331 -2.0279398
24.087616 -24.839132 -1.8133365
5.3161492 -5.5011897 -2.0498469
61.783291 -63.956116 1.5521821
6.0835676 -6.2997179 -2.0218601
7.1872439 -7.445209 -2.0115087
8.718421 -9.0376539 -1.9889081
11.063046 -11.476146 -1.9572219
16.111834 -16.725134 -2.0317745
24.164242 -25.092825 -1.8256878
5.2865891 -5.5108781 -2.0462234
61.490444 -64.099243 1.5504369
6.0669346 -6.3265409 -2.0236597
7.1694164 -7.4814229 -2.0141799
8.6825056 -9.0666952 -1.9882823
11.010565 -11.501786 -1.9550281
16.050598 -16.778395 -2.031426
24.179758 -25.293829 -1.8338521
5.2633233 -5.5251026 -2.0446706
6.0477381 -6.3529701 -2.0250094
7.1405501 -7.5035586 -2.0134165
8.6426363 -9.0883589 -1.9864051
10.871246 -11.439898 -1.9377227
15.989189 -16.83143 -2.0310774
24.149073 -25.438915 -1.8382483
5.2426772 -5.542038 -2.044153
60.824097 -64.319672 1.5452012
6.0161538 -6.3641286 -2.0218601
7.1170115 -7.5312924 -2.0141799
8.6162844 -9.1242161 -1.9876565
10.899367 -11.549962 -1.9499096
15.971353 -16.930618 -2.0363066
24.147808 -25.616072 -1.8449473
5.2233005 -5.5603042 -2.044153
5.9992366 -6.3907728 -2.0236597
7.0906787 -7.5560899 -2.0141799
8.5816803 -9.1513557 -1.9870309
10.957399 -11.688869 -1.9672151
15.909434 -16.983356 -2.0359581
24.118301 -25.764362 -1.8495528
5.206151 -5.5790076 -2.0446706
60.38488 -64.732193 1.5452012
5.9780111 -6.4106321 -2.0236597
7.0629048 -7.5766892 -2.0134165
8.5593643 -9.1884346 -1.9889081
10.941575 -11.749838 -1.9713587
15.872029 -17.05644 -2.0383985
24.073534 -25.888079 -1.8526931
5.1876216 -5.596241 -2.0446706
60.03397 -64.785416 1.5417107
5.9567199 -6.4304209 -2.0236597
7.0377407 -7.6000695 -2.0134165
8.5234814 -9.210969 -1.9876565
10.88432 -11.770469 -1.9684337
15.807266 -17.100203 -2.0373526
24.074284 -26.061661 -1.8593919
5.1641302 -5.6100512 -2.0431178
59.807461 -64.994576 1.5417107
5.9315987 -6.4483066 -2.0227599
7.0191426 -7.6332593 -2.0157063
8.496623 -9.2464838 -1.9889081
10.894188 -11.863952 -1.9776958
15.769036 -17.178762 -2.0401416
24.088478 -26.26034 -1.8675565
5.1484261 -5.6323209 -2.0446706
59.445328 -65.055321 1.5382202
5.9064255 -6.4660945 -2.0218601
6.9924545 -7.6577144 -2.0157063
8.466958 -9.2790051 -1.9895338
10.803221 -11.847636 -1.9686776
15.727766 -17.254316 -2.042582
24.082741 -26.438761 -1.8742554
5.1300325 -5.6516886 -2.0451882
59.217884 -65.262428 1.5382202
5.8864374 -6.4895592 -2.0227599
6.9604068 -7.6762595 -2.0141799
8.4278851 -9.3011847 -1.9879694
10.764463 -11.888218 -1.9691651
15.672789 -17.31502 -2.0432792
23.998346 -26.531555 -1.8748834
5.1092839 -5.6704526 -2.0451882
5.8678274 -6.5168834 -2.0245595
6.9256587 -7.6944227 -2.0122719
8.4069471 -9.3466978 -1.9910982
15.622539 -17.387167 -2.0450222
23.94364 -26.666887 -1.878233
5.0843067 -5.6824946 -2.0431178
5.8398485 -6.5315151 -2.0227599
6.8987575 -7.7185507 -2.0122719
8.3637438 -9.3642015 -1.9885952
9.1484308 -10.253551 -1.2022263
24.031174 -26.953049 -1.8924682
5.0644403 -5.7002072 -2.0431178
5.8170142 -6.5518603 -2.0227599
6.8756819 -7.7469897 -2.0134165
8.3244514 -9.3859491 -1.9870309
24.069338 -27.18631 -1.9029355
5.0470681 -5.7207475 -2.044153
5.7876639 -6.564816 -2.0205104
6.8434062 -7.7650528 -2.0118902
8.2968607 -9.4208803 -1.9882823
23.539114 -26.775158 -1.8683938
5.0359783 -5.7485018 -2.0477762
5.7711315 -6.5923109 -2.0227599
6.8136744 -7.7859378 -2.011127
8.2678251 -9.4542446 -1.9892209
8.9243383 -10.212156 -1.6652229
24.062847 -27.564325 -1.9175897
5.0032029 -5.7514706 -2.0425999
5.7506418 -6.615356 -2.0236597
6.7890301 -7.8126388 -2.0118902
8.2464304 -9.4964705 -1.9920367
8.8834324 -10.237249 -1.664248
8.9351835 -10.300517 -1.1929878
24.060671 -27.756813 -1.925126
4.981833 -5.7674379 -2.0420823
5.7326078 -6.6412911 -2.0254593
6.7591524 -7.8333168 -2.011127
8.1951723 -9.5042543 -1.9876565
8.8520279 -10.269657 -1.6647354
8.8861704 -10.316547 -1.1912446
23.979271 -27.858797 -1.9263821
4.9689708 -5.7912574 -2.0446706
5.7054796 -6.6543465 -2.0236597
6.7408037 -7.8646307 -2.0134165
8.1636095 -9.5313778 -1.9876565
8.8230867 -10.304988 -1.6657103
8.857091 -10.352015 -1.1919419
23.96463 -28.029243 -1.9326624
4.9534974 -5.8121138 -2.0462234
5.6758008 -6.6643286 -2.0209603
6.7108688 -7.8824568 -2.0122719
8.1511583 -9.580965 -1.9923496
8.7973499 -10.347823 -1.6676602
8.8381977 -10.399547 -1.1940336
23.956881 -28.209038 -1.9395707
4.9294357 -5.8249454 -2.0446706
5.652503 -6.6841002 -2.0209603
6.6719069 -7.8923402 -2.0088372
8.1036425 -9.5927601 -1.9889081
8.7867861 -10.408806 -1.6725351
8.8095512 -10.439471 -1.1950796
23.94067 -28.390209 -1.9462699
4.9065876 -5.839159 -2.0436354
5.6404157 -6.7172222 -2.0250094
6.6443167 -7.9155812 -2.0088372
8.0726461 -9.6240158 -1.9895338
8.7797279 -10.474404 -1.678141
8.7909727 -10.491538 -1.1975199
23.941439 -28.593046 -1.9544342
4.8824615 -5.8518004 -2.0420823
55.935078 -67.063919 1.5243281
5.6169333 -6.7368698 -2.0250094
6.6204157 -7.9432502 -2.0099821
8.0390034 -9.6521358 -1.9895338
8.7837467 -10.553812 -1.6859406
8.7734108 -10.545135 -1.2001345
23.95895 -28.817732 -1.9640639
4.8632379 -5.8702955 -2.0425999
55.700634 -67.258766 1.5243281
5.5896549 -6.7519317 -2.0236597
6.6026616 -7.9784117 -2.0130351
8.000227 -9.6740494 -1.9882823
24.036222 -29.116829 -1.978718
4.8465977 -5.8940496 -2.0446706
55.338516 -67.298332 1.5208377
5.5611029 -6.7653809 -2.0218601
6.5646524 -7.9919386 -2.0103636
7.9697289 -9.7094154 -1.9895338
24.007824 -29.300512 -1.9852078
4.8247719 -5.9094353 -2.044153
55.091484 -67.500702 1.5208377
5.5338054 -6.7826977 -2.0209603
6.5416789 -8.0208912 -2.0118902
7.9382839 -9.7402372 -1.9901596
15.093551 -18.539528 -2.0915635
24.064215 -29.579351 -1.9983964
4.7992487 -5.9202375 -2.0420823
54.855526 -67.692604 1.5208377
5.5174551 -6.811058 -2.0236597
6.5099335 -8.0390987 -2.0107453
7.9067206 -9.7709589 -1.9907852
10.328706 -12.77311 -2.0169377
13.970381 -17.282799 -1.9442703
24.028587 -29.74707 -2.0040488
4.7833996 -5.9429736 -2.044153
54.493542 -67.727867 1.5173471
5.4936461 -6.830276 -2.0236597
6.4781427 -8.0571842 -2.0096004
7.8651423 -9.789259 -1.9889081
9.3991909 -11.706963 -1.8433958
13.974816 -17.41226 -1.9533345
24.012077 -29.939829 -2.0113757
4.7602134 -5.9566169 -2.0431178
54.26865 -67.908203 1.5173471
5.4733992 -6.8515015 -2.0245595
6.4548779 -8.085885 -2.011127
7.8375654 -9.8214645 -1.9901596
9.4333391 -11.829638 -1.8577764
13.889118 -17.429771 -1.9498483
24.002256 -30.131767 -2.0189121
4.7476401 -5.9814482 -2.0462234
5.4397616 -6.8583508 -2.0209603
6.4329066 -8.1133986 -2.0126534
7.7983265 -9.8425684 -1.9889081
9.5102816 -12.011904 -1.8811754
13.890594 -17.550724 -1.9582151
23.961357 -30.296829 -2.0243549
4.7255363 -5.9964666 -2.0457058
5.4181995 -6.8803596 -2.0218601
6.3948326 -8.1234646 -2.0096004
7.773694 -9.8821507 -1.991411
9.5958796 -12.207334 -1.9065242
13.915419 -17.708767 -1.970417
23.919594 -30.461969 -2.0297978
4.6986241 -6.0053182 -2.0431178
5.3953495 -6.9007659 -2.02231
6.3616014 -8.1395483 -2.0080738
7.7403665 -9.9107819 -1.9917238
9.5825214 -12.278314 -1.9123739
13.86022 -17.772217 -1.9718114
23.901535 -30.658691 -2.0373342
4.6765823 -6.0224991 -2.0431178
5.3676434 -6.9149394 -2.0209603
6.3413525 -8.1752214 -2.011127
7.70157 -9.9359617 -1.9910982
10.199813 -13.163745 -2.044724
13.961547 -18.03159 -1.9951692
23.869667 -30.850342 -2.0442426
4.6555314 -6.0387864 -2.0431178
5.3446422 -6.937654 -2.0218601
6.3127761 -8.1973066 -2.011127
7.6764774 -9.9753094 -1.9936011
13.948781 -18.152151 -2.0028389
23.815369 -31.003168 -2.0488482
4.6368885 -6.0604124 -2.0446706
5.3156562 -6.9500761 -2.0200605
6.287457 -8.2266283 -2.0126534
7.6434617 -10.008088 -1.9945397
9.1477022 -11.982024 -1.8509518
13.921588 -18.248253 -2.0080683
23.754854 -31.160133 -2.0534537
4.6225023 -6.0811009 -2.046741
5.2914019 -6.9661136 -2.0196106
6.2544589 -8.2369585 -2.0103636
7.6048183 -10.022609 -1.9926625
10.05781 -13.26509 -2.0439928
13.85697 -18.282373 -2.0070224
23.765373 -31.377901 -2.0628741
4.5977564 -6.0925736 -2.0451882
5.2741404 -6.9914007 -2.0218601
6.2197595 -8.2509022 -2.0084558
7.5739183 -10.050929 -1.9932882
10.024511 -13.312641 -2.0461864
13.831401 -18.381575 -2.0126004
23.790855 -31.628923 -2.0741789
4.5705752 -6.0985112 -2.0420823
5.2613854 -7.0253663 -2.0263591
6.2029533 -8.2856274 -2.0118902
7.5316882 -10.067815 -1.991411
9.9958096 -13.371402 -2.0498426
13.771922 -18.436129 -2.0132976
23.673134 -31.702171 -2.0735509
4.553957 -6.1229734 -2.0446706
5.220552 -7.0217948 -2.0200605
6.1678596 -8.3020029 -2.0103636
7.4923816 -10.092179 -1.9907852
13.75377 -18.546503 -2.0200958
23.601969 -31.849705 -2.0775285
4.532557 -6.1388326 -2.0446706
5.1947803 -7.0408821 -2.0200605
6.1435046 -8.3298025 -2.0118902
7.4793749 -10.148485 -1.9967299
9.9528427 -13.514516 -2.0608108
13.763362 -18.695482 -2.0310774
23.587696 -32.06382 -2.0861113
4.5122418 -6.1561742 -2.0451882
5.1713233 -7.0605435 -2.0205104
6.1097512 -8.3448591 -2.0103636
7.4952264 -10.244678 -2.0104959
9.8575735 -13.483472 -2.0508175
13.733287 -18.79167 -2.0363066
23.527456 -32.216927 -2.0907171
4.4861789 -6.1656394 -2.0431178
5.1523762 -7.0864339 -2.0227599
6.0782766 -8.3629599 -2.0096004
7.498888 -10.325122 -2.0211337
9.8839016 -13.619013 -2.0661731
13.68516 -18.863684 -2.0389214
23.501606 -32.418518 -2.0984626
4.4589739 -6.1734309 -2.0405295
5.1311293 -7.1066399 -2.0236597
6.0536423 -8.3904953 -2.011127
7.47154 -10.359544 -2.0230107
9.8502922 -13.66782 -2.0686104
13.612243 -18.901638 -2.0378757
23.454651 -32.580563 -2.1039057
4.4429817 -6.1944628 -2.0425999
5.0938029 -7.1070838 -2.0187106
6.0234985 -8.4073305 -2.0103636
7.4422317 -10.395199 -2.0248878
9.8071423 -13.708578 -2.0695853
13.599322 -19.016361 -2.0453708
23.410454 -32.759735 -2.1101861
4.4258137 -6.2162294 -2.0446706
5.0712237 -7.1279984 -2.0196106
5.9941144 -8.4283056 -2.0103636
38.435833 -54.064484 5.8035269
7.3967462 -10.408233 -2.0223849
37.726723 -53.106289 7.9985294
9.7948608 -13.792902 -2.0771413
13.574379 -19.122202 -2.0516462
23.388405 -32.971577 -2.1185598
4.4052024 -6.2332177 -2.0451882
5.0485597 -7.14884 -2.0205104
5.9623933 -8.4459705 -2.0096004
7.3763113 -10.456587 -2.0267651
37.515953 -53.201962 7.9931674
9.7363615 -13.812406 -2.0749476
13.591324 -19.288363 -2.0643709
23.358259 -33.173862 -2.1263053
4.3800902 -6.2438121 -2.0436354
40.045334 -57.105766 1.217445
5.0258121 -7.1696105 -2.02141
5.9272408 -8.4586916 -2.0076923
7.3454309 -10.490362 -2.0283296
37.448399 -53.501728 8.0185165
13.554745 -19.37977 -2.0690773
23.384192 -33.458191 -2.1392848
4.3593721 -6.2606487 -2.044153
5.0007548 -7.1871099 -2.02141
5.9044046 -8.4890003 -2.0099821
7.3110223 -10.519182 -2.0289552
8.7349491 -12.577309 -1.8802004
13.48815 -19.428602 -2.0692515
23.367439 -33.684025 -2.1484959
4.3341966 -6.27106 -2.0425999
4.9778519 -7.2077293 -2.02231
5.8736224 -8.5079441 -2.0096004
7.2787461 -10.551143 -2.0302067
36.37077 -52.742119 7.8664231
8.727046 -12.660024 -1.888
13.455296 -19.526426 -2.0746553
23.351664 -33.913437 -2.1579163
4.3155584 -6.2909303 -2.044153
4.9482541 -7.2186313 -2.0205104
5.846107 -8.5316343 -2.0103636
7.2586122 -10.600935 -2.0348997
36.208866 -52.901524 7.8712978
9.6019716 -14.033831 -2.0878656
13.441043 -19.652212 -2.0830224
23.330057 -34.136551 -2.1669183
4.2935729 -6.3059559 -2.044153
4.9241223 -7.2374721 -2.0209603
5.8129778 -8.5471182 -2.0092189
7.2149019 -10.616405 -2.0330224
36.001678 -52.994747 7.8664231
9.5216999 -14.021281 -2.0810411
13.365648 -19.689119 -2.0819762
23.307177 -34.359924 -2.1759198
4.2726169 -6.3225055 -2.0446706
4.9010105 -7.2578464 -2.0218601
5.7798123 -8.5624752 -2.0080738
34.653954 -51.357258 5.4203897
7.1855311 -10.652988 -2.0352125
9.4971075 -14.090647 -2.0864034
13.30463 -19.747221 -2.0831964
23.254023 -34.540485 -2.1822002
4.2483687 -6.3341727 -2.0436354
4.8799858 -7.2813845 -2.0236597
5.7542601 -8.5891228 -2.0096004
34.514385 -51.537514 5.4266653
7.152698 -10.684572 -2.0364642
36.039314 -53.855206 7.9566064
9.5449915 -14.268909 -2.1078525
13.244479 -19.806793 -2.0845909
23.21986 -34.750977 -2.1903646
4.2273026 -6.3505716 -2.044153
4.8545389 -7.2983747 -2.0236597
5.7220693 -8.6058874 -2.0088372
7.1022406 -10.689731 -2.0327096
35.884052 -54.030293 7.9639182
9.4457159 -14.227717 -2.0968843
13.229242 -19.934248 -2.0931323
23.235291 -35.038219 -2.2033441
4.2104335 -6.3733482 -2.046741
4.8204446 -7.3022652 -2.0200605
5.699563 -8.6372786 -2.0115087
7.0659704 -10.716106 -2.0330224
13.176019 -20.005264 -2.095747
23.196289 -35.245907 -2.2112992
4.1871014 -6.3863907 -2.0462234
4.7959929 -7.3206773 -2.0205104
5.6672273 -8.6538363 -2.0107453
7.0317655 -10.745665 -2.0339613
9.4298115 -14.421245 -2.1156518
13.139899 -20.102835 -2.1011508
23.14957 -35.443714 -2.218626
4.1626768 -6.3977294 -2.0451882
4.7735977 -7.3422751 -2.0218601
5.6327062 -8.6669817 -2.0092189
6.9920611 -10.766831 -2.0333354
9.4096699 -14.500699 -2.1224766
13.157471 -20.283974 -2.1152697
23.171274 -35.748894 -2.2326522
4.1340308 -6.402483 -2.0420823
4.750052 -7.3621688 -2.0227599
5.6045465 -8.6898899 -2.0099821
6.9555073 -10.792832 -2.0336483
9.4116592 -14.615236 -2.1344197
13.107078 -20.361607 -2.1185818
23.152231 -35.994171 -2.2429099
4.1106148 -6.4152479 -2.0415647
4.7253752 -7.3803453 -2.0232098
5.5773549 -8.7143621 -2.011127
6.914598 -10.812053 -2.0327096
9.4343414 -14.763418 -2.1512377
13.075606 -20.469362 -2.1250312
23.131758 -36.239754 -2.2531679
4.0955396 -6.4386244 -2.0446706
4.6935573 -7.3844619 -2.0200605
5.5473723 -8.7311516 -2.0107453
6.8829403 -10.841594 -2.0339613
9.3566208 -14.749365 -2.1446569
13.037531 -20.559723 -2.1299121
23.10125 -36.457981 -2.2619603
4.0761337 -6.4577818 -2.0462234
4.6687913 -7.4024491 -2.0205104
5.5116267 -8.7421589 -2.0088372
6.8450537 -10.865555 -2.0339613
9.3156528 -14.798732 -2.1470942
12.858515 -20.43479 -2.1123066
23.065273 -36.683807 -2.270962
4.0504904 -6.4670596 -2.0446706
4.6491265 -7.4286127 -2.0232098
5.4789948 -8.7580156 -2.0080738
6.7987075 -10.875982 -2.0314584
9.2281837 -14.773917 -2.1388073
12.763889 -20.442368 -2.1084716
23.047035 -36.940323 -2.281848
4.0217733 -6.471314 -2.0415647
4.6211119 -7.4414845 -2.02231
5.4514966 -8.7820921 -2.0092189
6.7679896 -10.911398 -2.0336483
9.1849222 -14.819538 -2.1407571
12.694552 -20.490183 -2.1088202
23.046204 -37.227726 -2.2946179
4.0022011 -6.4902468 -2.0431178
4.5940857 -7.4559116 -2.0218601
5.4269853 -8.8110971 -2.0115087
6.7277913 -10.931591 -2.0330224
9.0884228 -14.778801 -2.1302764
12.728333 -20.705803 -2.1264257
23.020651 -37.478134 -2.3050852
3.9855716 -6.5140638 -2.0462234
4.5639653 -7.4652514 -2.0200605
33.633675 -55.035984 3.3802752
5.3921003 -8.8232861 -2.0099821
6.6957684 -10.965125 -2.0348997
9.0398817 -14.815516 -2.1310074
12.61967 -20.690573 -2.1203249
23.00194 -37.742455 -2.3163896
3.9598014 -6.5229826 -2.0446706
4.537879 -7.4811373 -2.0200605
5.3653402 -8.8487701 -2.0115087
6.2899823 -10.381905 -1.9225799
6.2597065 -10.340075 -1.484125
12.722728 -21.024277 -2.1499579
23.008533 -38.051537 -2.3304157
3.9340179 -6.5318007 -2.0431178
4.5160613 -7.501152 -2.02141
5.326324 -8.8539858 -2.0084558
6.2127633 -10.331605 -1.9094393
12.720024 -21.186422 -2.1619854
23.009668 -38.339977 -2.343395
3.9103529 -6.5414934 -2.0420823
4.4978447 -7.5302553 -2.0250094
5.3039789 -8.8834 -2.011127
6.1543961 -10.315907 -1.9025562
35.862812 -60.136551 8.5971518
12.653131 -21.242678 -2.1632056
22.994225 -38.619133 -2.3555369
3.8883212 -6.5591063 -2.0431178
4.4635839 -7.5324979 -2.02141
35.108978 -59.271553 3.6103439
5.2703829 -8.9010906 -2.0107453
32.366268 -54.684788 5.5594902
6.0893884 -10.292492 -1.8941088
6.09126 -10.299756 -1.469257
6.1222062 -10.360335 -1.0528414
22.998755 -38.950806 -2.3706098
3.8654027 -6.5726385 -2.0431178
4.4339709 -7.5454469 -2.0205104
5.2372913 -8.916048 -2.0099821
6.045424 -10.300056 -1.8916059
6.0414181 -10.301465 -1.4663321
6.080966 -10.373048 -1.0519698
22.991865 -39.251438 -2.3840077
3.8424361 -6.5860915 -2.0431178
32.116745 -55.071499 1.1128004
4.4115319 -7.5676122 -2.02231
5.2120671 -8.9444532 -2.0122719
5.9985003 -10.302318 -1.8881643
6.0014286 -10.315627 -1.4653571
6.0547357 -10.411434 -1.0537128
22.987167 -39.559406 -2.3978243
3.8203902 -6.6011362 -2.0436354
4.3860645 -7.5846529 -2.0227599
5.170989 -8.9455948 -2.0084558
5.9615145 -10.321483 -1.8878514
5.9633985 -10.333075 -1.4648696
22.988575 -39.881657 -2.4124784
3.7934771 -6.6077294 -2.0415647
4.3595624 -7.5999169 -2.0227599
5.1397314 -8.9635906 -2.0084558
5.9244671 -10.340517 -1.8875386
5.9272943 -10.353827 -1.4648696
5.9987268 -10.482848 -1.0566761
22.984053 -40.197464 -2.4267139
3.7703886 -6.6209311 -2.0415647
4.3310804 -7.6117001 -2.0218601
5.1181173 -8.9985418 -2.0122719
5.8873591 -10.359415 -1.8872255
34.388809 -60.535248 8.5484037
5.8969979 -10.384812 -1.4663321
5.9040704 -10.401495 -1.0463918
22.967749 -40.496342 -2.4399025
3.7482049 -6.6357336 -2.0420823
4.3038988 -7.6226273 -2.0209603
5.0847459 -9.0129328 -2.0115087
34.880062 -61.851646 6.2124615
5.863647 -10.39781 -1.8906672
5.8703237 -10.418146 -1.468282
5.8735909 -10.432457 -1.0474377
22.974386 -40.822926 -2.4549751
3.7252347 -6.6464415 -2.0415647
4.2753601 -7.6342034 -2.0200605
5.0548306 -9.0297451 -2.0115087
5.8379245 -10.437178 -1.8941088
33.588463 -60.074848 8.4509087
5.843606 -10.455902 -1.4707193
5.8478241 -10.472031 -1.0493551
22.952454 -41.119122 -2.4679546
32.930439 -59.018795 15.603054
3.6989722 -6.6566734 -2.0405295
4.2505779 -7.6524882 -2.0209603
5.0217013 -9.0482111 -2.0115087
5.8120852 -10.480963 -1.8981761
33.378559 -60.191727 8.4509087
5.8378687 -10.531796 -1.4785191
5.8131642 -10.495866 -1.0497037
22.933113 -41.440636 -2.4821899
32.713902 -59.139095 15.603054
3.6738489 -6.6661615 -2.0394943
4.2225013 -7.668016 -2.0209603
4.987246 -9.0605249 -2.0103636
5.7983103 -10.542727 -1.9056848
5.812614 -10.577477 -1.4819313
12.138116 -22.097416 -2.2057374
22.944 -41.804077 -2.4991469
3.6487038 -6.6755543 -2.0384588
4.197578 -7.6861291 -2.0218601
4.9565287 -9.0796022 -2.0107453
12.042798 -22.106409 -2.2024255
22.910608 -42.090912 -2.5114982
3.6299832 -6.6967411 -2.0410471
4.1651545 -7.6904535 -2.0191607
4.9248042 -9.0968475 -2.0107453
6.1164804 -11.307476 -2.0361512
11.924836 -22.072937 -2.1949303
3.6093292 -6.7144771 -2.0425999
4.1433182 -7.7110896 -2.0209603
4.8948789 -9.1174431 -2.0115087
6.0677419 -11.30681 -2.0323968
8.5016088 -15.855436 -2.2090039
11.904167 -22.219801 -2.2053888
3.5861337 -6.7247043 -2.0420823
4.1182089 -7.7289453 -2.0218601
4.8553877 -9.1162968 -2.0076923
6.0152445 -11.303509 -2.0280166
8.4704437 -15.930586 -2.2153411
11.806108 -22.213409 -2.2008567
3.5599296 -6.7320576 -2.0405295
4.0934663 -7.7442818 -2.02231
4.8299541 -9.1453419 -2.0103636
5.9565167 -11.283215 -2.0208206
8.4333134 -15.988437 -2.2194848
11.800952 -22.391968 -2.214453
3.5390997 -6.7495756 -2.0420823
4.0623422 -7.7540545 -2.0209603
4.8016458 -9.1691027 -2.0118902
5.9059649 -11.287468 -2.0176921
8.3755751 -16.020998 -2.2197285
11.676579 -22.344734 -2.2057374
3.5146267 -6.7601743 -2.0415647
4.0316577 -7.761271 -2.0191607
4.7687054 -9.1840649 -2.0115087
5.8674374 -11.309769 -2.0180049
8.3671064 -16.141781 -2.2324028
11.727753 -22.63479 -2.2303154
3.4945483 -6.7792706 -2.0436354
30.11632 -58.449387 1.1477051
4.0072174 -7.7804933 -2.0205104
4.7321243 -9.1919279 -2.0096004
5.8234048 -11.321397 -2.0164404
8.3116169 -16.172655 -2.2326467
11.669609 -22.716352 -2.2343247
3.4726212 -6.7948685 -2.0446706
29.912107 -58.554157 1.1477051
3.9791486 -7.7926979 -2.0200605
4.7017946 -9.2118874 -2.0103636
5.7847476 -11.343415 -2.0167532
8.2758398 -16.24225 -2.2382526
11.592052 -22.7605 -2.2346733
3.4445162 -6.7983313 -2.0420823
3.9563234 -7.8152337 -2.02231
30.203671 -59.689533 3.5058815
4.6678376 -9.224741 -2.0096004
5.7567029 -11.386457 -2.0208206
8.2638445 -16.359632 -2.2504396
11.478406 -22.733238 -2.2280493
3.4233661 -6.8154931 -2.0436354
3.9246483 -7.8202877 -2.0200605
4.6391311 -9.2479973 -2.011127
5.7124972 -11.397653 -2.0192564
8.2200232 -16.415001 -2.2540956
11.384713 -22.744661 -2.2252605
3.4047208 -6.8377771 -2.046741
3.8938541 -7.8269606 -2.0182607
4.605072 -9.2606182 -2.0103636
5.6849818 -11.442289 -2.0236366
8.1291323 -16.376028 -2.2448335
11.360158 -22.894918 -2.2360678
3.3748465 -6.8374944 -2.0431178
3.8673706 -7.8422523 -2.0187106
4.5727181 -9.2766371 -2.0103636
5.64326 -11.45852 -2.0230107
8.1078539 -16.477333 -2.2548268
11.329412 -23.034552 -2.2458291
3.3492608 -6.8457618 -2.0420823
3.8416855 -7.8592062 -2.0196106
4.5377231 -9.2872505 -2.0092189
5.5893626 -11.449747 -2.0180049
8.0128679 -16.428814 -2.2443459
11.261161 -23.099031 -2.2482696
3.3211296 -6.8487201 -2.0394943
3.8181517 -7.8771634 -2.0209603
4.5087004 -9.3101006 -2.0107453
5.524683 -11.413099 -2.0083058
28.249863 -58.385635 7.9639182
7.9937811 -16.528564 -2.2543392
11.2108 -23.200989 -2.2543705
3.3000741 -6.8631778 -2.0405295
3.7897878 -7.8886862 -2.0205104
4.4778018 -9.3250008 -2.0107453
5.4540496 -11.368199 -1.9970427
7.9712172 -16.629761 -2.2643328
11.141548 -23.254208 -2.2559392
3.2752666 -6.872911 -2.0400119
3.7597151 -7.8965898 -2.0191607
4.4477563 -9.3458929 -2.0118902
5.3888865 -11.333649 -1.9876565
7.903749 -16.63776 -2.2616515
11.096203 -23.368547 -2.2632601
3.2520797 -6.8860493 -2.0405295
3.7337916 -7.9131894 -2.0200605
4.4125919 -9.3560343 -2.0107453
5.3391881 -11.330946 -1.9839021
7.8481598 -16.670635 -2.2623827
11.041713 -23.464827 -2.2688382
3.2255671 -6.8921099 -2.0389764
3.7069716 -7.9279394 -2.0205104
4.3782444 -9.3678226 -2.0099821
5.2904081 -11.329826 -1.9804606
7.8041883 -16.728514 -2.2665262
10.948788 -23.479752 -2.2665722
3.2014902 -6.9033265 -2.0389764
3.6784561 -7.9390631 -2.0200605
4.347168 -9.3866119 -2.0107453
5.2425337 -11.330297 -1.9773319
7.7265902 -16.714207 -2.26092
10.869271 -23.523252 -2.2670951
3.1757593 -6.9109502 -2.0379412
3.652348 -7.9553971 -2.0209603
4.3143759 -9.4017286 -2.0107453
5.2021289 -11.346731 -1.977019
7.7194529 -16.852974 -2.276032
10.797873 -23.584604 -2.2693613
3.1532178 -6.9255095 -2.0389764
3.6221344 -7.9627771 -2.0196106
4.2839704 -9.4220934 -2.0118902
5.1731091 -11.388203 -1.9810863
7.5629544 -16.664709 -2.2470272
10.719598 -23.631222 -2.2702327
3.1306129 -6.9399958 -2.0400119
3.5927162 -7.971817 -2.0187106
27.637949 -61.353981 3.5266063
4.2494411 -9.4334106 -2.011127
5.1471086 -11.436814 -1.9864051
26.064631 -57.942337 7.8011007
7.5047374 -16.691008 -2.2470272
10.664816 -23.730284 -2.2761593
3.1079445 -6.9544091 -2.0410471
3.5751967 -8.0074425 -2.0245595
4.2140865 -9.4428062 -2.0099821
5.0934787 -11.424041 -1.9810863
25.836363 -57.974941 7.7933011
7.5748582 -17.005419 -2.2857816
10.656467 -23.93482 -2.292196
3.0797408 -6.9563828 -2.0384588
3.5472226 -8.0198746 -2.0245595
4.1834812 -9.4628477 -2.011127
5.0352149 -11.40019 -1.9738904
25.714005 -58.246372 7.8176751
7.5250683 -17.053551 -2.2887065
10.625117 -24.090363 -2.3035262
3.0531111 -6.9617834 -2.036906
3.5184247 -8.0304213 -2.0241096
4.1512113 -9.4791908 -2.0115087
4.9827228 -11.38874 -1.9688843
7.4026861 -16.93602 -2.2694511
10.52102 -24.081661 -2.2991683
3.0326405 -6.9812579 -2.0394943
3.4880438 -8.0372925 -2.0227599
4.1196604 -9.4972248 -2.0122719
26.149389 -60.312103 5.7512336
4.937438 -11.393376 -1.9666944
25.267292 -58.333397 7.8054886
7.3395815 -16.952648 -2.2682326
10.453511 -24.156639 -2.302829
3.0128338 -7.0024486 -2.0425999
3.459198 -8.0476284 -2.02231
4.0857091 -9.5097437 -2.0118902
4.8968592 -11.408726 -1.9663814
7.235765 -16.874172 -2.2543392
10.354215 -24.158186 -2.2995169
2.9838281 -7.0022597 -2.0394943
3.4402461 -8.0811701 -2.027709
4.048645 -9.5149145 -2.0099821
4.8523688 -11.414843 -1.9645042
7.1845803 -16.917599 -2.2567768
10.281497 -24.221693 -2.3021317
2.9590883 -7.0085564 -2.0384588
3.4103992 -8.085351 -2.0259092
4.0178323 -9.530098 -2.0103636
25.294842 -60.027363 5.6989393
4.8129568 -11.42723 -1.9638785
24.857832 -59.047882 7.8664231
7.1322894 -16.95048 -2.2579956
10.147829 -24.128929 -2.2901042
2.936842 -7.0241895 -2.0400119
3.3791494 -8.0900145 -2.0241096
3.9852989 -9.5458755 -2.0107453
4.7783599 -11.456723 -1.9660686
24.68976 -59.225899 7.8786101
7.0570426 -16.93679 -2.2528768
10.094176 -24.237778 -2.2970767
2.9100881 -7.0290437 -2.0384588
3.3486564 -8.0963583 -2.0227599
3.9542034 -9.5651731 -2.0118902
4.752667 -11.508022 -1.9720131
24.558607 -59.495216 7.9029832
7.0713177 -17.13932 -2.2765195
9.9928017 -24.232344 -2.293242
2.8884652 -7.0463085 -2.0405295
3.3196363 -8.1061945 -2.02231
3.9200466 -9.5770998 -2.0115087
4.6900363 -11.46969 -1.9626271
7.0347204 -17.220869 -2.2840755
9.946559 -24.361151 -2.3021317
2.8616724 -7.0509782 -2.0389764
3.2920516 -8.1195393 -2.0227599
3.8829064 -9.5816269 -2.0096004
24.304668 -60.005352 5.6640778
4.6143909 -11.398102 -1.9476093
6.9730759 -17.241638 -2.2835879
9.904026 -24.501009 -2.3120675
2.8370423 -7.0609245 -2.0389764
3.2622378 -8.1273642 -2.0218601
3.8508973 -9.5987673 -2.0103636
4.553266 -11.360965 -1.938536
6.9371982 -17.326689 -2.2916312
9.8043795 -24.500286 -2.3087556
2.8116636 -7.0689898 -2.0384588
3.2324076 -8.1350794 -2.0209603
3.8217163 -9.6230974 -2.0126534
4.4990101 -11.340068 -1.9322786
6.8832579 -17.367407 -2.2938249
9.7327366 -24.569557 -2.3120675
2.7890942 -7.0841541 -2.0400119
3.2025654 -8.1426859 -2.0200605
3.7866659 -9.6327257 -2.0118902
4.4803391 -11.409025 -1.941352
6.8399897 -17.435682 -2.2996747
9.6614609 -24.640476 -2.3155537
2.7657514 -7.0974464 -2.0410471
3.1741233 -8.1538153 -2.0200605
3.7508819 -9.6403961 -2.0107453
4.4476433 -11.443007 -1.9444805
6.7654352 -17.42429 -2.2950437
9.6359386 -24.830076 -2.3301959
2.7409604 -7.1070571 -2.0410471
25.086123 -65.079826 1.217445
3.1470418 -8.1684828 -2.0209603
3.7157977 -9.649765 -2.0099821
4.3963246 -11.428963 -1.9394747
6.6518831 -17.310678 -2.2770069
9.5777798 -24.937958 -2.3371685
2.7099357 -7.100338 -2.0363884
3.1205928 -8.1848812 -2.02231
3.6806929 -9.659008 -2.0092189
4.3634319 -11.4627 -1.9426033
9.4736853 -24.92654 -2.3329849
2.6905944 -7.1242118 -2.0405295
3.0913687 -8.1897144 -2.0209603
3.6504176 -9.6809835 -2.011127
4.3212161 -11.466016 -1.9407262
24.261223 -64.409355 8.4509087
6.5457888 -17.387138 -2.2811506
9.3908224 -24.970648 -2.3340306
2.6642485 -7.1258578 -2.0384588
3.0566268 -8.1840248 -2.0169113
3.6189802 -9.6948748 -2.0115087
4.3011823 -11.534706 -1.9497994
6.0568304 -16.26026 -2.1305199
9.3357697 -25.07634 -2.3410032
2.6427102 -7.1441727 -2.0410471
3.0341184 -8.2110968 -2.0209603
3.587158 -9.7129717 -2.0126534
4.2314911 -11.469958 -1.9363459
6.0473976 -16.409826 -2.1473379
9.2688417 -25.164864 -2.3462327
2.6170921 -7.1515403 -2.0405295
3.0014241 -8.2106552 -2.0182607
3.5464942 -9.706995 -2.0088372
3.8108203 -10.44178 -1.7605137
9.2109575 -25.27943 -2.3539023
2.5881672 -7.1497331 -2.0374236
2.9773848 -8.2339106 -2.02141
3.5165925 -9.7303944 -2.011127
9.1240072 -25.315176 -2.3542509
2.5664511 -7.1678176 -2.0400119
2.9479678 -8.2424192 -2.0209603
3.4826052 -9.74261 -2.011127
9.0409393 -25.361885 -2.3556454
2.5426672 -7.1762891 -2.0400119
2.9134662 -8.2319422 -2.0160115
3.4542067 -9.7652082 -2.0134165
9.0363188 -25.617199 -2.3765628
2.5214121 -7.1919737 -2.0420823
2.8874409 -8.2452354 -2.0169113
3.4188011 -9.7735004 -2.0126534
3.6187763 -10.350972 -1.7367356
3.6074181 -10.330061 -1.3434877
9.0229673 -25.866806 -2.3967829
2.4912403 -7.1902146 -2.0389764
2.8597503 -8.2631292 -2.0187106
3.3765433 -9.7674112 -2.0088372
3.5801685 -10.362299 -1.7364228
3.5669434 -10.335708 -1.3425128
8.86057 -25.703806 -2.3786545
2.4617414 -7.1901593 -2.0363884
2.8307076 -8.2772436 -2.0196106
3.3411579 -9.7754221 -2.0080738
3.5370591 -10.360396 -1.7339199
3.5271146 -10.343075 -1.3417815
8.8312073 -25.911852 -2.3950398
2.440345 -7.2096872 -2.0394943
2.7974269 -8.2741518 -2.0164614
3.3095286 -9.794466 -2.0096004
3.4970825 -10.36145 -1.7320426
3.4928927 -10.360968 -1.3425128
8.7228937 -25.889652 -2.3901591
2.4145503 -7.2163296 -2.0389764
2.7716167 -8.293107 -2.0187106
3.2765641 -9.8096828 -2.0103636
3.4652698 -10.38671 -1.7342327
3.4567032 -10.373097 -1.3425128
8.6450586 -25.95775 -2.3936453
2.3923788 -7.2338843 -2.0415647
2.7414289 -8.2990313 -2.0178108
3.2386088 -9.8098736 -2.0080738
3.4314668 -10.406248 -1.7354842
3.4229581 -10.39264 -1.3434877
8.53197 -25.91964 -2.3873701
2.3665125 -7.240355 -2.0410471
2.7172811 -8.32337 -2.02141
3.2019103 -9.8136539 -2.0065475
3.4049137 -10.448213 -1.7404901
3.3933938 -10.419035 -1.3454378
8.4217215 -25.888634 -2.3817921
2.3383317 -7.2352953 -2.0374236
2.6884673 -8.3286257 -2.0205104
3.1705556 -9.8279543 -2.0073106
3.3793347 -10.487649 -1.745183
3.3746448 -10.47936 -1.3517749
8.4017096 -26.121262 -2.4006176
2.3143256 -7.24301 -2.0374236
2.6602421 -8.335639 -2.0200605
3.1391404 -9.8421545 -2.0080738
3.349334 -10.513856 -1.7476861
3.3561003 -10.547824 -1.359087
8.450285 -26.574289 -2.4396634
2.2936819 -7.2657819 -2.0415647
2.6293707 -8.3392973 -2.0187106
3.1071246 -9.8605433 -2.0096004
3.3315909 -10.585778 -1.7576978
8.3216457 -26.489576 -2.4292049
2.2671542 -7.2700558 -2.0405295
2.599087 -8.3447046 -2.0178108
3.0715196 -9.8675804 -2.0088372
3.2670767 -10.521706 -1.3527498
8.2551899 -26.618855 -2.4382691
15.295016 -49.349213 -2.7076533
2.2410619 -7.2801623 -2.0410471
20.263672 -65.827194 1.2022264
2.5739527 -8.366765 -2.0209603
20.47957 -66.611229 3.6522129
3.034179 -9.8750181 -2.0080738
3.5791306 -11.663106 -1.9322786
5.3058877 -17.300764 -2.2219219
8.1762257 -26.69323 -2.4424527
14.306571 -46.76548 -2.5629969
2.2111404 -7.2731547 -2.036906
2.5421371 -8.3724127 -2.0200605
20.246922 -66.682312 3.6522129
2.9985511 -9.8817911 -2.0073106
3.5939689 -11.858904 -1.9626271
5.1625075 -17.055998 -2.1880424
8.0518484 -26.618628 -2.4330397
2.1879604 -7.2882295 -2.0389764
2.5132401 -8.3770647 -2.0191607
2.9662929 -9.8997211 -2.0088372
3.5812562 -11.959699 -1.9773319
5.0820303 -16.993149 -2.1778054
7.9816923 -26.722933 -2.4400122
14.663153 -49.123909 -2.6867189
2.1659775 -7.3028531 -2.0410471
19.366375 -65.337914 1.1895212
2.4828756 -8.3820486 -2.0182607
2.934562 -9.9132681 -2.0096004
3.4633222 -11.714499 -1.9347818
5.0204334 -17.00317 -2.1768305
7.8580718 -26.630777 -2.4292049
14.42609 -48.952564 -2.674577
2.1399288 -7.3085155 -2.0405295
2.4539726 -8.3864956 -2.0173612
2.8966358 -9.9121447 -2.0073106
3.3995366 -11.640591 -1.9207026
5.0257158 -17.231255 -2.2038856
7.7071128 -26.459103 -2.4110765
14.239122 -48.915756 -2.6699715
2.1124613 -7.3044372 -2.0374236
2.4279275 -8.4062433 -2.0200605
2.8620193 -9.9221954 -2.0073106
3.3763921 -11.713126 -1.9307145
4.9754238 -17.28303 -2.2082727
7.6675582 -26.669668 -2.4278102
14.079582 -49.036724 -2.6737394
2.0872645 -7.3177037 -2.0389764
2.3971007 -8.4150858 -2.0200605
2.825633 -9.9326181 -2.0073106
3.3469429 -11.772923 -1.938536
4.9386086 -17.394722 -2.2202158
7.6164975 -26.862438 -2.4428012
13.893233 -49.064938 -2.6724834
2.0609531 -7.3271646 -2.0394943
2.3657148 -8.4219389 -2.0196106
2.7941282 -9.953763 -2.0096004
3.2579143 -11.621536 -1.9116293
4.8542995 -17.327749 -2.2094915
7.6064262 -27.188181 -2.4699938
13.664906 -48.909237 -2.6613882
2.0381949 -7.3395424 -2.0410471
18.01672 -64.922173 1.1760478
2.3367312 -8.4259815 -2.0187106
18.836901 -67.923676 3.6940813
2.760056 -9.9591904 -2.0088372
3.243068 -11.717947 -1.9257084
4.7005043 -16.995535 -2.1651309
7.4780326 -27.074978 -2.4574432
2.013845 -7.346261 -2.0410471
17.820349 -65.050987 1.1773044
2.3092926 -8.435565 -2.0191607
18.633425 -68.112312 3.7007806
2.725461 -9.9626055 -2.0076923
3.2286587 -11.818197 -1.9404132
4.6876497 -17.182283 -2.1868236
7.4049773 -27.161142 -2.4630213
13.939403 -51.199551 -2.7809236
1.9861732 -7.3457866 -2.0389764
17.640112 -65.286537 1.1804458
2.2798326 -8.4435749 -2.0191607
2.6886215 -9.9644775 -2.006166
3.1606629 -11.730213 -1.9241441
4.7158456 -17.526335 -2.228503
7.2987428 -27.144493 -2.4591863
13.155643 -48.994904 -2.6586668
1.9600207 -7.3508086 -2.0384588
2.2513485 -8.4552469 -2.0200605
2.655338 -9.9794931 -2.0073106
3.1283207 -11.77363 -1.9294629
4.6576924 -17.554201 -2.2299654
7.2507429 -27.365582 -2.4767919
12.993746 -49.075275 -2.6605508
1.9350296 -7.3654165 -2.0405295
2.2198396 -8.455514 -2.0182607
2.6192412 -9.9910574 -2.0076923
3.0931513 -11.815592 -1.9344687
4.6064363 -17.608763 -2.2348402
7.184885 -27.504459 -2.4870763
12.706914 -48.712864 -2.6383605
1.9088234 -7.3702564 -2.0400119
2.1873698 -8.4579334 -2.0169113
2.5853336 -10.003942 -2.0084558
3.0923626 -11.98316 -1.9601241
4.5626717 -17.706263 -2.2450771
7.1345406 -27.706881 -2.5031128
12.510926 -48.656342 -2.6329176
1.8830844 -7.3768744 -2.0400119
17.091055 -67.002014 1.2069736
2.1583152 -8.4674063 -2.0173612
2.5503972 -10.012905 -2.0084558
2.9964685 -11.78138 -1.9253956
4.4387784 -17.477734 -2.2141225
6.9887743 -27.538498 -2.4856818
12.317463 -48.606785 -2.6278932
1.8582652 -7.3871493 -2.0410471
2.1311188 -8.4843388 -2.0196106
2.5149515 -10.019842 -2.0080738
3.0662577 -12.23439 -1.9976684
4.3411183 -17.346767 -2.1955984
6.8945341 -27.570461 -2.4863789
12.045145 -48.238678 -2.6057029
1.8306087 -7.3860903 -2.0389764
2.1010215 -8.4898348 -2.0191607
2.4785464 -10.022842 -2.0069292
2.999856 -12.14913 -1.982025
4.2805376 -17.361814 -2.1955984
6.8039751 -27.617573 -2.4884708
11.838512 -48.125275 -2.5973291
1.8066487 -7.3999419 -2.0410471
2.0727589 -8.5027952 -2.0205104
2.4430814 -10.029526 -2.0065475
2.919615 -12.004055 -1.9566824
4.2611341 -17.546406 -2.2170475
6.7197456 -27.691494 -2.4930029
11.654466 -48.100304 -2.5937703
1.7817101 -7.4099603 -2.0420823
2.0394263 -8.4948206 -2.0169113
2.4117205 -10.053266 -2.0096004
2.9927289 -12.494432 -2.0348997
4.2127895 -17.615229 -2.2238719
6.6471233 -27.815552 -2.5020671
11.491127 -48.160126 -2.5948169
1.7606517 -7.4249196 -2.0446706
2.0154226 -8.5125637 -2.0196106
2.3765104 -10.045508 -2.0065475
2.9262168 -12.388424 -2.0161276
4.1205196 -17.471878 -2.204129
6.5466261 -27.80253 -2.4989293
11.344348 -48.215427 -2.5958636
1.730354 -7.4181533 -2.0410471
1.9856967 -8.5195465 -2.0196106
2.3378944 -10.046502 -2.0050211
2.9170022 -12.55492 -2.0414701
4.0541191 -17.462952 -2.2012043
6.4864297 -27.984367 -2.5132229
11.162145 -48.233334 -2.5946076
1.7001263 -7.4053197 -2.0358706
1.956199 -8.5343647 -2.02141
2.3063173 -10.069911 -2.0080738
2.8154776 -12.312763 -2.0004842
4.0046663 -17.541557 -2.2092476
6.4445376 -28.251595 -2.5351863
7.947691 -34.897301 -1.8757207
7.8525262 -34.53511 -0.61819911
1.6793747 -7.4338212 -2.0420823
1.9259665 -8.5392408 -2.0209603
2.2737434 -10.089393 -2.0103636
2.6974649 -11.98911 -1.9463578
3.9229648 -17.464399 -2.1977918
6.3842773 -28.444992 -2.5505257
7.6756034 -34.254395 -1.8397137
7.7100992 -34.464741 -0.61645395
1.65132 -7.4302092 -2.0394943
1.8936154 -8.5344963 -2.0182607
2.2406354 -10.106852 -2.0122719
2.682493 -12.119961 -1.9660686
3.8474138 -17.412083 -2.1895049
6.2557411 -28.334808 -2.5386724
7.5379252 -34.199062 -1.8353175
7.5940461 -34.482304 -0.61631429
1.6266109 -7.4415898 -2.0410471
1.8636401 -8.5331144 -2.0164614
2.2070148 -10.122284 -2.0137982
2.6826525 -12.314079 -1.996104
3.8381686 -17.647818 -2.2175348
6.1381946 -28.270802 -2.5310028
7.4160104 -34.184834 -1.8332239
7.4880228 -34.57505 -0.61750102
1.6019244 -7.4469433 -2.0410471
1.8362985 -8.5509996 -2.0191607
2.1672575 -10.100754 -2.0080738
2.6135876 -12.201681 -1.9763933
3.8927691 -18.204645 -2.2857816
6.0169392 -28.162407 -2.5194981
7.4207892 -34.792603 -1.8644162
7.3610454 -34.571644 -0.61697745
1.574322 -7.4449291 -2.0389764
1.8088523 -8.5687971 -2.0218601
2.1376591 -10.13515 -2.0134165
2.6015027 -12.355704 -1.9998584
3.7610116 -17.8937 -2.2450771
5.9677305 -28.417221 -2.5404155
7.2910981 -34.779202 -1.8623229
7.2255764 -34.526665 -0.61572093
1.5487186 -7.452271 -2.0394943
1.7761602 -8.5617018 -2.0187106
2.1030645 -10.146395 -2.0141799
2.5739679 -12.440152 -2.0120604
3.716193 -17.992258 -2.2558017
5.9079642 -28.629107 -2.5574982
7.4106264 -35.974236 -1.9249167
7.1130662 -34.590851 -0.61641902
1.5246271 -7.4670954 -2.0420823
1.7443186 -8.5583019 -2.0164614
2.0715516 -10.172912 -2.0179961
2.5183308 -12.38905 -2.0023613
3.6632361 -18.053757 -2.2618952
5.8261986 -28.739376 -2.5655162
6.8619342 -33.909191 -1.813127
7.0128655 -34.717392 -0.61823404
1.4989334 -7.4742661 -2.0425999
6.9909334 -34.891106 0.62113112
1.7163451 -8.5738926 -2.0187106
2.0329494 -10.16468 -2.0149431
2.2956254 -11.498928 -1.8571903
3.6296782 -18.214394 -2.2804193
5.7414083 -28.8377 -2.5724888
6.7092676 -33.760551 -1.803916
6.9125018 -34.814991 -0.61956042
1.4709677 -7.4699755 -2.0400119
6.8496909 -34.784603 0.6188274
1.6863996 -8.5718889 -2.0169113
1.9944291 -10.156303 -2.0118902
2.4381249 -12.427228 -2.0058029
3.5925276 -18.345163 -2.2952874
5.656002 -28.93578 -2.5794613
6.9854398 -35.770287 -1.9100533
6.6103497 -33.912483 -0.60308534
1.4447211 -7.4672256 -2.0379412
6.7107706 -34.717987 0.61722177
1.6586848 -8.5892048 -2.0196106
1.9637134 -10.178283 -2.0149431
3.34712 -17.414076 -2.1773179
5.5637727 -28.973942 -2.5812044
6.6687951 -34.79406 -1.8566706
6.471643 -33.829296 -0.60120052
1.4182854 -7.4703255 -2.0374236
6.6059418 -34.827648 0.61875767
1.6272422 -8.5872831 -2.0178108
1.9402236 -10.248733 -2.0275364
3.2616644 -17.294956 -2.1609874
5.4684987 -29.024515 -2.5839934
6.3937531 -34.00058 -1.813127
6.5298433 -34.791134 -0.61788505
1.3950307 -7.4904237 -2.0415647
6.508471 -34.980244 0.62106133
1.5968996 -8.5909958 -2.0173612
1.9090977 -10.280536 -2.0324974
2.1617029 -11.663506 -1.8787781
3.2258263 -17.438969 -2.1775615
5.3411055 -28.930725 -2.5738833
6.469923 -35.079391 -1.8694406
6.2990308 -34.219784 -0.60734379
1.368261 -7.4992876 -2.0425999
6.3755589 -34.943737 0.62001419
1.5669026 -8.5965176 -2.0173612
1.8763237 -10.314505 -2.0378401
2.258673 -12.441018 -2.0026743
3.1486373 -17.360277 -2.1663496
5.2911868 -29.231508 -2.5989842
5.775351 -31.969948 -1.7025934
6.1980095 -34.343895 -0.60915881
1.3400345 -7.4926081 -2.0394943
6.3044214 -35.28577 0.62566876
1.5360689 -8.6060381 -2.0182607
1.8396187 -10.317127 -2.037077
2.1878929 -12.295185 -1.9779577
3.2922032 -18.538546 -2.3118618
5.2120905 -29.379276 -2.6104887
5.6658044 -32.001713 -1.7032216
6.1129155 -34.562233 -0.61264926
1.313872 -7.4972401 -2.0394943
1.5081937 -8.6149254 -2.0191607
1.8100132 -10.36023 -2.0443277
2.0509944 -11.751666 -1.8894157
3.1547539 -18.113249 -2.2575078
5.1122346 -29.412994 -2.6118834
6.1322889 -35.318386 -1.8786516
6.0379801 -34.847385 -0.6173265
1.2890027 -7.5015559 -2.0394943
1.4767962 -8.6124535 -2.0173612
1.7792932 -10.387462 -2.0485253
3.1328967 -18.366798 -2.2877316
5.0039554 -29.366936 -2.6063054
5.8850956 -34.61105 -1.839923
5.902256 -34.785446 -0.61586052
1.2647332 -7.5174403 -2.0425999
1.4438189 -8.6002598 -2.0133121
1.7391279 -10.370375 -2.043946
2.1544139 -12.874272 -2.0674381
2.9268701 -17.527859 -2.1819489
4.913219 -29.454973 -2.6125805
5.7747369 -34.694427 -1.8432726
5.7670355 -34.722984 -0.61439455
1.2369152 -7.5122781 -2.0400119
1.4153701 -8.6148624 -2.0155613
1.7048253 -10.388007 -2.0462358
2.8605442 -17.506622 -2.1780491
5.6593733 -34.749855 -1.8451566
5.6393781 -34.703426 -0.6136964
1.2112991 -7.5203643 -2.0410471
1.3871461 -8.6312943 -2.0182607
1.6688648 -10.395832 -2.0466175
2.0626075 -12.877295 -2.0655608
2.8038046 -17.543943 -2.1814616
4.6660061 -29.228849 -2.5895715
5.0900478 -31.956762 -1.6958946
5.5150671 -34.703152 -0.61334735
1.1829377 -7.511188 -2.0374236
1.357915 -8.64186 -2.0196106
1.6337837 -10.409352 -2.0481439
2.0203965 -12.901981 -2.0683768
2.9129224 -18.644106 -2.3169801
4.6075764 -29.524494 -2.6143236
4.9661713 -31.895395 -1.6917076
4.9629278 -31.947895 -0.56434101
1.1584747 -7.5267277 -2.0405295
1.3256714 -8.6330633 -2.0164614
1.5980347 -10.418873 -2.0489073
1.9753489 -12.908956 -2.0683768
2.869993 -18.799374 -2.335017
4.5219078 -29.654636 -2.6244338
4.8599148 -31.946106 -1.693487
4.8171706 -31.739637 -0.56036186
1.132194 -7.530726 -2.0405295
1.2955281 -8.6376381 -2.0164614
1.5622376 -10.428271 -2.0496705
1.9364059 -12.9568 -2.0749471
2.4899631 -16.700598 -2.0732415
4.4471245 -29.863363 -2.6415162
4.7627563 -32.059677 -1.6986159
4.6881733 -31.633617 -0.55819774
1.1061803 -7.5365434 -2.0410471
1.2653689 -8.642108 -2.0164614
1.5252582 -10.429775 -2.0489073
1.8555229 -12.719144 -2.0358384
2.7386787 -18.818953 -2.335017
4.3508821 -29.933912 -2.6463969
4.6508136 -32.076107 -1.6986159
4.5038729 -31.139181 -0.54919237
1.0787715 -7.5327096 -2.0389764
1.2368492 -8.6580477 -2.0191607
1.4885646 -10.433093 -2.0485253
1.8261433 -12.83115 -2.0527334
2.49245 -17.556793 -2.1773179
4.2597909 -30.043602 -2.6547639
4.35883 -30.897305 -0.54465473
1.0522034 -7.5345159 -2.0384588
1.2071557 -8.666172 -2.0200605
1.4513255 -10.432391 -2.0473807
1.7989904 -12.964627 -2.0730698
2.4624493 -17.791515 -2.2053478
4.1619859 -30.109604 -2.659296
4.2188087 -30.678566 -0.54053593
1.0264175 -7.5419717 -2.0394943
1.17585 -8.6626081 -2.0182607
1.4151654 -10.43934 -2.0477622
1.7505497 -12.947337 -2.0693154
2.5604248 -18.962223 -2.3493974
4.0222874 -29.867254 -2.6366355
4.0851479 -30.454554 -0.53634739
1.0011482 -7.5434184 -2.0389764
1.1466056 -8.6625977 -2.0173612
1.3797674 -10.438136 -2.0466175
1.6977936 -12.87865 -2.0574262
2.4498534 -18.608477 -2.3045497
3.9854739 -30.354536 -2.6784704
3.953541 -30.233961 -0.53222859
0.97736657 -7.5562763 -2.0415647
1.1178727 -8.6663523 -2.0173612
1.3456482 -10.446548 -2.0473807
1.6586003 -12.911638 -2.0618064
2.4002688 -18.737024 -2.3194177
3.9227138 -30.664026 -2.704617
3.8121414 -29.965891 -0.52727211
0.9497776 -7.5500588 -2.0389764
1.0878581 -8.6721344 -2.0178108
1.306977 -10.43365 -2.043946
1.6257635 -13.015357 -2.07745
2.2224739 -17.843086 -2.2077851
3.8063104 -30.602402 -2.697993
3.6810136 -29.764681 -0.52350241
0.92294902 -7.5494928 -2.0379412
1.0578156 -8.6778126 -2.0182607
1.2729219 -10.457637 -2.0477622
1.5715137 -12.948397 -2.0658739
2.252471 -18.613403 -2.3021121
3.5460134 -29.345625 -2.5860851
3.5422704 -29.487476 -0.51840627
0.89750236 -7.5603418 -2.0400119
1.0266016 -8.6737118 -2.0164614
1.2359504 -10.458117 -2.046999
2.224077 -18.932655 -2.3406229
3.4370601 -29.302416 -2.5812044
3.4236047 -29.276047 -1.5447482
3.4064345 -29.217615 -0.51344979
0.87176836 -7.5691862 -2.0415647
0.99609685 -8.6753073 -2.0160115
1.198094 -10.450665 -2.0447092
2.0905597 -18.348604 -2.2675011
3.4937446 -30.711847 -2.7042685
3.2882535 -29.086262 -0.51093668
0.84534234 -7.5721831 -2.0415647
0.96602255 -8.6806679 -2.0164614
1.1626921 -10.46454 -2.0466175
1.4206135 -12.826707 -2.043973
1.9496031 -17.659285 -2.1814616
2.8521495 -25.875849 -2.2775538
3.162756 -28.878904 -0.50709713
0.81765932 -7.5635638 -2.0384588
0.93655133 -8.6917362 -2.0182607
1.1251054 -10.458775 -2.0447092
1.3863622 -12.929793 -2.0596163
1.8883704 -17.669931 -2.1819489
2.7436326 -25.715267 -2.262563
3.036217 -28.647165 -0.50283873
0.79064959 -7.5606084 -2.036906
0.90661073 -8.6988297 -2.0191607
1.0885916 -10.462638 -2.0447092
1.3326614 -12.852031 -2.0464759
2.0117567 -19.467354 -2.4030199
2.6550758 -25.73658 -2.2636089
2.9129653 -28.430811 -0.49885958
0.76503086 -7.5710096 -2.0389764
0.87487262 -8.6883688 -2.0160115
1.0520644 -10.466374 -2.0447092
1.2899584 -12.878225 -2.0499175
1.9589714 -19.626356 -2.421788
2.5687802 -25.781376 -2.2667465
2.7940171 -28.241806 -0.49536911
0.73916084 -7.5794024 -2.0405295
0.84435147 -8.6894293 -2.0155613
1.0168488 -10.483661 -2.0473807
1.2168756 -12.59165 -2.0036128
1.9140427 -19.878092 -2.4520113
2.4717205 -25.716806 -2.2602971
2.6749086 -28.036396 -0.49159938
0.71306062 -7.585783 -2.0415647
0.81437671 -8.6962051 -2.0164614
0.97842157 -10.4676 -2.0435643
1.2018514 -12.906585 -2.0530462
1.8323598 -19.752216 -2.4356809
2.0751679 -22.412161 -1.9691969
2.5572648 -27.830502 -0.48782969
0.68622857 -7.5843782 -2.0405295
0.78401715 -8.6989946 -2.0164614
0.9415248 -10.467041 -2.0428011
1.1744214 -13.10745 -2.0843329
1.685401 -18.884558 -2.3279483
1.9935654 -22.381559 -1.9658849
2.5502956 -28.745487 -1.5124046
2.4446115 -27.663967 -0.48475805
0.65924764 -7.5809536 -2.0389764
0.75465697 -8.7133274 -2.0191607
0.90548921 -10.476131 -2.043946
1.1151071 -12.954023 -2.0593035
1.6376159 -19.101954 -2.3540282
1.9104985 -22.330812 -1.9608299
2.445873 -28.706453 -1.5098926
2.3328147 -27.493004 -0.48161659
0.63310319 -7.587059 -2.0400119
0.72375172 -8.7100821 -2.0178108
0.86940277 -10.485097 -2.0450909
1.0828855 -13.115331 -2.0843329
1.5553145 -18.917625 -2.3306296
1.8299333 -22.305574 -1.958041
2.1430376 -26.234493 -1.3794713
1.9391952 -23.841625 -0.41753137
0.60769284 -7.6027026 -2.0436354
0.69257128 -8.7028418 -2.0155613
0.83279741 -10.488068 -2.0450909
1.0313393 -13.04617 -2.072757
1.4870869 -18.895233 -2.3272171
1.7257034 -21.976145 -1.9285822
2.2393336 -28.645172 -1.5058103
2.1122751 -27.141787 -0.47519413
0.5805617 -7.5970726 -2.0415647
0.66248381 -8.7090931 -2.0164614
0.79439902 -10.467421 -2.0405114
0.99278504 -13.142269 -2.0874617
1.4217182 -18.908226 -2.328192
1.6510651 -22.00985 -1.9310225
2.1399271 -28.660782 -1.5062289
2.0053673 -26.98547 -0.47233194
0.55361784 -7.5932727 -2.0400119
0.63207912 -8.7113523 -2.0164614
0.75672185 -10.454464 -2.0374587
0.93186128 -12.936807 -2.0542977
0.76826108 -10.717806 -1.3193576
1.5713863 -21.975733 -1.9275364
1.6585422 -23.308998 -1.2246615
1.8981673 -26.808794 -0.46912068
0.52697587 -7.5932317 -2.0394943
0.60233891 -8.7232256 -2.0187106
0.71698779 -10.410035 -2.0282996
1.5031821 -22.106318 -1.9385179
1.5764966 -23.304686 -1.2241381
1.7969182 -26.70153 -0.46713111
0.50179267 -7.5949373 -2.0394943
0.57289684 -8.7173977 -2.0169113
0.68066359 -10.384929 -2.0229571
1.4181682 -21.93025 -1.9226557
1.5031799 -23.371571 -1.227383
1.7097691 -26.729296 -0.46751508
0.47588122 -7.6062827 -2.0420823
0.5419808 -8.7115641 -2.0151114
0.64416713 -10.383323 -2.0221939
0.65483493 -10.61525 -1.6844865
1.3377132 -21.871429 -1.9170777
1.4229245 -23.398605 -1.2285343
1.6176622 -26.75506 -0.4678641
