# .PCD v0.7 - Point Cloud Data file format
VERSION 0.7
FIELDS x y z
SIZE 4 4 4
TYPE F F F
COUNT 1 1 1
WIDTH 1467
HEIGHT 1
VIEWPOINT 0 0 0 1 0 0 0
POINTS 1467
DATA ascii
2.5619442 -12.125825 -1.9629399
3.2745202 -15.525277 -1.9482036
4.4896507 -21.304913 -1.9048759
7.1887417 -34.172123 -1.830084
1.5322279 -7.3471737 -2.011024
1.7551297 -8.4307261 -1.9881173
2.0753648 -9.9777012 -1.9809792
2.5196013 -12.134694 -1.9629399
3.222724 -15.548276 -1.9496659
4.4184871 -21.336061 -1.9062704
7.0556664 -34.130508 -1.8265251
1.508124 -7.3600478 -2.0130947
1.7245187 -8.4310751 -1.9867678
2.0424895 -9.9945011 -1.9828871
2.476438 -12.139544 -1.9623141
3.1688261 -15.561375 -1.9499096
4.3447771 -21.355261 -1.9066191
6.9611301 -34.276279 -1.8330147
1.483327 -7.3631148 -2.0125771
1.6965505 -8.4367476 -1.9867678
2.0097215 -10.003144 -1.9832687
2.4377232 -12.155437 -1.9635657
3.1172047 -15.571798 -1.9499096
4.2739387 -21.369551 -1.9066191
6.852118 -34.322674 -1.8342707
1.456117 -7.3606668 -2.0105064
1.6670901 -8.4426184 -1.9867678
1.9728919 -10.000468 -1.9813608
2.3960407 -12.167748 -1.9641914
3.0643628 -15.590376 -1.9508847
4.2016215 -21.396069 -1.9076648
6.6754136 -34.056313 -1.8187793
1.4307827 -7.3676014 -2.011024
1.6383511 -8.4522114 -1.9876676
1.9394644 -10.015004 -1.9828871
2.3539271 -12.177978 -1.9645042
3.0065386 -15.583435 -1.948691
4.1284175 -21.418432 -1.9083622
6.5059266 -33.816593 -1.8047533
1.4054178 -7.3744488 -2.0115416
1.6092021 -8.4597931 -1.9881173
1.9052278 -10.025571 -1.9836504
2.3106687 -12.182239 -1.9638785
2.9587703 -15.628943 -1.9530783
4.0536275 -21.432713 -1.9083622
6.3048606 -33.399475 -1.7813069
8.4179516 -44.678986 -0.79359585
1.3778921 -7.3698149 -2.0089536
1.5775172 -8.4538651 -1.985418
1.8723789 -10.04374 -1.9859402
2.269937 -12.19994 -1.9654428
2.9002116 -15.617707 -1.9503973
3.9802418 -21.454567 -1.9090594
6.1395125 -33.158119 -1.7672807
1.3552936 -7.3916807 -2.0136123
1.549401 -8.4669886 -1.9872177
1.8309529 -10.015452 -1.979071
2.2266278 -12.203902 -1.964817
2.8499429 -15.651171 -1.9533219
3.9046159 -21.464409 -1.9087107
5.9987535 -33.041794 -1.7599537
7.8527093 -43.339622 -0.76881343
1.3288009 -7.3925643 -2.0125771
7.7980461 -43.426693 0.77013981
1.5212123 -8.4800177 -1.9890171
1.7869781 -9.9715376 -1.969149
2.1861012 -12.223268 -1.9666944
2.7935505 -15.651253 -1.9521034
3.8303664 -21.481831 -1.9090594
5.8238978 -32.728249 -1.7421595
1.3019822 -7.3914495 -2.011024
1.4926153 -8.4910336 -1.9903669
1.7076755 -9.7244043 -1.919157
2.1427383 -12.226933 -1.9660686
2.7388999 -15.66091 -1.9521034
3.7512422 -21.471519 -1.9069676
5.6643372 -32.488659 -1.7283428
1.2761731 -7.3959494 -2.011024
1.4636279 -8.5000324 -1.9912667
1.6654011 -9.6819363 -1.9096165
2.0997124 -12.232391 -1.9657558
2.6835454 -15.66646 -1.9516157
3.6789575 -21.500193 -1.9083622
5.4500422 -31.917599 -1.6969411
1.2519586 -7.409883 -2.0136123
1.4320045 -8.4935608 -1.9885672
1.6211617 -9.6257381 -1.8974047
3.6071789 -21.532553 -1.9101051
5.3458438 -31.979767 -1.699244
1.225139 -7.4084902 -2.0120592
1.4042509 -8.5100441 -1.9912667
1.5779715 -9.573226 -1.8859563
3.5300598 -21.533216 -1.9090594
5.2219281 -31.923336 -1.6952665
1.1986547 -7.4089074 -2.011024
1.3745365 -8.5148935 -1.9912667
1.5401704 -9.5515404 -1.8806137
3.4592891 -21.572948 -1.9114997
5.1016273 -31.886147 -1.6923357
1.1724843 -7.4111385 -2.0105064
1.3454142 -8.523489 -1.9921664
1.5040666 -9.5394039 -1.8771789
1.5063207 -9.5754175 -1.5352479
1.5042135 -9.5838184 -1.191151
3.3808804 -21.565208 -1.9097565
4.9618955 -31.722219 -1.6827058
1.1471968 -7.4190049 -2.0115416
1.3171414 -8.5279045 -1.9921664
1.4713575 -9.5484772 -1.8779422
1.470953 -9.5569315 -1.5314937
1.4700146 -9.5730572 -1.1892011
3.304373 -21.569002 -1.9090594
4.8149853 -31.466049 -1.6682611
1.1243211 -7.4342284 -2.0146475
1.2873652 -8.5324497 -1.9921664
1.4379299 -9.5416565 -1.8756526
1.4364089 -9.5541935 -1.5302421
1.4336447 -9.5584993 -1.1867638
3.23106 -21.568018 -1.9080135
4.6738214 -31.273281 -1.6571659
1.0983647 -7.438108 -2.0146475
1.2587104 -8.5446043 -1.9939661
1.4029006 -9.5349627 -1.8733629
1.4030495 -9.5591497 -1.5302421
1.3979694 -9.5477314 -1.1848139
3.1563301 -21.583109 -1.9083622
4.5427198 -31.139204 -1.6492108
1.0712918 -7.4342489 -2.0125771
1.2297081 -8.5547323 -1.9953159
1.3684915 -9.5320282 -1.8718363
1.3702344 -9.5678997 -1.5308678
1.3657571 -9.5604143 -1.1857889
3.0804083 -21.59005 -1.9080135
4.4210505 -31.063915 -1.6443959
1.0445281 -7.4322033 -2.011024
1.2017326 -8.5724821 -1.9984653
1.3362999 -9.5445251 -1.8733629
1.3357347 -9.5647993 -1.5296165
1.3334707 -9.5729885 -1.1867638
3.0033786 -21.588831 -1.9069676
4.2829413 -30.865499 -1.6330913
1.0188414 -7.4377179 -2.0115416
1.169691 -8.5611773 -1.9948659
1.3045686 -9.5608025 -1.8756526
1.3026053 -9.5713606 -1.5299293
1.3021835 -9.5933208 -1.1887137
2.9274678 -21.595234 -1.9066191
4.1419945 -30.634834 -1.6201121
0.99312699 -7.4431438 -2.0120592
1.1374872 -8.547823 -1.9908168
1.2729963 -9.5789213 -1.8783239
1.2704846 -9.5856409 -1.5314937
1.2707695 -9.6135511 -1.1906636
2.8505034 -21.59347 -1.905573
4.0412898 -30.69663 -1.6226242
0.9681356 -7.4542284 -2.0141299
1.1083934 -8.557539 -1.9921664
1.239049 -9.5794106 -1.8775605
1.2395434 -9.6096087 -1.5346223
1.23923 -9.6336794 -1.1926135
2.7796798 -21.638861 -1.9087107
3.9209163 -30.607534 -1.6171812
0.94162589 -7.4537292 -2.0130947
1.0782714 -8.5594225 -1.9917165
1.2085421 -9.6070538 -1.88214
1.2089435 -9.6373968 -1.5383767
1.2092915 -9.6674938 -1.1962696
2.7026491 -21.636568 -1.9076648
3.823926 -30.700312 -1.6213681
0.91418815 -7.4454656 -2.0099888
1.0495708 -8.5728064 -1.9939661
1.1780978 -9.6365471 -1.8871011
1.1829439 -9.7043066 -1.5483886
1.1815258 -9.7209196 -1.202363
2.6261437 -21.63796 -1.9069676
3.7114625 -30.669851 -1.6190653
0.88887995 -7.4543667 -2.0115416
1.0189494 -8.5706129 -1.9926165
1.1513969 -9.6990871 -1.8985497
1.1497586 -9.7142611 -1.5493271
2.5519979 -21.658865 -1.9080135
3.5908661 -30.56757 -1.6129943
0.86263078 -7.4555049 -2.011024
0.98791033 -8.5644379 -1.9903669
2.4750235 -21.655766 -1.9069676
3.473742 -30.488636 -1.6081793
0.83767831 -7.4680696 -2.0136123
0.95865816 -8.5736427 -1.9917165
1.1150227 -9.9878531 -1.9535027
1.3770785 -12.374413 -1.9720131
1.7520224 -15.793784 -1.9511282
2.4011669 -21.680117 -1.9083622
3.3418715 -30.270294 -1.5960375
0.81035364 -7.459425 -2.0105064
0.92893434 -8.5788746 -1.9921664
1.0942888 -10.12246 -1.979071
1.3342998 -12.383072 -1.9726388
1.6977286 -15.8077 -1.9521034
2.3271759 -21.704212 -1.9097565
3.2111433 -30.047432 -1.5836862
0.78430933 -7.4622083 -2.0105064
0.90040475 -8.5956326 -1.9953159
1.0673199 -10.206275 -1.9947174
1.2906584 -12.383723 -1.9720131
1.6435639 -15.8234 -1.9533219
2.2518075 -21.716167 -1.9101051
3.0922806 -29.923363 -1.5765685
0.75786686 -7.4610562 -2.0094712
0.86882347 -8.5832119 -1.9917165
1.0297141 -10.190407 -1.9909012
1.2468276 -12.382257 -1.9710745
1.5889142 -15.834967 -1.9540532
2.1767867 -21.731827 -1.9108025
2.9675756 -29.731262 -1.565892
0.73313773 -7.4771152 -2.0130947
0.83828968 -8.5803747 -1.9903669
0.994708 -10.1998 -1.992046
1.2045542 -12.396365 -1.9726388
1.5334384 -15.838443 -1.9538096
2.1039836 -21.771023 -1.9135915
2.9261808 -30.389547 -1.6000149
0.70739663 -7.4834752 -2.0141299
0.80924779 -8.5929489 -1.9926165
0.95873022 -10.199301 -1.9912828
1.1607211 -12.394594 -1.9717003
1.4775909 -15.83777 -1.9530783
2.0290809 -21.790134 -1.9146372
2.8049586 -30.236502 -1.5914319
0.68039536 -7.4762797 -2.0115416
0.78012627 -8.6054249 -1.9948659
0.92276806 -10.198674 -1.9905195
1.1183366 -12.408406 -1.9732646
1.4219422 -15.838876 -1.9525908
1.9526531 -21.793118 -1.9142886
2.684123 -30.075024 -1.5824301
0.6534521 -7.4689865 -2.0089536
0.75042218 -8.6119795 -1.9957658
0.88682193 -10.197922 -1.9897563
1.0746766 -12.408299 -1.9726388
1.3678395 -15.857588 -1.9542971
1.8769101 -21.80377 -1.9146372
2.5726452 -30.008593 -1.5784526
0.62850785 -7.4846973 -2.0125771
0.71986771 -8.6087198 -1.994416
0.85219967 -10.212694 -1.992046
1.0308645 -12.40607 -1.9717003
1.3121519 -15.858308 -1.9538096
1.8014446 -21.818134 -1.9153346
2.4413712 -29.694923 -1.5614958
0.6019125 -7.4810686 -2.011024
0.68950284 -8.607295 -1.9935162
0.81717104 -10.223435 -1.9935726
0.98818082 -12.417468 -1.9729517
1.2569424 -15.86477 -1.9540532
1.7255903 -21.828262 -1.9156833
2.3261011 -29.55592 -1.55375
0.57653588 -7.4927545 -2.0136123
0.66095591 -8.6095343 -1.9935162
0.78088087 -10.218394 -1.992046
0.94699711 -12.420677 -1.9729517
1.2038766 -15.862912 -1.9533219
1.6496819 -21.838125 -1.9160318
2.2277796 -29.559488 -1.5535407
0.5509764 -7.4849925 -2.011024
0.6317541 -8.6234503 -1.9962157
0.74699074 -10.220927 -1.992046
0.90420938 -12.431788 -1.9742032
1.1487836 -15.870979 -1.9538096
1.5772593 -21.843475 -1.9160318
2.1231518 -29.547163 -1.5524939
0.52498138 -7.4887972 -2.0115416
0.6035617 -8.6313305 -1.9975653
0.71158195 -10.227389 -1.9928092
0.86215806 -12.422894 -1.972326
1.0962851 -15.87668 -1.9540532
1.4996328 -21.82897 -1.9142886
2.0084994 -29.310947 -1.539724
0.50053054 -7.4962797 -2.0130947
0.57329965 -8.6314392 -1.9971154
0.67740285 -10.225776 -1.992046
0.81852871 -12.421886 -1.9717003
1.0413755 -15.888334 -1.9550281
1.4244655 -21.849979 -1.9156833
1.8880302 -29.038752 -1.52507
0.47268692 -7.49228 -2.0115416
0.54304421 -8.631443 -1.9966656
2.8180053 -44.915924 2.3585725
0.64016396 -10.232108 -1.9928092
0.77324134 -12.428746 -1.972326
0.98541838 -15.883947 -1.9540532
1.3486736 -21.862772 -1.9163804
1.7762079 -28.957764 -1.5204644
0.44653177 -7.4938841 -2.0115416
0.51163507 -8.6372662 -1.9975653
2.6385236 -44.674736 2.3453839
0.60513878 -10.246039 -1.9950989
0.73019767 -12.437284 -1.9732646
0.92719388 -15.887452 -1.9540532
1.2737408 -21.891214 -1.9184722
1.671194 -28.895992 -1.5169055
0.42091119 -7.5050416 -2.0141299
0.48224211 -8.6526194 -2.0007145
2.4659381 -44.384548 2.3296831
0.5687148 -10.236328 -1.9928092
0.68721575 -12.447648 -1.974516
0.87151277 -15.886629 -1.9535657
1.194927 -21.851759 -1.9146372
1.5542803 -28.606493 -1.5014141
0.39430517 -7.4987478 -2.0120592
0.45203671 -8.6542492 -2.0007145
2.30458 -44.12122 2.3154476
0.53318495 -10.242173 -1.9935726
0.6433512 -12.442079 -1.9732646
0.81686884 -15.905435 -1.9555157
1.1188433 -21.859776 -1.9149859
1.4578656 -28.679562 -1.5049728
0.36822265 -7.5020084 -2.0125771
0.42324015 -8.6537552 -2.0002646
2.136354 -43.837742 2.3001654
0.49742958 -10.243971 -1.9935726
0.60189837 -12.440199 -1.9726388
0.76402408 -15.906072 -1.9552718
1.0427235 -21.867531 -1.9153346
1.3608561 -28.644339 -1.5028795
0.34298953 -7.4954686 -2.0105064
0.39276388 -8.6493397 -1.9989151
1.9712288 -43.577579 2.2861395
0.46416718 -10.261255 -1.9966254
0.55891287 -12.452091 -1.9742032
0.70831984 -15.904676 -1.9547845
0.96967173 -21.858925 -1.9142886
1.2608595 -28.648914 -1.5028795
0.3173117 -7.5082006 -2.0136123
0.36281523 -8.6564989 -2.0002646
1.8076024 -43.308811 2.2716947
0.42801687 -10.254966 -1.9950989
0.51528126 -12.450018 -1.9735774
0.6527974 -15.907051 -1.9547845
0.89320326 -21.858194 -1.9139401
1.1579369 -28.581297 -1.4991113
0.29170063 -7.5247064 -2.0177534
0.332596 -8.6577129 -2.0002646
1.645429 -43.027462 2.2566221
0.39206865 -10.252474 -1.9943358
0.47211683 -12.459637 -1.974829
0.59741777 -15.9132 -1.9552718
0.81749052 -21.87711 -1.9153346
1.056832 -28.54924 -1.4972272
0.2655015 -7.5276093 -2.018271
0.30264473 -8.6666117 -2.0020645
1.486213 -42.773457 2.2430146
0.35614306 -10.249856 -1.9935726
0.42835122 -12.453311 -1.9735774
0.54260933 -15.937012 -1.957953
0.74058253 -21.863897 -1.9139401
0.95382345 -28.452948 -1.4919935
0.23797053 -7.5304623 -2.0187886
0.27087781 -8.6676626 -2.0020645
1.3227243 -42.563011 2.23171
0.31869364 -10.255016 -1.9943358
0.38270444 -12.454798 -1.9735774
0.48407468 -15.934925 -1.9574655
0.66032165 -21.862482 -1.9135915
0.84905446 -28.440283 -1.4911562
0.21146552 -7.5235229 -2.0167181
0.24029674 -8.656867 -1.999365
1.1665478 -42.291851 2.2172654
0.28311244 -10.263916 -1.9958621
0.33928171 -12.458035 -1.9738904
0.42865953 -15.944457 -1.9584407
0.58453476 -21.884573 -1.9153346
0.74672419 -28.327272 -1.4850852
0.18534465 -7.5300093 -2.018271
0.21017146 -8.6615496 -2.0002646
1.0127565 -42.040092 2.2038672
0.24737725 -10.268768 -1.9966254
0.29616621 -12.47494 -1.9763933
0.37258402 -15.927994 -1.9562467
0.50813919 -21.88648 -1.9153346
0.64701974 -28.293766 -1.4832011
0.15901789 -7.5286794 -2.0177534
0.17993549 -8.6622305 -2.0002646
0.8607372 -41.787773 2.1904693
0.21136904 -10.261718 -1.9950989
0.25249988 -12.469973 -1.9754546
0.31682235 -15.921259 -1.9552718
0.43115059 -21.858238 -1.9127198
0.54615861 -28.188019 -1.477549
0.13249923 -7.515667 -2.0141299
0.14973202 -8.6647539 -2.0007145
0.71871179 -41.59071 2.1800022
0.17541431 -10.254541 -1.9935726
0.20890351 -12.466828 -1.974829
0.26415676 -15.930161 -1.9562467
0.35481554 -21.857616 -1.9125456
0.44896868 -28.26564 -1.4815264
0.10760301 -7.5179968 -2.0146475
0.1209703 -8.6632547 -2.0002646
0.14173126 -10.278623 -1.9981518
0.14847754 -11.192951 -1.3744426
0.28248727 -21.870628 -1.9135915
0.08260873 -7.5125175 -2.0130947
0.09213718 -8.6538649 -1.9980152
0.10573094 -10.267276 -1.9958621
0.20610204 -21.867496 -1.9132428
0.25391668 -27.976454 -1.4662442
0.055144098 -7.5224285 -2.0156829
0.060500033 -8.6658354 -2.0007145
0.27876246 -40.95285 2.1462977
0.068176731 -10.279374 -1.9981518
0.12565616 -21.816303 -1.9087107
0.15152694 -28.005157 -1.4677097
0.027571622 -7.5225801 -2.0156829
0.028737601 -8.6659994 -2.0007145
0.032281984 -10.275623 -1.9973886
0.049628243 -21.872396 -1.9135915
0.053428244 -27.829758 -1.4584986
0.0026215818 -7.5091071 -2.0120592
-3.7914569e-07 -8.6738424 -2.0025144
-1.7651788e-06 -40.382584 2.1163616
-0.0017939295 -10.283527 -1.9989152
-0.0057829325 -11.044331 -1.7492503
-0.0077150771 -11.051006 -1.3568934
-0.011890316 -11.354623 -0.99340117
-0.038747329 -27.753887 -1.4545211
-0.022291282 -7.5129385 -2.0130947
-0.028730866 -8.6640511 -2.0002646
-0.14020665 -40.166634 2.105057
-0.0358546 -10.271686 -1.9966254
-0.042362131 -11.032397 -1.7473731
-0.046239346 -11.039002 -1.355431
-0.049465723 -11.336588 -0.99183232
-0.1299208 -27.56986 -1.4448912
-0.048590358 -7.5244055 -2.0162005
-0.058960851 -8.6619492 -1.9998149
-0.27874145 -39.926235 2.0924964
-0.071832888 -10.289165 -2.0000601
-0.080827683 -11.026257 -1.7464346
-0.08462023 -11.018922 -1.3529935
-0.088786103 -11.30447 -0.98904335
-0.2252073 -27.4534 -1.4388202
-0.074760154 -7.5145311 -2.0136123
-0.089275822 -8.669486 -2.0016146
-0.41580877 -39.70533 2.0809824
-0.10768696 -10.282964 -1.9989152
-0.119315 -11.025908 -1.7464346
-0.12299456 -11.01062 -1.3520186
-0.12989736 -11.276177 -0.98660302
-0.31967911 -27.336613 -1.4327493
-0.10235362 -7.5180702 -2.0146475
-0.11961931 -8.6749668 -2.0029643
-0.55144423 -39.491951 2.0698874
-0.14526312 -10.274648 -1.9973886
-0.15972637 -11.025396 -1.7464346
-0.16154474 -11.018063 -1.3529935
-0.16809182 -11.19796 -0.97980487
-0.41987112 -27.335257 -1.4327493
-0.12856314 -7.5157356 -2.0141299
-0.15144697 -8.6764183 -2.0034139
-0.68553007 -39.274117 2.0585828
-0.18133536 -10.285855 -1.9996784
-0.19821283 -11.024772 -1.7464346
-0.20221679 -11.033276 -1.3549435
-0.20629469 -11.149496 -0.97562134
-0.51294994 -27.20982 -1.4262596
-0.15483715 -7.5171723 -2.0146475
-0.18009607 -8.6700239 -2.0020645
-0.81785089 -39.043842 2.0466502
-0.21707305 -10.277308 -1.9981518
-0.23498192 -11.033929 -1.747999
-0.23940517 -11.060329 -1.3583559
-0.4746508 -21.580328 -1.8884906
-0.60034609 -27.080175 -1.4195606
-0.17990209 -7.5224113 -2.0162005
-0.21050209 -8.6751862 -2.0034139
-0.94238007 -38.837254 2.0359735
-0.25172862 -10.300083 -2.0027313
-0.27398458 -11.052789 -1.7511276
-0.2786603 -11.085224 -1.3615245
-0.54636323 -21.584612 -1.8890136
-0.69118482 -26.934158 -1.4120243
-0.20631813 -7.5275316 -2.0177534
-0.23921447 -8.672493 -2.0029643
-1.0725626 -38.640068 2.0258203
-0.28724286 -10.283442 -1.9996784
-0.31141287 -11.079463 -1.7555077
-0.31643549 -11.119956 -1.3659117
-0.62050015 -21.540752 -1.8853531
-0.77794999 -26.843876 -1.4074187
-0.2311599 -7.522943 -2.0167181
-0.26960695 -8.6754999 -2.0038638
-1.2010772 -38.432468 2.0151439
-0.32122016 -10.278509 -1.9989152
-0.35239303 -11.151361 -1.7670839
-0.35753053 -11.19021 -1.3746864
-0.69231045 -21.550524 -1.8863989
-0.86775905 -26.721222 -1.4011383
-0.25722134 -7.5162983 -2.0151651
-0.30008969 -8.6803493 -2.0052137
-1.3281466 -38.224445 2.0044675
-0.35709593 -10.277326 -1.9989152
-0.76866961 -21.579832 -1.8891878
-0.95528239 -26.558353 -1.3927646
-0.28352869 -7.5172853 -2.0156829
-0.33016679 -8.6734066 -2.0038638
-1.4542364 -38.027981 1.9944189
-0.39341754 -10.287786 -2.001205
-0.84853846 -21.596777 -1.890931
-1.0459355 -26.50297 -1.3900431
-0.31131878 -7.521986 -2.0172358
-0.36035889 -8.6702547 -2.0034139
-1.5789797 -37.8311 1.9843702
-0.43128732 -10.290198 -2.0019681
-0.52789634 -12.49101 -1.9801477
-0.6765222 -15.941823 -1.9591717
-0.92630541 -21.64942 -1.8958117
-1.1399717 -26.427126 -1.3862749
-0.33757374 -7.5208535 -2.0172358
-0.39204666 -8.6669292 -2.0029643
-1.7076572 -37.605587 1.9728565
-0.46800479 -10.306282 -2.0054026
-0.57131314 -12.485144 -1.9795219
-0.73421621 -15.923374 -1.9572219
-1.0060185 -21.653839 -1.8965088
-1.2262557 -26.2953 -1.379576
-0.36532432 -7.5234251 -2.018271
-0.42267719 -8.6732941 -2.0047638
-1.8303299 -37.423847 1.9636452
-0.50490999 -10.286849 -2.0019681
-0.61716735 -12.48494 -1.9798348
-0.78969485 -15.918731 -1.9569781
-1.0785173 -21.588511 -1.8911053
-0.38987079 -7.5144553 -2.0162005
-0.4529503 -8.6717653 -2.0047638
-1.9450469 -37.238064 1.9542247
-0.53994477 -10.302763 -2.0054026
-0.65835792 -12.478879 -1.9792091
-0.84589082 -15.927772 -1.9584407
-1.1444812 -21.47937 -1.8818668
-0.41641858 -7.518836 -2.0177534
-0.4814885 -8.6663237 -2.0038638
-2.0652363 -37.055561 1.9450136
-0.5764519 -10.310616 -2.0073106
-0.69962555 -12.474655 -1.9788963
-0.89970988 -15.942717 -1.9606342
-1.2164019 -21.421534 -1.8771603
-0.44191605 -7.5270557 -2.0203414
-0.511621 -8.6626453 -2.0034139
-2.1839437 -36.86869 1.9355931
-0.61052424 -10.306688 -2.0069292
-0.74363488 -12.480024 -1.9801477
-0.95488018 -15.931552 -1.9596591
-1.2870713 -21.411417 -1.8766375
-0.46854773 -7.5312514 -2.0218945
-0.54270715 -8.6744213 -2.0065634
-2.2996209 -36.653534 1.9247073
-0.64539146 -10.28686 -2.0034947
-0.78731996 -12.479324 -1.9804606
-1.0106101 -15.930103 -1.959903
-1.3569998 -21.331236 -1.8700136
-0.4944531 -7.523787 -2.0203414
-0.57259911 -8.6666403 -2.0052137
-2.4183114 -36.505779 1.9173803
-0.68116593 -10.282585 -2.0031128
-0.83140004 -12.484383 -1.981712
-1.0674042 -15.944304 -1.9620966
-1.4242442 -21.219021 -1.8606008
-0.51937908 -7.5027432 -2.0151651
-0.60311753 -8.6684761 -2.0061135
-2.5337749 -36.325768 1.9083785
-0.7174648 -10.286021 -2.0042579
-0.8741436 -12.469582 -1.9798348
-1.1231937 -15.942463 -1.9623404
-1.4936721 -21.148335 -1.8548485
-0.54626632 -7.5105186 -2.0177534
-0.63266349 -8.6566 -2.0038638
-2.6471314 -36.13345 1.8987488
-0.75393814 -10.291286 -2.0057843
-0.91795713 -12.470395 -1.9804606
-1.1798599 -15.952302 -1.9640466
-1.5664539 -21.129086 -1.8536284
-0.57189238 -7.5008607 -2.0156829
-0.66242957 -8.64851 -2.0025144
-2.760098 -35.952728 1.8897469
-0.78955656 -10.284676 -2.0050211
-0.96087265 -12.459237 -1.9792091
-1.2352324 -15.944128 -1.9635592
-1.62832 -20.970533 -1.8402063
-0.59868634 -7.5065222 -2.0177534
-0.69354743 -8.6578007 -2.0052137
-2.8652689 -35.768177 1.8805358
-0.82513809 -10.277944 -2.0042579
-1.0056281 -12.471559 -1.981712
-1.2911992 -15.943676 -1.9640466
-1.6895874 -20.81777 -1.8273073
-0.62488467 -7.5043864 -2.0177534
-0.72257829 -8.659337 -2.0061135
-2.9752982 -35.580822 1.87122
-0.85969853 -10.25935 -2.001205
-1.0471441 -12.470124 -1.982025
-1.3440639 -15.939306 -1.9640466
-1.7509795 -20.67873 -1.8156284
-0.64926684 -7.4964986 -2.0162005
-0.75364608 -8.6664696 -2.008363
-3.0880342 -35.438896 1.8643116
-0.89473677 -10.268177 -2.0034947
-1.0889466 -12.446713 -1.9788963
-1.4000401 -15.938473 -1.964534
-1.8153514 -20.625175 -1.8114449
-0.67525738 -7.4922624 -2.0156829
-0.78354108 -8.6599045 -2.0074632
-3.1969345 -35.26479 1.8557284
-0.93057424 -10.264992 -2.0034947
-1.1309538 -12.427099 -1.9763933
-1.4556696 -15.933489 -1.964534
-1.8786163 -20.523478 -1.8030781
-0.70302743 -7.5071707 -2.0203414
-0.81230515 -8.6415949 -2.0038638
-3.3046577 -35.090366 1.8471454
-0.96787298 -10.277317 -2.0065475
-1.1741415 -12.421109 -1.9760804
-1.5116526 -15.932262 -1.9650215
-1.9489285 -20.502911 -1.8018578
-0.72941422 -7.5065942 -2.0208592
-0.84341198 -8.6484041 -2.0061135
-3.4092557 -34.895741 1.8375156
-1.002977 -10.266061 -2.0050211
-1.2171054 -12.413002 -1.9754546
-2.0185287 -20.476156 -1.8001148
-0.75483871 -7.4963136 -2.0187886
-0.87418246 -8.6512241 -2.0074632
-3.5294359 -34.867729 1.8366783
-1.038411 -10.25859 -2.0042579
-1.2580309 -12.385096 -1.9717003
-0.78060085 -7.4897904 -2.0177534
-0.90518749 -8.6558723 -2.0092628
-3.6592412 -34.932667 1.8407604
-1.0746232 -10.258808 -2.0050211
-1.3008441 -12.376699 -1.9710745
-0.80674058 -7.4870195 -2.0177534
-0.93413913 -8.641036 -2.0065634
-3.7919083 -35.018967 1.8459941
-1.1104269 -10.254994 -2.0050211
-1.3397709 -12.332807 -1.964817
-1.3614416 -12.491663 -1.542866
-0.83415151 -7.4956779 -2.0208592
-0.964728 -8.6415958 -2.0074632
-3.9243345 -35.096821 1.850809
-1.1470897 -10.258861 -2.0065475
-1.3823724 -12.324129 -1.9641914
-1.4023727 -12.463163 -1.5399412
-1.4092647 -12.504773 -1.1009513
-0.86119288 -7.5003972 -2.0229297
-0.99488813 -8.638176 -2.0074632
-4.0568881 -35.170208 1.8554146
-1.1828918 -10.254794 -2.0065475
-1.4262917 -12.327077 -1.9654428
-1.4447232 -12.448333 -1.5387224
-1.452216 -12.49384 -1.1004283
-0.8873691 -7.4973454 -2.0229297
-1.0248045 -8.6327152 -2.0070133
-4.1909494 -35.251026 1.8604387
-1.2182173 -10.246702 -2.0057843
-1.4693114 -12.322024 -1.9654428
-1.4881691 -12.443213 -1.5387224
-1.494396 -12.476825 -1.0993825
-0.91283327 -7.4884496 -2.0213768
-1.0561146 -8.6387568 -2.0092628
-4.3261099 -35.335308 1.8656723
-1.2530235 -10.234593 -2.0042579
-1.5103887 -12.301134 -1.9629399
-1.5325642 -12.445825 -1.5396974
-1.5367217 -12.461645 -1.098511
-0.93872708 -7.4833007 -2.0208592
-1.0867498 -8.6388855 -2.0101628
-4.4616594 -35.417091 1.8708013
-1.2899685 -10.239897 -2.006166
-1.5523286 -12.28795 -1.9616885
-1.5772482 -12.450245 -1.5409162
-1.5824673 -12.473994 -1.1000798
-0.96508938 -7.4818945 -2.0213768
-1.1158979 -8.6273088 -2.008363
-4.5991111 -35.508259 1.8764535
-1.3264601 -10.241173 -2.0073106
-1.5982654 -12.305962 -1.9654428
-1.6222351 -12.456474 -1.5423784
-1.6290922 -12.492103 -1.1021715
-0.99094653 -7.4765649 -2.0208592
-1.1460062 -8.6233606 -2.008363
-4.7330422 -35.567223 1.8804311
-1.3616827 -10.232588 -2.0065475
-1.646437 -12.339469 -1.9717003
-1.6699169 -12.482218 -1.5462784
-1.6782433 -12.527809 -1.1058321
-1.0154743 -7.4713235 -2.0203414
-1.1756479 -8.6272364 -2.0101628
-4.8698649 -35.689857 1.8877583
-1.3956082 -10.228017 -2.0065475
-1.6910961 -12.361341 -1.9760804
-1.7218211 -12.553312 -1.5557842
-1.7257423 -12.5656 -1.1096668
-1.0410136 -7.4639072 -2.0193064
-1.206836 -8.6307993 -2.0119622
-5.0054941 -35.751759 1.891945
-1.4318467 -10.226971 -2.0073106
-1.7314879 -12.335801 -1.9729517
-1.0681555 -7.4678769 -2.0213768
-1.2358487 -8.6188192 -2.0101628
-5.1478586 -35.85664 1.8984346
-1.4680951 -10.225797 -2.0080738
-1.7779131 -12.353144 -1.9767061
-1.0950575 -7.4698367 -2.0229297
-1.265361 -8.6105947 -2.0092628
-5.2875233 -35.937252 1.9036682
-1.5037799 -10.22061 -2.0080738
-1.8239068 -12.366405 -1.9798348
-2.3499379 -15.894565 -1.9728212
-2.9722707 -20.079674 -1.7758855
-3.4831457 -23.474426 -1.2437118
-1.1214125 -7.4678788 -2.0234473
-1.295409 -8.6061258 -2.0092628
-5.4278183 -36.017326 1.9089019
-1.5406179 -10.223064 -2.0096004
-1.8717823 -12.391215 -1.9848408
-2.4057055 -15.888226 -1.9730648
-3.0387583 -20.045536 -1.7737937
-1.1474729 -7.4639192 -2.0234473
-1.3272221 -8.6131086 -2.0119622
-5.5669088 -36.085011 1.9135073
-1.5727018 -10.19434 -2.0050211
-1.9189489 -12.409984 -1.9889081
-2.4614537 -15.881694 -1.9733087
-3.1117675 -20.054497 -1.7755368
-3.6469431 -23.449535 -1.2437118
-1.1726193 -7.454143 -2.0218945
-1.3566736 -8.6045732 -2.0110624
-5.7208629 -36.242912 1.9229279
-1.6088897 -10.192667 -2.0057843
-1.9604044 -12.391502 -1.9870309
-2.5171852 -15.874965 -1.9735522
-3.1889365 -20.088772 -1.7795459
-1.1986322 -7.4500046 -2.0218945
-1.3870102 -8.6017084 -2.0115123
-6.8480458 -42.421856 2.2520165
-1.6463354 -10.198618 -2.0080738
-2.0020683 -12.374834 -1.9854665
-2.5741749 -15.875878 -1.974771
-3.2631905 -20.103083 -1.781812
-3.794528 -23.324938 -1.2384782
-1.2240034 -7.4419632 -2.0208592
-1.4170276 -8.5968142 -2.0115123
-6.9577146 -42.165161 2.2396653
-1.6825647 -10.196684 -2.0088372
-2.046864 -12.377515 -1.9870309
-2.6282771 -15.858965 -1.9737961
-3.3235614 -20.032604 -1.7765826
-1.252535 -7.4528861 -2.0250003
-1.4463805 -8.5879726 -2.0106125
-7.0769653 -41.975182 2.2308729
-1.7171686 -10.184938 -2.0076923
-2.0920322 -12.381982 -1.9889081
-2.6829586 -15.845778 -1.9733087
-3.4204352 -20.179995 -1.7907019
-3.9405513 -23.199425 -1.2332445
-1.276581 -7.4370446 -2.0218945
-1.4789914 -8.5982361 -2.0142117
-7.1942916 -41.780949 2.2218709
-1.7507104 -10.167274 -2.0054026
-2.1369205 -12.384336 -1.9904724
-2.7402821 -15.848052 -1.974771
-3.4942546 -20.187565 -1.7924451
-1.3025336 -7.4325428 -2.0218945
-1.5076478 -8.5853424 -2.0124121
-7.3110499 -41.590343 2.2130785
-1.7892509 -10.178504 -2.0088372
-2.1787663 -12.36902 -1.9892209
-2.7983446 -15.854031 -1.9767209
-3.5560348 -20.126192 -1.7880871
-1.3294905 -7.4336562 -2.0234473
-1.537951 -8.5819464 -2.012862
-7.4272614 -41.40337 2.2044954
-1.8240751 -10.168332 -2.0080738
-2.2229764 -12.367173 -1.9901596
-2.852263 -15.836349 -1.9757458
-3.6294487 -20.131304 -1.7896559
-1.3568171 -7.4365721 -2.0255179
-1.5664967 -8.5688572 -2.0110624
-7.538662 -41.196445 2.1948657
-1.8595572 -10.161902 -2.0080738
-2.2689824 -12.374881 -1.9926625
-2.9096756 -15.838012 -1.9772084
-3.6975343 -20.106756 -1.7886101
-1.3827685 -7.4317904 -2.0255179
-1.5978267 -8.5710001 -2.012862
-7.6459575 -41.014145 2.186492
-1.8950189 -10.155349 -2.0080738
-2.3092613 -12.351352 -1.9901596
-2.96275 -15.816051 -1.9757458
-3.7632916 -20.070229 -1.7865183
-1.4079812 -7.4231229 -2.0244827
-1.6258774 -8.5637398 -2.0124121
-7.7570047 -40.818459 2.17749
-1.9297216 -10.144815 -2.0073106
-2.3527939 -12.35721 -1.9923496
-3.0144367 -15.802241 -1.9752585
-3.8310833 -20.045227 -1.7854724
-1.4300257 -7.4051352 -2.0208592
-1.6568702 -8.5637531 -2.013762
-7.8728619 -40.653877 2.1701632
-1.9633529 -10.13836 -2.0073106
-2.3959134 -12.348922 -1.9923496
-3.0718536 -15.803314 -1.9767209
-3.8933475 -20.0109 -1.783555
-1.4562387 -7.4019933 -2.0213768
-1.6867535 -8.5579176 -2.013762
-7.9791589 -40.445877 2.1605332
-2.0017705 -10.146854 -2.0103636
-2.4370897 -12.330793 -1.9907852
-3.1300817 -15.808072 -1.9786707
-3.9507809 -19.934649 -1.7779771
-4.5438533 -22.88525 -1.2227774
-1.4866214 -7.4195962 -2.0275886
-1.7154655 -8.5462446 -2.0124121
-8.0880346 -40.25721 2.1519501
-2.0367908 -10.137879 -2.0099821
-2.4820666 -12.331894 -1.9923496
-3.1848531 -15.795104 -1.9784272
-4.0183716 -19.910971 -1.7771056
-4.623713 -22.869249 -1.2227774
-1.5117395 -7.4105754 -2.0265532
-1.7448962 -8.5382957 -2.0119622
-8.1980867 -40.080017 2.143995
-2.0701983 -10.121092 -2.0080738
-2.5278723 -12.3367 -1.9945397
-3.2371733 -15.770281 -1.9767209
-4.0870481 -19.892921 -1.776757
-1.5375983 -7.4052534 -2.0265532
-1.7758805 -8.5378761 -2.0133121
-8.3110771 -39.922108 2.1370866
-2.1055152 -10.113804 -2.0080738
-2.5729365 -12.33747 -1.996104
-3.2970722 -15.782202 -1.9796458
-4.1552396 -19.872683 -1.776234
-1.5602435 -7.3847203 -2.0224121
-1.8093041 -8.5487843 -2.0173612
-8.4172707 -39.736538 2.1287129
-2.1428406 -10.115995 -2.0099821
-2.6151671 -12.32455 -1.9954783
-3.3537955 -15.778362 -1.9806207
-4.2233372 -19.852209 -1.7757111
-4.8213134 -22.624239 -1.2123102
-1.5868225 -7.3830061 -2.0234473
-1.8374934 -8.5347958 -2.0155613
-8.5239487 -39.558533 2.1207578
-2.1806195 -10.119969 -2.0122719
-2.6581721 -12.315346 -1.9954783
-3.4122062 -15.782083 -1.9825708
-4.2926092 -19.837347 -1.7757111
-1.6125846 -7.3774219 -2.0234473
-1.8643559 -8.5150042 -2.0124121
-8.6260748 -39.364651 2.1119652
-2.2155128 -10.110378 -2.0118902
-2.7007217 -12.304063 -1.9951655
-3.4698312 -15.781707 -1.9840331
-4.3631139 -19.828079 -1.776234
-4.9791403 -22.590029 -1.2123102
-1.6408417 -7.3830638 -2.0265532
-1.8966082 -8.5198574 -2.0151114
-8.731287 -39.190041 2.1042197
-2.2490823 -10.094918 -2.0103636
-2.7483859 -12.315768 -1.998607
-3.5257671 -15.773374 -1.9845206
-4.4331703 -19.816616 -1.7765826
-5.0579643 -22.572512 -1.2123102
-1.6631972 -7.362216 -2.0224121
-1.9254769 -8.5093842 -2.0142117
-8.839797 -39.034657 2.0975208
-2.2869072 -10.098494 -2.0126534
-2.7913594 -12.3061 -1.998607
-3.2610734 -14.353673 -1.8073225
-4.496572 -19.775766 -1.7743167
-5.1367245 -22.554718 -1.2123102
-1.6893193 -7.3582482 -2.0229297
-1.9560419 -8.5064087 -2.0151114
-2.3217049 -10.088536 -2.0122719
-2.8325243 -12.288581 -1.9973555
-3.2977607 -14.284175 -1.8000103
-5.2154245 -22.53665 -1.2123102
-1.7154323 -7.3541875 -2.0234473
-1.9837967 -8.4979782 -2.0146616
-9.1062021 -38.977474 2.0977299
-2.3609278 -10.097576 -2.0157063
-2.8732595 -12.27912 -1.9973555
-3.3365035 -14.236439 -1.7953793
-1.7407007 -7.3522191 -2.0244827
-2.0116489 -8.4834166 -2.012862
-9.2754087 -39.085365 2.1052663
-2.3930404 -10.083961 -2.0145614
-2.9170165 -12.27286 -1.9979812
-3.3769855 -14.186082 -1.7905045
-3.3909588 -14.233763 -1.2801435
-1.7681608 -7.353611 -2.0265532
-2.0435307 -8.485816 -2.0151114
-9.4445429 -39.188667 2.1125934
-2.4213262 -10.046918 -2.0088372
-2.9603031 -12.264523 -1.998294
-3.4204185 -14.149124 -1.7873359
-3.4368761 -14.206347 -1.2787491
-1.7933611 -7.3455172 -2.0260355
-2.0740654 -8.4824181 -2.0160115
-9.6076527 -39.292938 2.1199205
-2.4559152 -10.036497 -2.0084558
-3.0049772 -12.261789 -1.9995456
-3.46837 -14.131315 -1.7866048
-3.4812169 -14.17298 -1.2768316
-1.817131 -7.3317122 -2.0239649
-2.1040595 -8.483058 -2.0178108
-9.7803535 -39.402607 2.1276662
-2.4918797 -10.031673 -2.0092189
-3.0451462 -12.24984 -1.9992328
-3.5190456 -14.135146 -1.7885547
-3.5301871 -14.158809 -1.2766573
-1.843789 -7.3350139 -2.0265532
-2.1317544 -8.4681034 -2.0160115
-9.9558926 -39.519291 2.1358306
-2.527051 -10.03097 -2.0107453
-3.0898197 -12.246799 -2.0004842
-3.5737164 -14.143948 -1.7912358
-3.5844767 -14.165714 -1.2784004
-5.6293988 -22.230852 -1.201843
-1.8692274 -7.3225913 -2.0250003
-2.1608174 -8.4587231 -2.0155613
-10.117526 -39.577183 2.1408548
-2.5652595 -10.027348 -2.0118902
-3.1346858 -12.235392 -2.0004842
-3.6289811 -14.154463 -1.7941607
-3.6388562 -14.172414 -1.2801435
-5.7108417 -22.21007 -1.201843
-1.8967134 -7.3235025 -2.0270708
-2.1903391 -8.4450874 -2.0142117
-10.297736 -39.704021 2.1496472
-2.6002448 -10.018332 -2.0118902
-3.1783702 -12.228197 -2.0011098
-3.6888363 -14.171803 -1.7980604
-3.6973453 -14.194331 -1.2832812
-5.788332 -22.190001 -1.201843
-1.9217758 -7.3149686 -2.0265532
-2.2198179 -8.4434309 -2.0155613
-10.475899 -39.818493 2.1578119
-2.6322019 -9.9978027 -2.0096004
-3.2204115 -12.223321 -2.0020485
-3.7388504 -14.171009 -1.7995229
-3.7631569 -14.24298 -1.2888591
-1.9445308 -7.3029552 -2.0250003
-2.2517879 -8.4450455 -2.0178108
-10.651902 -39.920624 2.1653481
-2.6673651 -9.9966068 -2.011127
-3.2600017 -12.200555 -2.0001712
-3.787266 -14.154037 -1.7990354
-1.9690042 -7.2923927 -2.0239649
-2.2792187 -8.4296093 -2.0160115
-10.824573 -40.006588 2.1720471
-2.7032695 -9.991025 -2.0118902
-3.3046348 -12.196727 -2.0014229
-4.2540517 -15.679138 -1.9947575
-1.996487 -7.2929292 -2.0260355
-2.3065681 -8.4140844 -2.0142117
-11.013824 -40.149612 2.1818862
-2.7391667 -9.9853144 -2.0126534
-3.3466663 -12.183212 -2.0011098
-4.3113871 -15.673764 -1.9959762
-5.4557028 -19.82032 -1.798546
-6.1468024 -22.300629 -1.2123102
-2.0229652 -7.289638 -2.0270708
-2.3385348 -8.415369 -2.0164614
-11.186011 -40.226376 2.1881666
-2.772428 -9.9700174 -2.0115087
-3.3902335 -12.175262 -2.0017357
-4.367671 -15.664357 -1.9967074
-5.5344944 -19.835699 -1.8016834
-2.0473526 -7.2788129 -2.0260355
-2.3668382 -8.4034033 -2.0155613
-2.8082771 -9.9640589 -2.0122719
-3.4311016 -12.157651 -2.000797
-4.4304233 -15.67767 -2.0003636
-5.6031585 -19.814341 -1.8015091
-2.0711594 -7.2660484 -2.0244827
-2.3984334 -8.4086256 -2.0187106
-2.8430412 -9.954195 -2.0122719
-3.4735708 -12.153804 -2.0020485
-4.4862123 -15.676251 -2.0020697
-5.6541781 -19.731457 -1.7957568
-2.0979221 -7.2684202 -2.0270708
-2.426688 -8.3964596 -2.0178108
-2.879308 -9.956028 -2.0145614
-3.5159733 -12.141604 -2.0020485
-4.5464315 -15.679561 -2.0045071
-5.7045894 -19.660934 -1.7910506
-2.1216533 -7.2554908 -2.0255179
-2.4548881 -8.3841963 -2.0169113
-2.9145942 -9.9478006 -2.0149431
-3.5583358 -12.129256 -2.0020485
-4.5994558 -15.657882 -2.0037761
-5.7872286 -19.68869 -1.7954082
-2.1491618 -7.2554498 -2.0275886
-2.4835846 -8.3737087 -2.0164614
-2.9493015 -9.9375668 -2.0149431
-3.6012146 -12.118656 -2.0023613
-4.6506891 -15.630314 -2.0023134
-5.8775225 -19.740932 -1.8020321
-2.1733649 -7.2442026 -2.0265532
-2.5172846 -8.3799191 -2.0200605
-2.9817114 -9.9196901 -2.0134165
-3.6452045 -12.111686 -2.0033
-4.7057924 -15.615887 -2.0025573
-5.9475484 -19.72411 -1.8023807
-2.198638 -7.2365723 -2.0265532
-2.5470879 -8.3729448 -2.0205104
-3.0191786 -9.9186125 -2.0153246
-3.686307 -12.095109 -2.0026743
-4.7527437 -15.574681 -1.9993886
-6.0373073 -19.771828 -1.808656
-2.2233171 -7.2270069 -2.0260355
-2.5751514 -8.3602791 -2.0196106
-3.0560949 -9.9155188 -2.0168512
-3.7302508 -12.087831 -2.0036128
-4.7994604 -15.533341 -1.99622
-6.1351242 -19.843904 -1.8171972
-2.2496798 -7.2228909 -2.0270708
-2.5996788 -8.3363562 -2.0160115
-3.0930271 -9.9122868 -2.0183775
-3.7730131 -12.076621 -2.0039258
-4.8489108 -15.501337 -1.9942701
-6.2126875 -19.848988 -1.8196375
-2.2766216 -7.220521 -2.0286238
-2.6311078 -8.3346634 -2.0178108
-3.1270173 -9.8995571 -2.0179961
-3.8151445 -12.063377 -2.0039258
-4.8886113 -15.438897 -1.9884202
-6.280129 -19.821486 -1.8191147
-2.3000491 -7.2070093 -2.0270708
-2.6625581 -8.3328543 -2.0196106
-3.1609569 -9.8867121 -2.0176144
-3.8560262 -12.046225 -2.0033
-4.9373584 -15.415039 -1.9874454
-6.296958 -19.63628 -1.8041239
-2.323936 -7.1993423 -2.0270708
-2.6895766 -8.3221254 -2.0191607
-3.1937253 -9.8761759 -2.0176144
-3.8965592 -12.035251 -2.0036128
-4.9884501 -15.398582 -1.9874454
-6.4247389 -19.808601 -1.8219036
-2.3453987 -7.1842508 -2.0250003
-2.7147372 -8.3057508 -2.0173612
-3.2276793 -9.8692617 -2.0183775
-3.9346046 -12.016631 -2.0026743
-5.0502081 -15.405598 -1.9906142
-6.4975729 -19.797411 -1.8229494
-2.3735342 -7.181109 -2.0265532
-2.7437136 -8.2962236 -2.0173612
-3.2662976 -9.8648205 -2.0199041
-3.9817288 -12.011503 -2.0042386
-5.0977035 -15.369034 -1.9881767
-6.552196 -19.731121 -1.8189403
-2.399812 -7.1764441 -2.0275886
-2.7741013 -8.2861118 -2.0173612
-3.3000891 -9.8514977 -2.0195224
-4.0242615 -11.999405 -2.0045516
-5.158267 -15.371845 -1.9908577
-6.6330886 -19.744013 -1.8222523
-2.4223595 -7.1647863 -2.0265532
-2.8015642 -8.2768669 -2.0173612
-3.3283317 -9.8274832 -2.0168512
-4.0640297 -11.985994 -2.0045516
-5.220695 -15.388495 -1.9952452
-6.670969 -19.640789 -1.8147568
-2.4436059 -7.1494021 -2.0244827
-2.8308885 -8.2730618 -2.0187106
-3.3640814 -9.8256798 -2.0187593
-4.1056767 -11.978058 -2.0054901
-5.2730885 -15.366421 -1.9947575
-6.7496538 -19.658129 -1.8184173
-2.4685471 -7.1408286 -2.0244827
-5.9079261 -17.08036 0.31546968
-2.8578382 -8.2576056 -2.0173612
-3.4022138 -9.8250084 -2.021049
-4.1455216 -11.958054 -2.0045516
-5.3312535 -15.361048 -1.9964637
-6.8280349 -19.662683 -1.821032
-2.4953704 -7.1376395 -2.0260355
-2.8853581 -8.2439013 -2.0164614
-3.43519 -9.8093662 -2.0202856
-4.189199 -11.949102 -2.0054901
-5.3815532 -15.332982 -1.9952452
-6.9124727 -19.683844 -1.8252156
-2.5222027 -7.1343493 -2.0275886
-2.9160666 -8.2392902 -2.0178108
-3.4681008 -9.7936144 -2.0195224
-4.2322025 -11.93813 -2.0061157
-5.4390264 -15.325326 -1.9967074
-6.9791408 -19.653961 -1.8246926
-2.5496912 -7.1327782 -2.029659
-2.9448094 -8.2290611 -2.0178108
-3.5002794 -9.7759037 -2.0183775
-4.2745166 -11.925142 -2.0064287
-5.4991941 -15.324932 -1.9991449
-7.0652084 -19.678236 -1.8292247
-7.3811359 -20.51313 -0.38053226
-2.569977 -7.1111174 -2.0260355
-2.9761689 -8.2260618 -2.0196106
-3.5363863 -9.7691641 -2.0195224
-4.3161159 -11.91015 -2.0064287
-5.5580683 -15.320571 -2.0010948
-7.1460896 -19.687164 -1.8323622
-7.5183277 -20.690136 -1.1536939
-7.4526958 -20.48724 -0.38053226
-2.5954478 -7.1039171 -2.0265532
-6.1158671 -16.730492 0.31093207
-3.0021865 -8.2083025 -2.0178108
-3.5691175 -9.7530727 -2.0187593
-4.3590236 -11.898722 -2.0070546
-5.6128817 -15.304806 -2.0015824
-7.2140822 -19.660231 -1.832188
-6.1277704 -16.681746 -0.93137079
-6.1312642 -16.682253 -0.31023398
-2.6235747 -7.1038747 -2.0291414
-6.1595373 -16.67823 0.31033871
-3.0260139 -8.1891613 -2.0155613
-3.6072261 -9.7516031 -2.021049
-4.3970857 -11.880495 -2.0064287
-5.6732569 -15.312168 -2.0049946
-7.2805867 -19.629324 -1.831665
-7.6562047 -20.630991 -1.1532753
-2.6471181 -7.0951357 -2.0291414
-6.2030349 -16.617285 0.30960572
-3.0593524 -8.1913271 -2.0187106
-3.6361079 -9.7303915 -2.019141
-4.4392214 -11.866925 -2.0067415
-5.7343316 -15.312719 -2.0076756
-7.3791332 -19.684011 -1.8391604
-7.735189 -20.622841 -1.154322
-7.6836448 -20.463703 -0.38154453
-2.6731052 -7.0853858 -2.0291414
-6.2518244 -16.571209 0.30915192
-3.086551 -8.1769524 -2.0178108
-7.9880109 -21.150824 1.1848862
-3.6668897 -9.7041435 -2.0164697
-7.9914007 -21.137474 1.9770409
-4.482688 -11.850574 -2.0067415
-5.7961783 -15.314889 -2.0106006
-7.4661536 -19.706575 -1.8436925
-7.8857999 -20.792303 -1.1654172
-7.8380389 -20.6555 -0.38562837
-2.693692 -7.0651822 -2.0260355
-6.2968388 -16.507078 0.308384
-3.1178899 -8.1692257 -2.0187106
-3.7077441 -9.7096252 -2.0202856
-8.0338478 -21.027557 1.9693711
-4.5261412 -11.84039 -2.0076802
-5.8657517 -15.328768 -2.0152316
-7.5498557 -19.719469 -1.8473531
-8.0333824 -20.96047 -1.1764077
-7.9902797 -20.837135 -0.38953772
-2.7225056 -7.0665512 -2.0291414
-6.324945 -16.417065 0.30709255
-3.1428599 -8.1533871 -2.0173612
-3.7416158 -9.6966238 -2.0202856
-4.5632472 -11.819789 -2.0067415
-5.919414 -15.316639 -2.0162065
-7.5898862 -19.618668 -1.8403807
-8.1843109 -21.144188 -1.1882356
-8.1207685 -20.958284 -0.39233011
-2.7487257 -7.0646868 -2.0312121
-3.1698871 -8.1387348 -2.0164614
-3.7730377 -9.682333 -2.0199041
-4.6080656 -11.812988 -2.0083058
-5.9916148 -15.34396 -2.0225437
-7.6715813 -19.636072 -1.8443898
-8.258069 -21.115492 -1.1882356
-2.7726626 -7.0532508 -2.0306942
-3.2004182 -8.1330605 -2.0178108
-3.8046541 -9.6636248 -2.0187593
-4.6514463 -11.802344 -2.0092444
-6.053154 -15.343262 -2.0252249
-7.739347 -19.607321 -1.8442155
-8.3111763 -21.034527 -1.1853049
-2.7979786 -7.0453248 -2.0312121
-3.2302282 -8.1254597 -2.0187106
-3.836911 -9.646636 -2.0179961
-4.6933465 -11.787871 -2.0095575
-6.1316633 -15.384739 -2.0335121
-7.81881 -19.607948 -1.8468301
-8.3734417 -20.977564 -1.1837348
-2.8189588 -7.0265498 -2.0286238
-3.2585709 -8.1141348 -2.0187106
-3.8742218 -9.6422911 -2.0199041
-4.7329917 -11.767752 -2.0089316
-6.2053466 -15.412961 -2.0400932
-7.9035845 -19.621193 -1.850665
-8.4473639 -20.95006 -1.1838394
-2.8475962 -7.0233321 -2.0306942
-3.2897551 -8.1057501 -2.0196106
-3.9065824 -9.6207514 -2.0183775
-4.7738576 -11.744835 -2.007993
-6.2819953 -15.439758 -2.046674
-7.952158 -19.534889 -1.8452613
-8.5783577 -21.052128 -1.1913759
-2.8720951 -7.0133495 -2.0306942
-3.3144002 -8.089386 -2.0182607
-3.9468453 -9.6234045 -2.0218122
-4.8172789 -11.739904 -2.0098703
-6.3308964 -15.413332 -2.0459425
-8.043788 -19.564135 -1.850665
-8.6906719 -21.127003 -1.1972375
-2.8990269 -7.0127134 -2.0332825
-3.3441072 -8.0813694 -2.0191607
-3.9772344 -9.606636 -2.021049
-4.8574734 -11.721193 -2.0095575
-6.3854218 -15.392973 -2.0461864
-8.1070948 -19.533672 -1.8503164
-8.8302612 -21.255157 -1.2062392
-2.9190218 -6.9918551 -2.0301766
-3.3715451 -8.0678473 -2.0187106
-4.0016546 -9.5709581 -2.0164697
-4.9006467 -11.709633 -2.0104959
-6.4368138 -15.365098 -2.0454552
-8.1598253 -19.468504 -1.8468301
-2.9404094 -6.9745021 -2.0281062
-3.4027166 -8.0632114 -2.0205104
-4.0388589 -9.5659742 -2.0183775
-4.9453349 -11.701553 -2.0120604
-6.4958229 -15.355332 -2.0471613
-8.1982212 -19.370178 -1.8402063
-2.965493 -6.9659734 -2.0286238
-3.4294372 -8.0518837 -2.0205104
-4.0760741 -9.5608482 -2.0202856
-4.9763622 -11.66692 -2.0089316
-6.5521622 -15.346486 -2.0488675
-8.3229456 -19.475185 -1.852931
-10.719571 -25.071043 -1.4289811
-2.9954402 -6.9720759 -2.0332825
-3.4529035 -8.0291224 -2.0178108
-4.1077576 -9.5472784 -2.0202856
-5.0201821 -11.656734 -2.0101831
-6.6064777 -15.325344 -2.0491114
-8.4221983 -19.527977 -1.8606008
-3.0197585 -6.9615779 -2.0332825
-3.4840143 -8.0241709 -2.0196106
-4.1371465 -9.5238781 -2.0183775
-5.0639925 -11.646385 -2.0114346
-6.6599336 -15.302191 -2.0491114
-8.5054264 -19.533169 -1.8639127
-3.0432658 -6.9492245 -2.0327649
-3.5135663 -8.0155296 -2.0205104
-4.1695786 -9.5075808 -2.0179961
-5.1030264 -11.625022 -2.0108089
-6.7236891 -15.302476 -2.0522799
-8.6812363 -19.738956 -1.8865732
-3.0663714 -6.9327235 -2.0312121
-3.5415246 -8.0032158 -2.0205104
-4.2036018 -9.4904404 -2.0176144
-5.1423974 -11.599015 -2.0095575
-6.7666006 -15.255322 -2.0491114
-8.7500839 -19.708534 -1.8865732
-3.0913403 -6.9237413 -2.0317297
-3.5708332 -7.9901824 -2.0205104
-4.2375054 -9.4775009 -2.0179961
-5.1844697 -11.5846 -2.0101831
-6.8322062 -15.252161 -2.0520363
-8.9125328 -19.886957 -1.9066191
-3.1210451 -6.9252377 -2.0353529
-31.090214 -68.953453 1.3202745
-3.5963001 -7.9723406 -2.0191607
-4.2754083 -9.4733877 -2.0202856
-5.224875 -11.566434 -2.0101831
-6.8862224 -15.230026 -2.0522799
-8.9769678 -19.844831 -1.905573
-3.1420004 -6.9072671 -2.0332825
-31.289312 -68.753494 1.3185294
-3.6257207 -7.963285 -2.0200605
-4.3100786 -9.4619799 -2.021049
-5.2684941 -11.555314 -2.0114346
-6.9409914 -15.209507 -2.0527673
-9.1421747 -20.023617 -1.9257932
-3.1685104 -6.9015241 -2.0348353
-31.517128 -68.649368 1.3185294
-3.6521084 -7.9512181 -2.0200605
-4.3397994 -9.4397421 -2.0195224
-5.3051338 -11.534191 -2.0108089
-6.9930534 -15.190014 -2.0532548
-9.2537041 -20.082062 -1.9345088
-3.1856966 -6.8787084 -2.0312121
-31.771704 -68.571587 1.3191576
-3.6831198 -7.9454937 -2.0218601
-4.3727312 -9.4288607 -2.0202856
-5.3470268 -11.519185 -2.0114346
-7.0502119 -15.174513 -2.0544736
-9.2673407 -19.937437 -1.9235272
-3.2121425 -6.8727965 -2.0327649
-32.022732 -68.485634 1.3196464
-3.7075293 -7.925528 -2.0200605
-4.4097786 -9.42243 -2.0221939
-5.3872042 -11.50045 -2.0114346
-7.1132507 -15.171378 -2.0573983
-9.4824114 -20.215221 -1.9535089
-3.2369375 -6.8632889 -2.0332825
-32.259872 -68.36982 1.3195764
-3.7343404 -7.9107757 -2.0196106
-4.4510264 -9.4247322 -2.02601
-5.4264712 -11.479789 -2.0111217
-7.1678643 -15.150045 -2.0578859
-9.6722536 -20.434114 -1.9779123
-3.2641945 -6.8589263 -2.0353529
-32.541332 -68.347069 1.3213217
-3.7610941 -7.8959332 -2.0191607
-4.4788284 -9.3985052 -2.0237205
-5.4682112 -11.464342 -2.0117474
-7.2258353 -15.135679 -2.0593483
-9.881773 -20.689682 -2.0059764
-3.2872808 -6.8457489 -2.0348353
-32.772762 -68.218636 1.3210424
-3.7920096 -7.8897815 -2.0209603
-4.5073571 -9.3739662 -2.0218122
-5.5116234 -11.452305 -2.0129991
-7.2820706 -15.117518 -2.0603232
-9.9262552 -20.597628 -2.0003986
-3.3086302 -6.8290167 -2.0332825
-33.007225 -68.096619 1.3209028
-3.8203754 -7.8782506 -2.02141
-4.5374775 -9.3528757 -2.0206673
-5.5489745 -11.427667 -2.0120604
-7.3452096 -15.113432 -2.0632482
-9.7088499 -19.96797 -1.9425271
-3.3375382 -6.8278399 -2.0363884
-33.264034 -68.020515 1.3216708
-3.8469965 -7.8631167 -2.0209603
-4.5726871 -9.3422718 -2.0218122
-5.5853553 -11.401133 -2.0108089
-7.4005299 -15.099686 -2.0647106
-10.24881 -20.892735 -2.0359581
-3.360162 -6.8167343 -2.0363884
-33.503571 -67.93853 1.3222291
-3.8721881 -7.8485684 -2.0205104
-4.6079874 -9.3358583 -2.0237205
-5.6231322 -11.382547 -2.0108089
-7.4558353 -15.08574 -2.0661731
-10.433763 -21.092583 -2.0587931
-3.3861885 -6.8124738 -2.0384588
-33.741146 -67.852119 1.3227179
-3.8990622 -7.8374295 -2.0209603
-4.6362967 -9.3152542 -2.0225754
-5.6626091 -11.367373 -2.0114346
-7.5058208 -15.060932 -2.0661731
-10.528552 -21.107786 -2.0636737
-3.4035656 -6.7908449 -2.0353529
-34.000031 -67.807785 1.3240443
-3.9267786 -7.8279405 -2.0218601
-4.6671624 -9.2998276 -2.0225754
-5.700274 -11.348533 -2.0114346
-7.5557241 -15.035959 -2.0661731
-10.595804 -21.067415 -2.0631506
-3.4266889 -6.7748775 -2.0343177
-34.22847 -67.643463 1.3232764
-3.9616044 -7.825666 -2.0250094
-4.6994424 -9.2791567 -2.0218122
-5.747189 -11.338135 -2.0133119
-7.6241803 -15.028082 -2.0690978
-10.557528 -20.801027 -2.0408387
-3.4547083 -6.7714777 -2.036906
-34.484383 -67.562752 1.3240443
-3.9826915 -7.7996416 -2.0218601
-4.7389493 -9.2766819 -2.0248652
-5.7813334 -11.307453 -2.0114346
-7.6820188 -15.01198 -2.0705605
-11.012313 -21.510687 -2.114224
-3.4774389 -6.7576604 -2.0363884
-34.747452 -67.495308 1.3250914
-4.0063257 -7.7787604 -2.0200605
-4.7712998 -9.2600842 -2.0248652
-5.8225827 -11.290714 -2.0120604
-7.730731 -14.978016 -2.0695853
-11.179659 -21.650917 -2.1318295
-3.5090153 -6.7609124 -2.0410471
-34.990215 -67.387802 1.3253707
-4.033453 -7.7647295 -2.0200605
-4.8035946 -9.2433729 -2.0248652
-5.8583107 -11.263312 -2.0108089
-7.7793007 -14.943896 -2.0686104
-11.255161 -21.611763 -2.1318295
-3.5299067 -6.7434883 -2.0394943
-35.254921 -67.321938 1.3264877
-4.0623412 -7.754055 -2.0209603
-4.8349199 -9.2248106 -2.0244837
-5.9049349 -11.256786 -2.0133119
-7.8369508 -14.927196 -2.0700727
-11.278656 -21.473562 -2.1220679
-3.5453076 -6.7157488 -2.0348353
-35.538265 -67.290413 1.3283026
-4.0930247 -7.7467203 -2.0227599
-4.8680091 -9.2096119 -2.0248652
-5.9386477 -11.225631 -2.0114346
-7.889009 -14.899749 -2.0700727
-11.422552 -21.564352 -2.1349669
-3.57236 -6.7101536 -2.036906
-35.769176 -67.158897 1.328163
-4.1218739 -7.7358246 -2.0236597
-4.9028974 -9.1977606 -2.02601
-5.9796567 -11.208318 -2.0120604
-7.948452 -14.886131 -2.0720227
-11.641385 -21.793226 -2.1616368
-3.5985024 -6.7027493 -2.0384588
-4.1414728 -7.7076559 -2.0200605
-4.935904 -9.1823196 -2.0263917
-6.0168729 -11.183898 -2.0114346
-8.0022478 -14.861789 -2.0725102
-11.752349 -21.81736 -2.1680863
-3.6301553 -6.7054372 -2.0431178
-4.1720662 -7.700007 -2.0218601
-4.9716682 -9.1719379 -2.0279181
-6.0615277 -11.173244 -2.0133119
-8.0446043 -14.816319 -2.0700727
-11.932092 -21.967037 -2.1870861
-3.649837 -6.6859412 -2.0410471
-4.2026544 -7.6922374 -2.0236597
-5.001771 -9.151082 -2.0271549
-6.1004925 -11.152018 -2.0133119
-8.1058083 -14.805561 -2.0725102
-12.095796 -22.08427 -2.2029486
-3.6694252 -6.6663918 -2.0389764
-4.2313623 -7.6809335 -2.0245595
-5.040318 -9.1456032 -2.0298262
-6.1355677 -11.123735 -2.0120604
-8.1631927 -14.787605 -2.0739727
-12.197853 -22.087259 -2.2074807
-3.6936109 -6.655232 -2.0394943
-4.2524691 -7.6558962 -2.0218601
-5.0731626 -9.1296701 -2.0302079
-6.1724362 -11.0988 -2.0114346
-8.2147655 -14.759019 -2.0739727
-12.348544 -22.176844 -2.2207284
-3.720593 -6.6490412 -2.0415647
-4.2772632 -7.6376047 -2.0209603
-5.1117172 -9.1238947 -2.0328791
-6.2121072 -11.078909 -2.0117474
-8.274003 -14.744104 -2.0759225
-12.466845 -22.20657 -2.2280493
-3.744729 -6.6376953 -2.0420823
-4.3044829 -7.6267729 -2.0218601
-5.1396728 -9.0991583 -2.0313528
-6.2653337 -11.087483 -2.0170662
-8.316988 -14.706219 -2.0744603
-12.579611 -22.225344 -2.2343247
-3.7657654 -6.6235619 -2.0415647
-4.3349338 -7.6184759 -2.0236597
-5.1659341 -9.0752401 -2.0298262
-6.3049765 -11.067264 -2.017379
-8.3761368 -14.690891 -2.0764101
-12.722343 -22.304647 -2.2465265
-3.7821388 -6.5986443 -2.0379412
-4.3673191 -7.61344 -2.0263591
-5.2014899 -9.0639629 -2.0313528
-6.3396349 -11.038334 -2.0161276
-8.4234104 -14.654679 -2.0754352
-12.833894 -22.318829 -2.2524531
-3.8119149 -6.5971103 -2.0415647
-4.3938689 -7.5981483 -2.0263591
-5.2301478 -9.0406532 -2.0302079
