# .PCD v0.7 - Point Cloud Data file format
VERSION 0.7
FIELDS x y z
SIZE 4 4 4
TYPE F F F
COUNT 1 1 1
WIDTH 1476
HEIGHT 1
VIEWPOINT 0 0 0 1 0 0 0
POINTS 1476
DATA ascii
-12.91707 3.9368207 -2.1387722
-16.816402 5.1316657 -2.1587937
-23.192934 7.0863619 -2.1217194
-7.6129155 2.3420365 -2.1342218
-8.8724375 2.7329082 -2.1433337
-10.577805 3.2602179 -2.1515625
-12.897586 3.9801383 -2.1378336
-16.821148 5.1973634 -2.1617186
-23.14266 7.1549959 -2.1192791
-7.6083817 2.3697469 -2.135257
-8.8684235 2.7656024 -2.1446834
-10.577603 3.3006327 -2.153852
-12.887387 4.0263143 -2.1384594
-16.818062 5.2607903 -2.1636686
-23.130852 7.2399015 -2.1204991
-7.6074338 2.3986149 -2.1373277
-8.8494244 2.793607 -2.1424339
-10.567891 3.3381276 -2.1542337
-12.87702 4.0724664 -2.1390851
-16.78824 5.3158689 -2.1622059
-23.107338 7.3212008 -2.1206734
-7.6045351 2.4269171 -2.1388805
-8.847044 2.8268552 -2.1442335
-10.556173 3.3749959 -2.1542337
-12.866488 4.1185951 -2.1397109
-16.758242 5.3708005 -2.1607437
-23.093025 7.4054675 -2.1217194
-7.5895205 2.448422 -2.1368101
-8.8325558 2.8528364 -2.1428835
-10.539914 3.4063292 -2.1530888
-12.859126 4.1608186 -2.1406496
-16.752615 5.4270964 -2.1622059
-23.07592 7.4844651 -2.1224165
-7.5694771 2.4726233 -2.1337044
-8.8355112 2.8878889 -2.146033
-10.538554 3.4486008 -2.1553786
-12.847542 4.2091546 -2.1412752
-16.756205 5.4929576 -2.1651309
-23.036404 7.5606213 -2.1211965
-7.5699711 2.5020621 -2.1362925
-8.8174658 2.9178045 -2.1442335
-10.524589 3.4847493 -2.1549969
-12.829021 4.2527294 -2.1406496
-16.739725 5.5555902 -2.1656184
-23.02689 7.6466331 -2.1227653
-7.5648551 2.5296967 -2.1373277
-8.8040466 2.945792 -2.1433337
-10.516083 3.5227129 -2.15576
-12.820467 4.2971325 -2.141588
-16.717447 5.6098084 -2.1651309
-23.005724 7.7288699 -2.1232882
-7.5637455 2.5572441 -2.1393983
-8.7974014 2.9777555 -2.1442335
-10.500625 3.5563076 -2.1549969
-12.805388 4.3418579 -2.141588
-16.690247 5.6655731 -2.164156
-22.986151 7.8116922 -2.1239853
-7.5470104 2.5824475 -2.1373277
-8.7943287 3.0109713 -2.146033
-10.485662 3.5941339 -2.1546154
-12.804337 4.3938928 -2.1440909
-16.692896 5.7315345 -2.1670809
-22.964396 7.8938255 -2.1245084
-7.5306468 2.6062486 -2.135257
-8.7850742 3.0438221 -2.1464829
-10.489746 3.6365016 -2.1580498
-12.777724 4.4346757 -2.1422138
-16.686779 5.7978868 -2.1690307
-22.940462 7.9752469 -2.1248569
-7.5251513 2.6337945 -2.1362925
-8.7712536 3.0716498 -2.1455832
-10.47699 3.6730933 -2.1580498
-12.768539 4.4789858 -2.1431525
-16.648733 5.8466144 -2.1665936
-22.921883 8.0585804 -2.1257286
-7.5254817 2.6619556 -2.1388805
-8.760478 3.1022487 -2.1455832
-10.468451 3.7091274 -2.158813
-12.758412 4.5255103 -2.1440909
-16.624479 5.9033689 -2.1661057
-22.899246 8.1405411 -2.1262515
-7.5138555 2.6888711 -2.1383629
-8.744092 3.130837 -2.1442335
-10.45109 3.7461493 -2.1580498
-12.747319 4.5742412 -2.1450298
-16.622456 5.9680719 -2.1685433
-22.896944 8.2298613 -2.1286919
-7.5044241 2.7150815 -2.1383629
-8.7453852 3.1675103 -2.1473827
-10.43795 3.7826054 -2.1580498
-12.729416 4.6180396 -2.1447167
-16.593008 6.0262423 -2.1675684
-22.875563 8.3124638 -2.129389
-7.4858298 2.7379427 -2.1357749
-8.7348328 3.1964939 -2.1473827
-10.430215 3.8210442 -2.1591947
-12.710323 4.658864 -2.1440909
-16.591568 6.0880723 -2.1700058
-22.837057 8.3888292 -2.1285174
-7.4839573 2.7654302 -2.1378453
-8.7254486 3.2276409 -2.1478326
-10.411962 3.8535666 -2.1580498
-12.690278 4.7018337 -2.1434653
-16.56649 6.1445699 -2.1695182
-22.827793 8.471447 -2.1302607
-7.4778776 2.7928891 -2.1388805
-8.7037458 3.2524633 -2.1451333
-10.405802 3.8926399 -2.1595764
-12.696818 4.7521944 -2.1472197
-16.538589 6.1966877 -2.1685433
-22.818604 8.5587702 -2.1321781
-7.4667673 2.8169897 -2.1383629
-8.7014542 3.2862701 -2.1473827
-10.40202 3.9305952 -2.1614842
-12.672761 4.7936931 -2.1459682
-16.524284 6.2571878 -2.1695182
-22.799412 8.6379232 -2.1330495
-7.4532795 2.8416584 -2.1373277
-8.6881094 3.3159294 -2.1469328
-10.377233 3.962677 -2.1591947
-12.667022 4.8421321 -2.1478455
-16.509758 6.3176737 -2.1704934
-22.759815 8.7138939 -2.1321781
-7.4379067 2.8655748 -2.1357749
-8.6873913 3.3504417 -2.1496322
-10.367 4.0002899 -2.1599579
-12.642672 4.8834724 -2.146594
-16.491306 6.3766966 -2.1709807
-22.751558 8.8019142 -2.1342697
-7.4386601 2.8957253 -2.1388805
-8.670785 3.37711 -2.1482825
-10.360288 4.0393085 -2.1614842
-12.626409 4.9253707 -2.146594
-16.481165 6.4356818 -2.1724429
-22.735544 8.8870764 -2.1356642
-7.4308147 2.9210839 -2.1393983
-8.6571302 3.4066432 -2.1478326
-10.34501 4.0729208 -2.1611028
-12.61649 4.9723096 -2.1478455
-16.454905 6.4917159 -2.1719556
-22.721058 8.9729767 -2.137233
-7.4218535 2.9490132 -2.1399159
-8.6488085 3.4382813 -2.1487324
-10.330012 4.1108098 -2.1611028
-12.60185 5.0199828 -2.1484711
-16.42477 6.5461717 -2.1709807
-22.709953 9.0603552 -2.1391504
-7.4150996 2.9763417 -2.1409512
-8.6379566 3.4706845 -2.1491826
-10.311957 4.1453791 -2.1603396
-12.593414 5.0676255 -2.1500356
-16.411715 6.6107821 -2.1724429
-22.676344 9.1388226 -2.1389763
-7.3921337 2.9971247 -2.1373277
-8.6318169 3.501508 -2.150532
-10.3047 4.1843042 -2.1618662
-12.58203 5.1115904 -2.1509743
-16.386024 6.6636696 -2.1719556
-22.660912 9.2246838 -2.1405451
-7.3839417 3.0223548 -2.1378453
-8.6123285 3.528662 -2.1487324
-10.285317 4.2162194 -2.1607211
-12.553146 5.1509795 -2.149097
-16.373682 6.7253532 -2.173418
-22.657839 9.3111401 -2.1431599
-7.3787036 3.050324 -2.1393983
-8.5951777 3.5549681 -2.1473827
-10.272352 4.2528448 -2.1611028
-12.532344 5.1910667 -2.1484711
-16.354959 6.7811308 -2.1739056
-22.667526 9.4077406 -2.1471689
-7.3756785 3.0777519 -2.1414688
-8.58811 3.5872025 -2.1487324
-10.260004 4.287643 -2.1614842
-12.528728 5.240881 -2.1509743
-16.334848 6.839716 -2.1743929
-22.66193 9.4936361 -2.1496093
-7.3631101 3.1027288 -2.1409512
-8.5827198 3.6201868 -2.150532
-10.246784 4.3241949 -2.1618662
-12.513997 5.2861171 -2.1515999
-16.299902 6.8920555 -2.1729305
-22.667189 9.5889788 -2.1532698
-23.20661 9.8267298 -1.3207504
-23.213072 9.8390236 -0.4400799
-7.3397903 3.1231196 -2.1373277
-8.575408 3.6524143 -2.1518817
-10.237044 4.3622479 -2.1630108
-12.484567 5.3251171 -2.1497226
-16.304958 6.9613795 -2.1768305
-22.662893 9.6805668 -2.1560588
-7.3341694 3.1510072 -2.1388805
-8.5608158 3.6815565 -2.1514318
-10.214542 4.3948493 -2.1614842
-12.462274 5.3671045 -2.149097
-16.276915 7.0166802 -2.176343
-22.683846 9.7832928 -2.161288
-7.3248982 3.1773584 -2.1393983
-8.5389767 3.7075369 -2.1491826
-10.202741 4.4320426 -2.1622477
-12.459767 5.4176598 -2.1519127
-0.89741331 0.39039254 0.12016319
-16.263245 7.0782089 -2.1778054
-22.750031 9.9061584 -2.1708751
-7.3190708 3.2052326 -2.1409512
-8.5295515 3.7388856 -2.1500821
-10.190803 4.4692068 -2.1630108
-12.451632 5.4658833 -2.15379
-0.82334358 0.3615939 0.11041363
-16.220263 7.1269498 -2.1753678
-22.782797 10.015177 -2.1773245
-7.3007708 3.2276351 -2.1388805
-8.5271416 3.7733684 -2.1527817
-10.162576 4.499187 -2.1603396
-12.425253 5.506114 -2.1525385
-0.81481755 0.36124733 0.10943868
-16.198914 7.1851354 -2.1758554
-22.89521 10.160105 -2.1914439
-7.2859306 3.2515273 -2.1378453
-8.5210352 3.806288 -2.1545811
-10.157561 4.539443 -2.1626294
-12.402352 5.5478363 -2.1519127
-0.80267996 0.35922423 0.10797625
-16.20997 7.2578616 -2.1807303
-23.088713 10.342585 -2.2134073
-7.2886271 3.2832878 -2.1419864
-8.4934845 3.829601 -2.1509819
-10.152391 4.5797157 -2.1649189
-12.379309 5.5894728 -2.1512871
-0.77971226 0.35221744 0.10505138
-16.167721 7.3034039 -2.1782928
-23.651564 10.694002 -2.2709301
-7.2759404 3.3066409 -2.1414688
-8.4700947 3.8529041 -2.1482825
-10.130001 4.6101046 -2.1633925
-12.364302 5.6321282 -2.1519127
-0.78215259 0.35644755 0.10553886
-16.147024 7.3586245 -2.1787803
-23.775492 10.845134 -2.2862694
-7.2666917 3.3315539 -2.1419864
-8.4714403 3.8874731 -2.1518817
-10.120011 4.6461267 -2.1645374
-12.352736 5.6763988 -2.1531644
-0.77916265 0.35821012 0.10529512
-16.117636 7.413281 -2.1782928
-23.837133 10.968892 -2.2956822
-7.256772 3.3577108 -2.1425042
-8.4525146 3.9145641 -2.150532
-10.093043 4.6764717 -2.1622477
-12.347183 5.7261319 -2.1556673
-0.76890409 0.35675016 0.10407643
-16.095261 7.471169 -2.1787803
-23.827612 11.06546 -2.2984712
-7.2397556 3.3805695 -2.1409512
-8.4440956 3.9465182 -2.1518817
-10.083772 4.7150011 -2.163774
-12.319963 5.7658482 -2.1544156
-0.78203636 0.36616609 0.10602634
-16.07987 7.5323591 -2.1802428
-23.752756 11.131663 -2.2949848
-7.2226691 3.4033504 -2.1393983
-8.4397764 3.9786537 -2.1541312
-10.076129 4.7543607 -2.1656821
-12.293632 5.8032956 -2.1531644
-0.77363789 0.36536658 0.10505138
-16.079931 7.5975142 -2.183655
-23.663324 11.190654 -2.2901042
-7.2165771 3.4297705 -2.1409512
-8.4117575 4.0013952 -2.150532
-10.065626 4.7902799 -2.1668272
-12.273297 5.8461761 -2.1531644
-0.76877379 0.36635691 0.10456391
-16.042562 7.648468 -2.1821926
-23.633278 11.272494 -2.2908015
-7.2080455 3.4566095 -2.1419864
-8.4012518 4.0324197 -2.1514318
-10.050615 4.8262339 -2.1672087
-12.259937 5.8924055 -2.1544156
-0.76749033 0.36903802 0.10456391
-16.001453 7.6975403 -2.1802428
-23.590195 11.353194 -2.2904527
-7.2028923 3.4851151 -2.144057
-8.3888788 4.0625687 -2.1518817
-10.017804 4.8535833 -2.163774
-12.253515 5.9420571 -2.1569188
-0.76262546 0.36998188 0.10407643
-15.995918 7.763751 -2.1831677
-23.52533 11.423286 -2.2880125
-7.1802664 3.505152 -2.1409512
-8.3904066 4.0995269 -2.155931
-10.000801 4.8885226 -2.163774
-12.218503 5.977849 -2.1544156
-0.76846117 0.3761327 0.10505138
-15.96872 7.8195405 -2.1831677
-23.478157 11.501825 -2.2873154
-7.1697202 3.5310481 -2.1414688
-8.3638096 4.1227589 -2.1527817
-9.9942398 4.9286151 -2.1660638
-12.204647 6.0239606 -2.1556673
-0.74578452 0.36826587 0.10212652
-15.948447 7.878747 -2.1841426
-23.423574 11.576647 -2.2859206
-7.1590805 3.5569131 -2.1419864
-8.3458757 4.1501946 -2.1518817
-9.9822502 4.9660931 -2.1672087
-12.176471 6.0630078 -2.1544156
-0.75160182 0.3744072 0.10310147
-15.935061 7.9414539 -2.1860926
-23.429379 11.68146 -2.2904527
-7.1500759 3.5836134 -2.1430218
-8.3295965 4.1784267 -2.1514318
-9.9630985 5.0000272 -2.1668272
-12.169355 6.1125655 -2.1569188
-0.75383782 0.37881118 0.10358895
-15.889505 7.9881172 -2.183655
-23.409822 11.773911 -2.2925446
-7.1375241 3.6085484 -2.1430218
-8.3236551 4.2118764 -2.1536813
-9.9385786 5.0312247 -2.1653006
-12.147945 6.1550078 -2.1569188
-0.75605214 0.38323528 0.10407643
-15.872149 8.0489159 -2.1851175
-23.361473 11.85195 -2.2918475
-7.1111155 3.6264195 -2.1388805
-8.3175812 4.2453361 -2.155931
-9.9279509 5.069458 -2.1668272
-12.126385 6.1973743 -2.1569188
-0.76001221 0.38858315 0.10480764
-15.86163 8.1133118 -2.1875548
-23.461853 12.006035 -2.3057923
-7.1087198 3.6565237 -2.1419864
-8.2905836 4.2680984 -2.1527817
-9.9136829 5.1058826 -2.1675904
-12.111703 6.2432837 -2.1581702
-0.75159395 0.38759437 0.10383269
-15.854382 8.1795521 -2.1904798
-23.508326 12.133544 -2.314508
-7.0941982 3.6804259 -2.1414688
-8.2808218 4.2997084 -2.1541312
-0.91109335 0.47307327 0.053801365
-9.9045115 5.1449823 -2.1694984
-0.92992234 0.48326182 0.091687836
-12.079318 6.2800593 -2.1562929
-0.74847525 0.38929957 0.10358895
-15.808125 8.2256775 -2.1880424
-7.0932908 3.7114348 -2.1450922
-0.90894049 0.4755865 0.017906168
-8.2889633 4.338892 -2.1599801
-0.86697251 0.45401335 0.051289242
-9.9247513 5.1995659 -2.1778939
-0.92822969 0.48650494 0.091687836
-12.107418 6.3457556 -2.1650534
-0.74893826 0.39270133 0.10383269
-0.94399774 0.4951894 -0.13088769
-0.86791205 0.45566404 -0.085761249
-0.87349015 0.45878682 -0.051707931
-0.90625578 0.47640038 -0.017871264
-0.87544078 0.46195805 0.017277883
-0.83582097 0.44123802 -0.21820252
-0.92896169 0.49061492 0.055057433
-0.83155262 0.43917 -0.18279503
-0.92661124 0.48958042 0.091687836
-0.90813571 0.48002177 -0.16269186
-0.76511145 0.40459269 0.10627007
-0.8861137 0.46877691 -0.12308804
-0.86639619 0.45853966 -0.085761249
-0.8895328 0.47118196 -0.052754648
-0.85511774 0.45333472 -0.016893929
-0.86813283 0.46178871 -0.2634778
-0.82792503 0.44058621 0.016370358
-0.86867887 0.46246824 -0.22720055
-0.8849358 0.47132134 0.052545305
-0.87506753 0.46606544 -0.19271709
-0.80884492 0.43097621 0.080183282
-0.84021384 0.44787875 -0.15080284
-0.75843966 0.40445873 0.10553886
-0.82842618 0.44196692 -0.11528841
-0.82612103 0.44092211 -0.081926398
-0.82446235 0.44040692 -0.048986461
-0.8323682 0.44500324 -0.016475072
-0.86651564 0.46481627 -0.2634778
-0.81933403 0.43969131 0.016230738
-0.83615422 0.44890574 -0.21910232
-0.84457541 0.45361671 0.050242521
-0.84576207 0.45425406 -0.18661121
-0.80733567 0.433797 0.080183282
-0.82124603 0.44145605 -0.14767416
-0.74478495 0.40052241 0.10383269
-0.83387113 0.44861782 -0.11626337
-0.85406411 0.45967373 0.15361866
-0.8526476 0.45891133 -0.084715381
-0.81236976 0.43759882 -0.048358425
-0.82728928 0.44600835 -0.016405262
-0.84109932 0.45497015 -0.25623086
-0.81779426 0.44254866 0.016230738
-0.81059003 0.43883306 -0.21280369
-0.83947438 0.45465973 0.050033178
-0.82690811 0.44785383 -0.18279503
-0.80231297 0.43471423 0.079834662
-0.82317334 0.44620278 -0.14829989
-0.74338233 0.40311977 0.10383269
-0.83578974 0.45341903 -0.11675084
-0.8524543 0.46265221 0.15361866
-0.84053373 0.45618257 -0.083669513
-0.80732721 0.43852523 -0.048149083
-0.81870002 0.44507289 -0.016265644
-0.84289777 0.45975366 -0.25726613
-0.82677662 0.45114771 0.016440166
-0.80050105 0.43699098 -0.21055418
-0.8168475 0.44609976 0.048777115
-0.81155533 0.44320959 -0.17974208
-0.79729372 0.43560165 0.079486035
-0.82334423 0.4500207 -0.14861277
-0.74371237 0.40666458 0.10407643
-0.81156182 0.44394889 -0.11358224
-0.81617695 0.44665864 0.14736128
-0.83893627 0.45911384 -0.083669513
-0.8180536 0.44805679 -0.048881788
-0.80311328 0.44023827 -0.015986405
-0.82266778 0.45245251 -0.25157213
-0.83570898 0.45981464 0.016649596
-0.80067784 0.4407225 -0.21100408
-0.81178623 0.44702154 0.048567772
-0.79108602 0.43562272 -0.17554428
-0.78355271 0.43165237 0.078265861
-0.83214849 0.45861295 -0.15048997
-0.75271857 0.41500887 0.10553886
-0.8169601 0.45061392 -0.11455719
-0.79385841 0.43805256 0.14360686
-0.81988424 0.45241368 -0.081926398
-0.81473643 0.44994387 -0.048777115
-0.78056973 0.43143094 -0.015567547
-0.81770456 0.45344743 -0.25053686
-0.78338838 0.43459663 0.015637357
-0.7889111 0.43784076 -0.20830467
-0.8085531 0.44874191 0.048463102
-0.78441137 0.43552229 -0.17439944
-0.77159071 0.42858016 0.077219985
-0.80809546 0.44904155 -0.14642268
-0.74606031 0.41474012 0.10480764
-0.81017751 0.45056865 -0.11382597
-0.771685 0.42916161 0.13985243
-0.80263036 0.44655487 -0.080357596
-0.80967069 0.45084199 -0.048567772
-0.7913633 0.44082898 -0.015811879
-0.81105822 0.45347074 -0.24898393
-0.7819429 0.43719208 0.015637357
-0.79255712 0.44330844 -0.20965438
-0.8069818 0.45156139 0.048463102
-0.79659116 0.44592968 -0.17745239
-0.77182823 0.43224463 0.077394299
-0.78591985 0.44013631 -0.14266825
-0.74987638 0.42012268 0.10553886
-0.80521572 0.45131159 -0.1133385
-0.81842631 0.45890388 0.14861277
-0.78195238 0.43863156 -0.078440167
-0.78901201 0.44277266 -0.047416382
-0.78981978 0.4435885 -0.015811879
-0.80954993 0.45615783 -0.24898393
-0.78912199 0.44482872 0.015811879
-0.79100496 0.4460721 -0.20965438
-0.81061924 0.45731971 0.048777115
-0.79339808 0.44760418 -0.17707075
-0.76345015 0.43088463 0.076697052
-0.79125923 0.4467617 -0.14391972
-0.75013369 0.42371401 0.1057826
-0.79153764 0.44728354 -0.11163233
-0.79618412 0.45009229 0.14485833
-0.79783779 0.45102715 -0.080183282
-0.79267657 0.44847485 -0.047730397
-0.79348689 0.44929874 -0.015916595
-0.79955399 0.4542098 -0.24639574
-0.76496321 0.43473613 0.015358118
-0.77250218 0.43919897 -0.20515537
-0.80033749 0.45520931 0.048253756
-0.77988505 0.44357657 -0.17439944
-0.77406329 0.44044411 0.077917233
-0.79141164 0.45049822 -0.1442326
-0.75900006 0.43222389 0.10724504
-0.76927358 0.43825209 -0.10870746
-0.75685138 0.43135014 0.13797522
-0.80664462 0.45972869 -0.08122915
-0.78937137 0.45024952 -0.047625724
-0.77454704 0.44215226 -0.015567547
-0.80634576 0.46179825 -0.24898393
-0.77558666 0.44436243 0.015602452
-0.7760365 0.44480005 -0.20650508
-0.77322257 0.44336647 -0.17325458
-0.76733643 0.44016933 0.077394299
-0.7915476 0.45424125 -0.14454547
-0.75576514 0.4338823 0.10700129
-0.77634603 0.44587794 -0.10992616
-0.75534105 0.43398944 0.13797522
-0.78603196 0.45162323 -0.079311721
-0.77567506 0.44603279 -0.046893019
-0.77126575 0.44385585 -0.015532642
-0.7913444 0.45688289 -0.24484283
-0.78095728 0.4510676 0.015742071
-0.76941735 0.44458115 -0.20515537
-0.78676504 0.45478842 0.047625724
-0.77846903 0.44999292 -0.17478105
-0.77269435 0.4468348 0.078091539
-0.7779882 0.45007709 -0.14235538
-0.75940025 0.43950081 0.10773251
-0.7936821 0.45952627 -0.11260728
-0.80510175 0.46632594 0.14736128
-0.76720989 0.44437847 -0.077568613
-0.77238542 0.44773605 -0.04678835
-0.77490085 0.44955561 -0.015637357
-0.79642344 0.4635295 -0.24691339
-0.77246571 0.44976601 0.015602452
-0.77964795 0.45413032 -0.20830467
-0.78870422 0.45940545 0.047835067
-0.7819823 0.45567286 -0.17592591
-0.77973628 0.45454612 0.078963101
-0.77982509 0.45478052 -0.14298111
-0.74242991 0.43314591 0.10553886
-0.79386848 0.46315604 -0.11285102
-0.77597761 0.45308134 -0.078614481
-0.78806204 0.46050623 -0.047835067
-0.7820375 0.45716882 -0.015811879
-0.80987966 0.47496367 -0.25157213
-0.78304327 0.45940855 0.015846785
-0.78654099 0.46164519 -0.21055418
-0.79406655 0.46606213 0.048253756
-0.79231793 0.46522203 -0.17859723
-0.78509641 0.46116582 0.079660349
-0.78171891 0.45936564 -0.14360686
-0.72729909 0.42755741 0.10358895
-0.78548306 0.46176204 -0.11187606
-0.83604634 0.4916828 0.15361866
-0.78477412 0.46171397 -0.079660349
-0.79857814 0.4702107 -0.048567772
-0.79085517 0.46584925 -0.016021309
-0.81495279 0.48157796 -0.25364268
-0.78667974 0.46505561 0.015951499
-0.78332835 0.46325892 -0.21010427
-0.77868313 0.46069542 0.047416382
-0.78908104 0.46684721 -0.17821561
-0.77841908 0.46072236 0.079137415
-0.79718894 0.47201958 -0.14673555
-0.72758526 0.43097863 0.10383269
-0.77191216 0.45741698 -0.11016989
-0.81237471 0.48158577 -0.082623646
-0.79873222 0.47387543 -0.048672445
-0.77374923 0.45941862 -0.015707165
-0.79169053 0.47156763 -0.24691339
-0.78676945 0.46882248 0.015986405
-0.78003269 0.46499267 -0.20965438
-0.77363956 0.46136466 0.047207039
-0.77564347 0.46255967 -0.17554428
-0.77338409 0.4613952 0.078788787
-0.78875142 0.47075021 -0.14548407
-0.74482477 0.44470981 0.10651381
-0.78564876 0.4692702 -0.11236355
-0.78845447 0.47113305 -0.080357596
-0.78336018 0.46845987 -0.047835067
-0.76184565 0.45595518 -0.015497738
-0.7900396 0.47432831 -0.24691339
-0.78684235 0.47259554 0.016021309
-0.77506399 0.46570528 -0.20875457
-0.78914249 0.47435194 0.048253756
-0.77402413 0.46526435 -0.17554428
-0.77176875 0.46409202 0.078788787
-0.77356184 0.46535435 -0.14298111
-0.74496889 0.44833046 0.10675755
-0.78230518 0.47098586 -0.1121198
-0.76120406 0.45846322 -0.077742919
-0.75777245 0.45675689 -0.046369661
-0.75853723 0.45757869 -0.015462833
-0.79003173 0.47808331 -0.24743101
-0.7749238 0.4691259 0.015811879
-0.76843303 0.46537948 -0.20740487
-0.78577363 0.47606876 0.048149083
-0.76903713 0.46592879 -0.17478105
-0.7752555 0.46988153 0.079311721
-0.76855451 0.46600321 -0.14235538
-0.74000484 0.44886917 0.10627007
-0.78744459 0.47783321 -0.11309476
-0.75789607 0.46008348 -0.077568613
-0.77665663 0.47184348 -0.047625724
-0.77231324 0.46957365 -0.015776975
-0.78011185 0.47580832 -0.24484283
-0.76986766 0.46974474 0.015742071
-0.76347715 0.46602833 -0.20650508
-0.78581172 0.47984946 0.048253756
-0.78583723 0.47986504 -0.17897885
-0.77701116 0.47466192 0.079660349
-0.77029425 0.47074333 -0.14298111
-0.72996515 0.44627255 0.10505138
-0.78238505 0.47850737 -0.11260728
-0.78679258 0.48158079 -0.080706216
-0.76648843 0.4693366 -0.047102366
-0.77237433 0.47331166 -0.015811879
-0.78329927 0.48170048 -0.24639574
-0.77162993 0.47452423 0.015811879
-0.77346438 0.47583818 -0.20965438
-0.78413182 0.48258975 0.048253756
-0.77069867 0.47450784 -0.17592591
-0.77865905 0.47959641 0.080008969
-0.77865428 0.47978091 -0.14485833
-0.730093 0.44985905 0.10529512
-0.77057087 0.47498572 -0.11114486
-0.77154136 0.47595564 -0.079311721
-0.74776822 0.46165094 -0.046055648
-0.75030118 0.4633953 -0.015393022
-6.8292637 4.2326708 -2.1528571
-7.9390593 4.9243436 -2.1568308
-0.78914618 0.48967281 0.048672445
-9.4970312 5.8929987 -2.1725514
-0.77020919 0.47810835 0.079311721
-0.79039979 0.49083287 -0.14736128
-0.72506684 0.45043692 0.10480764
-0.81140524 0.50525165 -0.016684501
-6.7973199 4.247437 -2.1476805
-7.9119077 4.9458289 -2.1541312
-0.89072973 0.55702186 0.055057433
-9.4587231 5.9173546 -2.168735
-0.78027391 0.488327 0.080531903
-11.616299 7.2727671 -2.1706848
-0.72853786 0.4561252 0.10553886
-15.173125 9.5033283 -2.1982794
-22.44586 14.069343 -2.3176455
-46.13533 28.940634 -2.8541939
-6.7864671 4.2720127 -2.1487157
-7.8929472 4.9723759 -2.1536813
-9.450676 5.9560165 -2.1714065
-11.578751 7.3028183 -2.1681819
-0.72190458 0.45548785 0.10480764
-15.141528 9.5535927 -2.1982794
-22.3755 14.128803 -2.3152051
-45.809486 28.948362 -2.8399587
-6.769001 4.2924242 -2.1476805
-7.8764143 4.9985228 -2.1536813
-9.4225864 5.9820604 -2.1694984
-11.55447 7.3411756 -2.1681819
-0.71201348 0.45255515 0.10358895
-15.109763 9.6037521 -2.1982794
-22.335245 14.207203 -2.3159022
-45.605404 29.031471 -2.8332596
-6.769382 4.3242073 -2.1523392
-7.8614373 5.0256648 -2.1541312
-9.4093132 6.0175047 -2.1710248
-11.533388 7.3815808 -2.1688077
-0.72053975 0.46133596 0.10505138
-15.086178 9.6628609 -2.1997418
-22.312355 14.302284 -2.3186915
-45.384468 29.102768 -2.8255138
-6.7388697 4.3395758 -2.1476805
-7.8454843 5.054131 -2.1545811
-9.383894 6.0498238 -2.1702616
-11.526173 7.4366579 -2.1725621
-0.71725672 0.46277225 0.10480764
-15.049024 9.7133074 -2.1992545
-22.268986 14.384413 -2.3193886
-45.109772 29.160477 -2.8150465
-6.7204399 4.3609695 -2.1466453
-7.8301764 5.0849752 -2.1554811
-9.3627195 6.0825434 -2.1702616
-11.498489 7.4757671 -2.1722493
-0.71056366 0.4621509 0.10407643
-15.019977 9.7727299 -2.2002294
-22.255381 14.485965 -2.3232236
-44.234531 28.814135 -2.7666883
-6.7100258 4.3875732 -2.1481981
-7.8002234 5.1023788 -2.1518817
-9.3545713 6.1237912 -2.1733146
-11.46372 7.5073633 -2.170372
-0.71234816 0.46668038 0.10456391
-15.01073 9.837718 -2.2036417
-22.284647 14.616013 -2.3315904
-44.198856 29.000097 -2.7704563
-6.6954393 4.4098001 -2.1481981
-7.7839937 5.1306486 -2.1523318
-9.3309336 6.152617 -2.1725514
-11.440742 7.5495095 -2.1709976
-0.70740139 0.46697685 0.10407643
-14.95642 9.8769283 -2.2007167
-22.213545 14.680531 -2.3294985
-44.054043 29.125568 -2.767735
-6.6840601 4.4375172 -2.1497512
-7.7725296 5.1621013 -2.1541312
-9.308321 6.1867752 -2.1725514
-11.416286 7.5935774 -2.1716235
-0.69419724 0.46174735 0.10237025
-14.921852 9.9290771 -2.2007167
-22.182068 14.771227 -2.3315904
-43.388557 28.914688 -2.7325652
-6.6717405 4.4629698 -2.1507864
-7.7567973 5.1927209 -2.1550312
-9.2768803 6.2126751 -2.1702616
-11.402835 7.6421819 -2.1741264
-0.71393454 0.47865963 0.10553886
-14.888658 9.9859095 -2.2012043
-22.143604 14.857454 -2.3329849
-43.456501 29.179525 -2.7432418
-6.6497145 4.4819107 -2.1487157
-7.7395349 5.2184153 -2.1550312
-9.2616491 6.2494106 -2.1717882
-11.364334 7.6711102 -2.1716235
-0.71234334 0.48102453 0.10553886
-14.878491 10.050784 -2.2046165
-22.081701 14.927963 -2.331939
-43.557804 29.479761 -0.91806644
-6.6412086 4.5082784 -2.1507864
-7.7244945 5.247592 -2.155931
-9.2473688 6.284503 -2.1733146
-11.337485 7.7107348 -2.1716235
-0.70409501 0.47904143 0.10456391
-14.849882 10.107128 -2.2055917
-22.045252 15.010078 -2.3333335
-43.230465 29.456652 -2.7415669
-6.6286201 4.5336142 -2.1518216
-7.6916571 5.2646146 -2.1518817
-9.2286158 6.3189635 -2.174078
-11.310503 7.7502608 -2.1716235
-0.69914383 0.4792515 0.10407643
-14.804684 10.152169 -2.204129
-21.989441 15.084682 -2.3329849
-43.143833 29.618692 -2.7426138
-43.927807 30.179447 -0.93028307
-6.6143456 4.5578208 -2.1523392
-7.684464 5.2991767 -2.1550312
-9.206502 6.3511391 -2.174078
-11.289881 7.7941837 -2.1728749
-0.70073354 0.48394525 0.10456391
-14.762624 10.199272 -2.2031541
-21.933372 15.159082 -2.3326364
-43.040184 29.769112 -2.7426138
-6.5904622 4.5753717 -2.1497512
-7.6668491 5.3246303 -2.1550312
-9.1778288 6.3787532 -2.1725514
-11.273705 7.838346 -2.1747522
-0.70890278 0.49306726 0.10602634
-14.735237 10.252707 -2.204129
-21.863974 15.224167 -2.330893
-42.885506 29.872862 -2.7390549
-43.695118 30.459457 -0.92972463
-6.5752535 4.5972018 -2.1497512
-7.6482153 5.3513603 -2.1550312
-9.1614504 6.4125299 -2.173696
-11.233331 7.8685851 -2.1722493
-0.70717746 0.49553862 0.10602634
-14.709116 10.310914 -2.2055917
-21.800316 15.287436 -2.3294985
-43.843632 30.76811 -2.8070915
-43.469482 30.516865 -0.92707187
-6.5654826 4.6245751 -2.1518216
-7.6288338 5.3755703 -2.1545811
-9.1406136 6.4456048 -2.174078
-11.22009 7.9149022 -2.1747522
-0.70228648 0.49559194 0.10553886
-14.694303 10.373373 -2.2085166
-21.785877 15.391026 -2.3336821
-43.588039 30.804979 -2.7972524
-6.5501108 4.6463223 -2.1518216
-7.6004896 5.3953972 -2.1518817
-9.123992 6.4792881 -2.1752226
-11.192394 7.9540172 -2.1747522
-0.69408065 0.49343953 0.10456391
-14.628882 10.403893 -2.204129
-21.711988 15.447021 -2.3312418
-43.773109 31.165453 -2.8160934
-6.5338521 4.6691585 -2.1518216
-7.5911207 5.4286976 -2.1545811
-9.1013174 6.5110998 -2.1752226
-11.167774 7.9953375 -2.1753781
-0.69558161 0.49817121 0.10505138
-14.608614 10.466455 -2.2065666
-21.670895 15.531998 -2.3326364
-6.5190816 4.6930661 -2.1523392
-7.5737062 5.4563017 -2.1550312
-9.0721645 6.5382371 -2.173696
-11.139796 8.0342722 -2.1753781
-0.70671701 0.50988799 0.10700129
-14.575212 10.519707 -2.2070539
-21.587463 15.58656 -2.3294985
-6.5057883 4.7180624 -2.1533747
-7.5624976 5.48843 -2.1572804
-9.0540524 6.5733252 -2.1748412
-11.105289 8.0684671 -2.1741264
-0.72741377 0.52869087 0.11041363
-14.531981 10.56585 -2.206079
-21.539371 15.66651 -2.3301959
-6.4861593 4.7384639 -2.1523392
-7.5401492 5.5124936 -2.1563809
-9.0342216 6.6072078 -2.1756043
-11.07706 8.1071796 -2.1741264
-0.70634359 0.51715457 0.10748877
-14.507818 10.625899 -2.2080288
-21.459312 15.728855 -2.3277557
-6.4640813 4.7587686 -2.1507864
-7.5145841 5.5341573 -2.1545811
-9.0067835 6.6379466 -2.1748412
-11.05363 8.1524153 -2.1753781
-0.70453405 0.51961702 0.10748877
-14.47064 10.676473 -2.2080288
-21.356188 15.768167 -2.3225262
-41.061253 30.33938 -2.6756237
-6.4613953 4.7916608 -2.1554451
-7.5005093 5.5663085 -2.1563809
-8.9835577 6.6693459 -2.1748412
-11.025105 8.1909504 -2.1753781
-14.440972 10.736547 -2.2094915
-21.288664 15.839197 -2.3214803
-6.4376016 4.8106842 -2.1533747
-7.4810333 5.5924559 -2.1563809
-8.9590549 6.7022257 -2.1748412
-11.00766 8.2407751 -2.177881
-14.400229 10.78451 -2.2090039
-21.2173 15.901463 -2.3197372
-6.4101043 4.8215961 -2.1492336
-7.4624467 5.6172338 -2.1563809
-8.9473629 6.7374263 -2.1771307
-10.975406 8.2705612 -2.1766293
-14.367558 10.834592 -2.2094915
-21.129065 15.939244 -2.3155537
-6.4024744 4.8509402 -2.1523392
-7.4381351 5.6397161 -2.1550312
-8.9237919 6.7686157 -2.1771307
-10.940175 8.3040457 -2.1753781
-14.326487 10.882279 -2.2090039
-21.09868 16.032188 -2.3183427
-6.3931799 4.8791194 -2.1549275
-7.4106612 5.6597304 -2.1527817
-8.9001102 6.7997251 -2.1771307
-10.907985 8.3397808 -2.1747522
-14.301024 10.941873 -2.2109537
-21.058413 16.117844 -2.3200858
-40.800468 31.250771 -2.6934178
-6.3791723 4.9037609 -2.1559627
-7.3970375 5.6903167 -2.1545811
-8.865427 6.822371 -2.1744595
-10.888198 8.3850384 -2.1766293
-14.247023 10.979606 -2.2085166
-21.008335 16.196119 -2.3207831
-6.3513246 4.9177203 -2.1523392
-7.3771296 5.7161026 -2.1545811
-8.830699 6.8448548 -2.1717882
-10.868227 8.4302588 -2.1785066
-14.224291 11.041442 -2.2109537
-20.961111 16.276693 -2.3218288
-40.922878 31.823181 -0.90487242
-6.3249798 4.9327326 -2.1492336
-7.3663487 5.7490125 -2.1572804
-8.8191319 6.8853035 -2.1748412
-10.838734 8.4681444 -2.1785066
-14.179405 11.086136 -2.2099788
-20.910446 16.354666 -2.3225262
-40.830433 31.980631 -0.9052912
-6.3213954 4.9655209 -2.1538923
-7.3401079 5.7698741 -2.1554811
-8.79813 6.9184732 -2.1756043
-10.802898 8.5010405 -2.1772552
-14.153097 11.145391 -2.2119288
-20.859493 16.432491 -2.3232236
-40.640053 32.061035 -0.90354604
-6.3055401 4.9887543 -2.1544099
-7.3153391 5.7918324 -2.1541312
-8.7800837 6.9540167 -2.1771307
-10.766966 8.5337906 -2.1760037
-14.104774 11.187325 -2.2104664
-20.811369 16.512634 -2.3242693
-40.606163 32.264912 -0.9052912
-6.2865767 5.0095301 -2.1538923
-7.3026967 5.8234057 -2.1563809
-8.7496157 6.9797268 -2.1756043
-10.75255 8.5836449 -2.1791322
-14.062536 11.234014 -2.2099788
-20.753605 16.585175 -2.3242693
-40.342812 32.274452 -0.90180075
-6.2675443 5.0302367 -2.1533747
-7.2742267 5.8402696 -2.1536813
-8.7251978 7.0102267 -2.1756043
-10.730186 8.6242046 -2.1803839
-14.04686 11.298002 -2.2133911
-20.701788 16.662519 -2.3249664
-6.2463202 5.0473504 -2.1518216
-7.2598577 5.8705277 -2.1554811
-8.7019024 7.0391226 -2.1756043
-10.687734 8.6516647 -2.177881
-14.016597 11.354463 -2.2148538
-20.658808 16.741108 -2.3263609
-41.990162 34.051514 -2.8332596
-6.2286644 5.0691218 -2.1518216
-7.2403502 5.8945708 -2.1554811
-8.6803246 7.0719323 -2.1763675
-10.662047 8.6895552 -2.1785066
-13.972712 11.395862 -2.2138786
-20.584803 16.800528 -2.3246179
-41.976021 34.271423 -2.8399587
-39.85347 32.561653 -0.8983103
-6.2177978 5.0946469 -2.1538923
-7.2106886 5.9123945 -2.1527817
-8.6583433 7.1019244 -2.1767492
-10.630123 8.7254667 -2.1781938
-13.932847 11.444566 -2.2138786
-20.526033 16.87228 -2.3246179
-41.874649 34.432949 -2.8412147
-6.2065325 5.1235514 -2.1564806
-7.1930127 5.9400086 -2.1536813
-8.6231747 7.1261077 -2.1744595
-10.601114 8.7668867 -2.1788194
-13.886694 11.48807 -2.2129037
-20.482365 16.956528 -2.3263609
-41.695866 34.542885 -2.8376558
-39.471214 32.711479 -0.8948198
-6.1826692 5.1402435 -2.1544099
-7.1861725 5.9787984 -2.1581805
-8.605794 7.1624427 -2.1763675
-10.585628 8.8164816 -2.1819482
-13.847544 11.541431 -2.2133911
-20.410807 17.017714 -2.3249664
-39.351048 32.855938 -0.8948198
-6.1587625 5.1568346 -2.1523392
-7.1562977 5.996335 -2.1554811
-8.5762234 7.1886568 -2.1752226
-10.545709 8.8457594 -2.1800709
-13.816297 11.597359 -2.2148538
-20.345177 17.083733 -2.3242693
-6.1451545 5.1820374 -2.1538923
-7.1397905 6.0250487 -2.1568308
-8.5570793 7.2236161 -2.1767492
-10.511746 8.8799696 -2.1794453
-13.778761 11.648078 -2.2153411
-20.300632 17.167513 -2.3260124
-6.1343923 5.2097082 -2.1564806
-7.1112895 6.0436273 -2.1545811
-8.5258303 7.2483535 -2.1752226
-10.480685 8.9166088 -2.1794453
-13.728951 11.688379 -2.2138786
-20.237547 17.235689 -2.3256638
-38.002136 32.388123 -2.6167982
-6.1176372 5.2323451 -2.1569982
-7.0945921 6.0722156 -2.155931
-8.5004768 7.27807 -2.1752226
-10.446496 8.9505692 -2.1788194
-13.697107 11.743988 -2.2153411
-20.174236 17.303633 -2.3253152
-38.433395 33.011265 -0.88434833
-6.0934806 5.2486243 -2.1549275
-7.0763054 6.0994859 -2.1568308
-8.4735327 7.306416 -2.1748412
-10.421174 8.9921398 -2.1800709
-13.659033 11.794323 -2.2158287
-20.083559 17.347895 -2.3218288
-6.0722022 5.2673326 -2.1538923
-7.0638013 6.1318145 -2.1595302
-8.4494572 7.3372388 -2.1752226
-10.386739 9.0258694 -2.1794453
-13.614787 11.839323 -2.2153411
-20.043928 17.436201 -2.3242693
-38.06002 33.143414 -0.88092768
-6.0595994 5.2935786 -2.1559627
-7.0360909 6.1487932 -2.1572804
-8.4282293 7.370564 -2.1763675
-10.359724 9.0628662 -2.1800709
-13.572465 11.881792 -2.2148538
-19.964952 17.490313 -2.3221776
-37.965134 33.294533 -0.88141632
-6.0376601 5.3098173 -2.1544099
-7.0072708 6.1668801 -2.1550312
-8.400794 7.3958788 -2.1756043
-10.325061 9.0963612 -2.1794453
-13.53984 11.936973 -2.216316
-19.921789 17.569597 -2.3239207
-37.833527 33.401718 -0.88092768
-6.0234261 5.3347025 -2.1559627
-6.9926162 6.1952519 -2.1568308
-8.3749266 7.425158 -2.1756043
-10.306663 9.141036 -2.1819482
-13.491274 11.973902 -2.2148538
-19.857359 17.636385 -2.3235722
-37.716713 33.533573 -0.88092768
-6.0028191 5.352077 -2.1549275
-6.9738579 6.2222166 -2.1577303
-8.3458633 7.4489679 -2.1744595
-10.280586 9.1822186 -2.1831996
-13.452354 12.023568 -2.2153411
-19.801617 17.710905 -2.3242693
-37.211102 33.293941 -2.6167982
-37.450447 33.531635 -0.87743717
-5.9831634 5.3740411 -2.1549275
-6.9564424 6.2504311 -2.1590803
-8.315587 7.4768796 -2.173696
-10.243923 9.2171974 -2.1825738
-13.416205 12.075762 -2.216316
-19.745592 17.785252 -2.3249664
-36.970139 33.323128 -2.6084244
-5.9629359 5.3935986 -2.1544099
-6.9277081 6.2706532 -2.1572804
-8.3039894 7.5190387 -2.1775124
-10.194123 9.2369804 -2.1788194
-13.371853 12.124857 -2.216316
-19.67749 17.848711 -2.3242693
-37.067406 33.657837 -0.87394673
-5.9469271 5.4169831 -2.1554451
-6.9039955 6.2909675 -2.1563809
-8.2776909 7.5479813 -2.1775124
-10.17803 9.2840481 -2.1819482
-13.328638 12.166455 -2.2158287
-19.612125 17.914602 -2.3239207
-36.949684 33.787029 -0.87394673
-5.9374752 5.4445066 -2.158551
-6.8762503 6.3097582 -2.1545811
-8.2511711 7.5740609 -2.1771307
-10.15138 9.3248644 -2.1831996
-13.280246 12.207532 -2.2148538
-19.54381 17.971447 -2.3228748
-39.958336 36.76931 -2.8458202
-36.831516 33.915806 -0.87394673
-5.9226923 5.4691315 -2.1601038
-6.8527522 6.3323998 -2.1541312
-8.2246819 7.6028171 -2.1771307
-10.112967 9.3548775 -2.1819482
-13.243379 12.259207 -2.2158287
-19.486807 18.044975 -2.3235722
-39.85318 36.930286 -2.8474948
-36.665985 34.000641 -0.87282974
-5.893662 5.4805636 -2.1564806
-6.8391652 6.3642478 -2.1568308
-8.1952181 7.6288042 -2.1763675
-10.077359 9.3874283 -2.1813223
-13.209216 12.313481 -2.2172909
-19.426613 18.115604 -2.3239207
-36.506252 34.078392 -0.8717128
-5.8744955 5.5011029 -2.1564806
-6.8166022 6.3855586 -2.1563809
-8.1671066 7.6560216 -2.1759858
-10.046176 9.4207916 -2.1813223
-13.174102 12.362653 -2.218266
-19.340019 18.161484 -2.3211317
-36.334629 34.1563 -0.87045622
-5.8618426 5.5258536 -2.158551
-6.7914343 6.406641 -2.1554811
-8.1530962 7.6938424 -2.1790388
-10.007483 9.4503803 -2.1800709
-13.110672 12.389473 -2.2148538
-19.319935 18.269953 -2.3263609
-36.040913 34.117954 -0.86626762
-5.848556 5.5539517 -2.161139
-6.7718549 6.4329934 -2.1563809
-8.1091919 7.7087932 -2.1748412
-9.9699183 9.484271 -2.1794453
-13.087474 12.454324 -2.218266
-19.224304 18.307049 -2.3225262
-34.608536 32.980305 -2.5054271
-35.828976 34.155243 -0.86403376
-5.8291321 5.5743346 -2.161139
-6.7482333 6.4577684 -2.1563809
-8.087904 7.742485 -2.1763675
-9.9467363 9.5285807 -2.1816354
-13.02741 12.488467 -2.2158287
-19.154531 18.368526 -2.3218288
-35.576805 34.152702 -0.8608225
-5.7998991 5.5852666 -2.1575158
-6.7267809 6.4801116 -2.1563809
-8.0608301 7.7706676 -2.1763675
-9.9093962 9.5560284 -2.1803839
-12.991639 12.537114 -2.2168036
-19.096024 18.440817 -2.3225262
-35.526382 34.343395 -0.86249793
-5.7855062 5.6085033 -2.1590683
-6.7041197 6.5035534 -2.1563809
-8.0392437 7.8014579 -2.1775124
-9.871727 9.5864325 -2.1794453
-12.947796 12.582387 -2.2168036
-19.020481 18.490154 -2.3207831
-35.681396 34.735012 -0.86919963
-5.7728052 5.6354113 -2.1616566
-6.6771955 6.5228305 -2.1550312
-8.0105591 7.8281012 -2.1771307
-9.8226652 9.6056423 -2.1760037
-12.90096 12.62473 -2.216316
-18.967213 18.567585 -2.3221776
-37.049667 36.294376 -2.7181203
-35.825546 35.119717 -0.87569195
-5.7517219 5.6541743 -2.161139
-6.6557751 6.5474644 -2.1554811
-7.9789858 7.8518839 -2.1759858
-9.7890778 9.6398697 -2.1760037
-12.85681 12.669689 -2.216316
-18.890936 18.622486 -2.3207831
-33.339668 32.888866 -2.4543474
-35.944664 35.483383 -0.88162577
-5.726459 5.6687794 -2.1590683
-6.631495 6.5692868 -2.1550312
-7.9487419 7.8769226 -2.1752226
-9.7399387 9.6586809 -2.1725621
-12.818142 12.72008 -2.2172909
-18.825815 18.688314 -2.3207831
-33.25584 33.036003 -2.45665
-5.7025318 5.6846423 -2.1575158
-6.6140432 6.5978985 -2.1568308
-7.9281449 7.9115572 -2.1771307
-9.703372 9.6898279 -2.1719363
-12.776472 12.767554 -2.2177784
-18.766102 18.759552 -2.3214803
-33.191154 33.202736 -2.4604182
-5.6881061 5.7099895 -2.1595864
-6.5907521 6.6184149 -2.1563809
-7.9032493 7.9419665 -2.1778939
-9.6683969 9.7191544 -2.1713107
-12.74246 12.8183 -2.2192409
-18.711737 18.83625 -2.3228748
-32.160469 32.385777 -2.3919628
-5.6718588 5.731566 -2.1606214
-6.5607576 6.6344523 -2.1541312
-7.8796291 7.9709234 -2.1786571
-9.6413546 9.7598677 -2.1728749
-12.697638 12.862701 -2.2192409
-18.618387 18.866993 -2.3190401
-31.906986 32.355633 -2.3814955
-33.065895 33.554256 -0.82228756
-5.6572328 5.7568402 -2.1626918
-6.5402904 6.6600943 -2.1550312
-7.8448811 7.9913754 -2.1767492
-9.6099949 9.7962837 -2.1735008
-12.647105 12.901274 -2.218266
-18.549622 18.929029 -2.3186915
-31.751938 32.423996 -2.3783555
-32.912205 33.632313 -0.82138008
-5.6344047 5.773788 -2.1616566
-6.5251637 6.691256 -2.1577303
-7.8087168 8.0102739 -2.1744595
-9.5853863 9.8396769 -2.1756909
-12.593686 12.936807 -2.2168036
-18.486214 18.996519 -2.3190401
-31.6497 32.546089 -2.3791928
-32.044846 32.975449 -0.80260128
-5.6088386 5.7878718 -2.1595864
-6.4936347 6.7055922 -2.1550312
-7.7957282 8.0529995 -2.1786571
-9.5482359 9.8702345 -2.175065
-12.553967 12.986401 -2.2177784
-18.411486 19.052332 -2.3179941
-31.524794 32.644882 -2.3783555
-31.957315 33.115883 -0.80329937
-5.5886025 5.8074136 -2.1595864
-6.4688368 6.7268133 -2.1545811
-7.7662101 8.0787468 -2.1782756
-9.5137243 9.9035034 -2.175065
-12.51956 13.041596 -2.2197285
-18.353146 19.125111 -2.3190401
-32.256676 33.636944 -2.4424148
-31.899628 33.28788 -0.8047654
-5.5749693 5.8338695 -2.1621742
-6.4453163 6.7493529 -2.1545811
-7.7325397 8.1001272 -2.1767492
-9.4900045 9.9480877 -2.177568
-12.476699 13.088093 -2.2202158
-18.286274 19.189058 -2.3190401
-32.004082 33.60759 -2.4321568
-5.55723 5.8560991 -2.1632097
-6.4190369 6.7689805 -2.1536813
-7.7015162 8.1242199 -2.1759858
-9.4592991 9.9854536 -2.1785066
-12.417289 13.117149 -2.2177784
-18.227396 19.261456 -2.3200858
-31.996361 33.835197 -2.4405305
-31.92742 33.785908 -0.81139725
-5.5288053 5.8670259 -2.1601038
-6.4047198 6.8012791 -2.1568308
-7.6717653 8.1496248 -2.1756043
-9.4311504 10.025608 -2.1800709
-12.382306 13.171982 -2.2197285
-18.154591 19.319157 -2.3193886
-31.951893 34.025291 -2.4461827
-5.5122523 5.8905191 -2.1616566
-6.3862638 6.829288 -2.1586304
-7.6513166 8.1849585 -2.1778939
-9.3920517 10.054137 -2.1791322
-12.346687 13.221677 -2.2211909
-18.100637 19.396978 -2.3211317
-31.097372 33.347847 -2.3896601
-31.369459 33.651394 -0.80302012
-5.4887428 5.9045224 -2.1601038
-6.3622561 6.8490009 -2.1581805
-7.62146 8.2074089 -2.1771307
-9.3546276 10.080884 -2.1781938
-12.297374 13.256726 -2.2202158
-18.041634 19.462742 -2.3218288
-31.216936 33.711224 -0.80197299
-5.4783063 5.9326262 -2.1637273
-6.3342237 6.8643312 -2.1563809
-7.6008568 8.239852 -2.1790388
-9.3291798 10.120565 -2.1800709
-12.259094 13.308332 -2.2216785
-17.952698 19.496082 -2.3186915
-30.932325 33.615082 -2.3940563
-31.055761 33.772873 -0.80085599
-5.4562588 5.9502892 -2.1632097
-6.3128567 6.8892727 -2.1572804
-7.5680699 8.2619915 -2.1778939
-9.2911301 10.150151 -2.1794453
-12.207204 13.345183 -2.2207034
-17.897984 19.573328 -2.3204343
-30.814789 33.722858 -2.3940563
-31.603794 34.610561 -0.81809902
-5.4341536 5.9678698 -2.1626918
-6.2992625 6.9227982 -2.1608799
-7.5312572 8.279645 -2.1756043
-9.2662716 10.194217 -2.1819482
-12.168554 13.396531 -2.2221658
-17.845625 19.653387 -2.3225262
-31.531141 34.773994 -0.81935561
-5.4055166 5.9782043 -2.1595864
-6.2698321 6.938961 -2.1590803
-7.5036273 8.3073387 -2.1759858
-9.2279825 10.223566 -2.1813223
-12.108421 13.424185 -2.2197285
-17.763569 19.700764 -2.3207831
-30.431549 33.773941 -2.3825424
-5.3897762 6.0027871 -2.1616566
-6.2481775 6.9637041 -2.1599801
-7.4850678 8.3451748 -2.1790388
-9.1909237 10.254243 -2.1810095
-12.077381 13.484114 -2.2226534
-17.694696 19.762646 -2.3207831
-30.233566 33.790653 -2.3762619
-5.3726473 6.0258913 -2.1632097
-6.2159739 6.9742026 -2.1568308
-7.4506698 8.3653879 -2.1775124
-9.1634369 10.292043 -2.1825738
-12.045794 13.538921 -2.2250907
-17.617657 19.815361 -2.3197372
-30.057657 33.819069 -2.3712378
-5.355196 6.0465665 -2.1642449
-6.1967578 7.0016956 -2.1586304
-7.4175234 8.3869314 -2.1763675
-9.1353045 10.332845 -2.1844511
-11.998464 13.580883 -2.2250907
-17.561567 19.891676 -2.3214803
-30.158129 34.18362 -2.3890319
-5.3291726 6.061799 -2.1626918
-6.1787705 7.033145 -2.1613297
-7.3867316 8.4140635 -2.1763675
-9.0999775 10.369228 -2.1850767
-11.953839 13.630742 -2.2260656
-17.493799 19.961897 -2.3221776
-30.135269 34.411121 -2.3971963
-5.3018384 6.0754695 -2.1606214
-6.1503887 7.0528059 -2.16043
-7.3547378 8.4368353 -2.1756043
-9.0670996 10.408472 -2.1863284
-11.893375 13.662483 -2.2241156
-17.413544 20.01082 -2.3207831
-30.693863 35.296787 -2.4514165
-5.2843943 6.0983195 -2.1621742
-6.1244574 7.0727592 -2.1599801
-7.3368063 8.4758158 -2.1790388
-9.0320034 10.441553 -2.1866412
-11.863786 13.724941 -2.2275281
-17.343586 20.071486 -2.3207831
-5.2718949 6.1269789 -2.1657977
-6.0984612 7.0926175 -2.1595302
-7.3058958 8.4998865 -2.1786571
-8.9980774 10.476012 -2.1872668
-11.805462 13.75422 -2.2255781
-17.273422 20.131899 -2.3207831
-30.511696 35.586021 -2.45665
-5.2479668 6.142405 -2.1647625
-6.0761709 7.1142845 -2.1599801
-7.2710857 8.5193624 -2.1771307
-8.9555922 10.496778 -2.1853898
-11.759789 13.79329 -2.2255781
-17.213385 20.204201 -2.3221776
-5.2238173 6.1553578 -2.1632097
-6.0601249 7.1458535 -2.1631293
-7.2453313 8.5464239 -2.1778939
-8.9265604 10.537018 -2.1872668
-11.71413 13.837288 -2.2260656
-17.143711 20.258135 -2.3218288
-5.2010555 6.1720753 -2.1626918
-6.0313749 7.1599479 -2.1613297
-7.2179842 8.5746651 -2.1786571
-8.8941154 10.569582 -2.1878927
-11.678399 13.888217 -2.2280157
-17.078024 20.323952 -2.3225262
-5.1842785 6.1937351 -2.1642449
-6.0063434 7.1809597 -2.1613297
-7.1844707 8.5925312 -2.1771307
-8.8546295 10.597535 -2.1872668
-11.634939 13.934988 -2.2289906
-17.007975 20.377419 -2.3221776
-5.1638622 6.2132778 -2.1647625
-5.9775062 7.1973825 -2.1599801
-7.151927 8.6145344 -2.1763675
-8.8188477 10.629897 -2.1875796
-11.578628 13.966347 -2.2275281
-16.952002 20.455067 -2.3242693
-19.954475 24.095108 -1.639581
-5.1421409 6.2312665 -2.1647625
-5.9573073 7.2242174 -2.1617796
-7.1255569 8.6439934 -2.1775124
-8.7904825 10.671287 -2.18977
-11.524755 14.000549 -2.226553
-16.874378 20.51399 -2.3239207
-5.1217175 6.2530599 -2.1657977
-5.9369898 7.2509999 -2.1635792
-7.0900993 8.6654921 -2.1763675
-8.7513084 10.703436 -2.18977
-11.495915 14.065283 -2.2304528
-16.805193 20.57585 -2.3242693
-5.0913277 6.2604074 -2.1621742
-5.9066882 7.2681737 -2.1622295
-7.0622864 8.6932344 -2.1771307
-8.7163858 10.736984 -2.1903956
-11.441783 14.104243 -2.2299654
-16.72715 20.634214 -2.3239207
-5.0744133 6.2865434 -2.1647625
-5.8812799 7.2887492 -2.1622295
-7.0316067 8.7205906 -2.1775124
-8.6744928 10.765784 -2.18977
-11.392483 14.144094 -2.2299654
-16.642534 20.676954 -2.3221776
-5.0545306 6.3000646 -2.1642449
-5.8595724 7.3087091 -2.1626794
-7.005702 8.7414141 -2.1775124
-8.6400433 10.788389 -2.1891441
-11.347988 14.179818 -2.2299654
-16.601019 20.751139 -2.3249664
-5.036118 6.3222041 -2.1657977
-5.8315959 7.3260708 -2.1617796
-6.9739223 8.7642813 -2.1771307
-8.6035595 10.820032 -2.1894569
-11.291016 14.210016 -2.228503
-16.518574 20.796478 -2.3235722
-5.0104251 6.3351979 -2.1642449
-5.8132386 7.3555536 -2.164479
-6.9408498 8.7854919 -2.1763675
-8.5792036 10.867051 -2.1928985
-11.251183 14.261807 -2.2304528
-16.433548 20.838364 -2.3218288
-4.9894714 6.3541698 -2.1647625
-5.7851229 7.3727336 -2.1635792
-6.9101419 8.8096657 -2.1763675
-8.5339098 10.887602 -2.1910214
-11.208673 14.310375 -2.2319155
-16.355787 20.889328 -2.3211317
-4.9672623 6.3715463 -2.1647625
-5.7605486 7.3944221 -2.1640291
-6.8841758 8.8399277 -2.1778939
-8.4970627 10.918885 -2.1913342
-11.158654 14.349411 -2.2319155
-16.282776 20.946291 -2.3211317
-4.9497228 6.3949571 -2.1668332
-5.7263536 7.4036956 -2.1608799
-6.8556805 8.8670082 -2.1786571
-8.463726 10.954735 -2.1925857
-11.103642 14.381993 -2.2309406
-16.204683 20.996695 -2.3204343
-4.9273686 6.4121971 -2.1668332
-5.7099719 7.4360032 -2.164479
-6.8294663 8.8971167 -2.1801836
-8.425437 10.98421 -2.1925857
-11.053375 14.420663 -2.2309406
-16.131298 21.053127 -2.3204343
-4.9026132 6.4262848 -2.1657977
-5.685164 7.4574385 -2.1649289
-6.79599 8.917778 -2.1794205
-8.3918333 11.019838 -2.1938372
-11.01739 14.478116 -2.233865
-16.074604 21.131506 -2.3228748
-4.8743181 6.4356599 -2.1632097
-5.6638002 7.4834552 -2.1667287
-6.7695546 8.9477091 -2.1809468
-8.3556957 11.052217 -2.194463
-10.976361 14.529155 -2.235815
-15.993533 21.177954 -2.3218288
-4.8576303 6.4603543 -2.1657977
-5.6354413 7.4975209 -2.1653788
-6.7382817 8.971283 -2.1809468
-8.3166294 11.076705 -2.1938372
-10.92336 14.559122 -2.2348402
-15.914724 21.22728 -2.3211317
-20.010464 26.699913 -1.7486492
-4.8396454 6.4810724 -2.1673508
-5.6092377 7.5171452 -2.1653788
-6.7131886 8.999876 -2.1824734
-8.2755489 11.102501 -2.1932113
-10.879581 14.606716 -2.2363026
-15.863288 21.305504 -2.3239207
-4.8181453 6.4994779 -2.1678684
-5.5841217 7.5382462 -2.1658287
-6.6770601 9.0169411 -2.1809468
-8.2390966 11.134496 -2.1938372
-10.837974 14.657372 -2.2382526
-15.76514 21.328697 -2.3204343
-4.7942815 6.5147014 -2.1673508
-5.5635448 7.5655437 -2.1680782
-6.6385655 9.0307055 -2.1786571
-8.2001772 11.16319 -2.1938372
-10.784391 14.691917 -2.2377651
-15.71416 21.415731 -2.3239207
-4.7658148 6.5235958 -2.1647625
-5.5371032 7.5849171 -2.1680782
-6.6139469 9.0633364 -2.1809468
-8.1704731 11.204512 -2.1963401
-10.74941 14.751929 -2.2411776
-15.618199 21.441462 -2.3207831
-4.7452841 6.5433192 -2.1657977
-5.507165 7.5994649 -2.1667287
-6.5822678 9.0863695 -2.1809468
-8.1243649 11.223362 -2.194463
-10.69552 14.786149 -2.24069
-15.529255 21.476473 -2.3186915
-4.7269278 6.5661168 -2.1678684
-5.4760504 7.6123157 -2.1649289
-6.5550971 9.1156654 -2.1824734
-8.0874405 11.254863 -2.1950886
-10.641529 14.820165 -2.2402024
-15.43095 21.49818 -2.3152051
-4.7062268 6.5857186 -2.1689036
-5.4573698 7.6424866 -2.1680782
-6.5209584 9.1352949 -2.1817102
-8.0595722 11.299109 -2.1982174
-10.596937 14.861835 -2.2411776
-15.341935 21.532446 -2.3131135
-4.6798882 6.5949888 -2.1668332
-5.4331255 7.6621304 -2.1685281
-6.4838147 9.1472607 -2.1794205
-8.0197783 11.322547 -2.1975915
-10.549887 14.900138 -2.2416649
-15.263547 21.573441 -2.3120675
-30.261463 42.80312 -2.7472193
-4.6579938 6.6104708 -2.1668332
-5.4132986 7.6880713 -2.1707778
-6.4534473 9.1687098 -2.1794205
-7.9821892 11.349078 -2.1975915
-10.490966 14.927126 -2.2402024
-15.196508 21.630457 -2.3127646
-30.126249 42.913033 -2.7478473
-4.6393175 6.6330228 -2.1689036
-5.383081 7.7021265 -2.1694279
-6.4292717 9.2024479 -2.182092
-7.9357376 11.367156 -2.1957142
-10.443336 14.97017 -2.2411776
-15.125463 21.689911 -2.313462
-30.024218 43.086765 -2.7522435
-4.6161375 6.6491756 -2.1689036
-5.3517184 7.7144675 -2.1676283
-6.3993497 9.2280598 -2.1828551
-7.8960128 11.394786 -2.1957142
-10.384237 14.996737 -2.2397149
-15.047397 21.739298 -2.3131135
-29.825903 43.122326 -2.7478473
-30.46801 44.083519 -0.93537915
-4.5950928 6.6684294 -2.169939
-5.3280702 7.7379174 -2.168978
-6.3671002 9.2503395 -2.1828551
-7.8606639 11.428791 -2.1969659
-10.340818 15.045986 -2.2416649
-14.955619 21.768703 -2.310673
-29.749813 43.334843 -2.7547557
-30.356939 44.252258 -0.93670553
-4.5685139 6.6796455 -2.168386
-5.3032279 7.759686 -2.169878
-6.3270173 9.2611637 -2.1801836
-7.8274069 11.465947 -2.198843
-10.299425 15.098388 -2.2441022
-14.888527 21.833942 -2.3120675
-30.033457 44.110023 -0.93146986
-4.5429978 6.6923566 -2.1673508
-30.021402 44.241535 0.93325001
-5.2815809 7.7862129 -2.1721272
-6.3023615 9.2945681 -2.1828551
-7.7895546 11.496469 -2.1994689
-10.233306 15.114519 -2.2411776
-14.807757 21.879175 -2.3113701
-28.862503 42.677864 -2.7001169
-29.516521 43.677784 -0.92016071
-4.5206909 6.7097754 -2.1678684
-29.94944 44.468803 0.93583292
-5.2500148 7.7981372 -2.1703279
-6.2676883 9.3132524 -2.182092
