# .PCD v0.7 - Point Cloud Data file format
VERSION 0.7
FIELDS x y z
SIZE 4 4 4
TYPE F F F
COUNT 1 1 1
WIDTH 1515
HEIGHT 1
VIEWPOINT 0 0 0 1 0 0 0
POINTS 1515
DATA ascii
-3.7821817 6.9746175 -2.1259398
-4.4032288 8.1266413 -2.1338856
-5.2508302 9.6950216 -2.1431668
-6.4841714 11.982222 -2.1578572
-8.4285002 15.58818 -2.1758554
-12.271623 22.705355 -2.2580309
-3.7605588 6.9928803 -2.1274927
-4.3702211 8.1333809 -2.1316364
-5.2178874 9.7150192 -2.1435483
-6.4404349 12.001303 -2.1572316
-8.3759155 15.621004 -2.176343
-12.180991 22.726982 -2.2559392
-3.7324886 6.9991479 -2.1254222
-4.3418055 8.1485853 -2.1316364
-5.1913247 9.7470388 -2.1466014
-6.3985057 12.02371 -2.1572316
-8.2961712 15.602825 -2.1697619
-12.159563 22.878439 -2.2667465
-3.709842 7.0155482 -2.1264575
-4.3078747 8.1533527 -2.1289368
-5.153604 9.7581549 -2.1450748
-6.3564987 12.045971 -2.1572316
-8.1851835 15.524572 -2.1548939
-8.159605 15.482606 -1.531152
-3.6916082 7.0404325 -2.1300809
-4.2853341 8.1762238 -2.1311862
-5.1167755 9.7708683 -2.14393
-6.313766 12.061734 -2.1562929
-8.1078939 15.502379 -2.1480694
-11.949717 22.867418 -2.2573338
-3.6602197 7.0372105 -2.1254222
-4.2576685 8.1928616 -2.1316364
-5.0816331 9.7825556 -2.1427851
-6.2707167 12.081945 -2.1559801
-14.558812 28.062836 3.8817825
-8.1204453 15.659229 -2.1658623
-11.870157 22.899843 -2.2566366
-3.6329744 7.0447931 -2.1238692
-4.2254753 8.2007427 -2.1298366
-5.0492492 9.8037252 -2.1435483
-6.2303152 12.107272 -2.1566057
-14.342731 27.883995 3.8500965
-7.9949307 15.549778 -2.1468506
-11.781048 22.923414 -2.2548933
-3.6110015 7.062592 -2.1254222
-4.1968212 8.2154436 -2.1298366
-5.0212493 9.8335295 -2.1462197
-6.1844206 12.12191 -2.1553543
-14.295821 28.032923 3.8637462
-7.9974022 15.68901 -2.1622059
-11.706379 22.975052 -2.2559392
-3.5880747 7.078599 -2.1264575
-4.161953 8.2178755 -2.1266873
-4.9877825 9.8527479 -2.1466014
-6.1402836 12.1399 -2.1547287
-7.8100815 15.454617 -2.1261327
-11.63329 23.030005 -2.2573338
-3.5685463 7.1014385 -2.1295633
-4.1419873 8.2497673 -2.1311862
-4.9515953 9.8665895 -2.145838
-6.1040702 12.173619 -2.1569188
-7.7302971 15.430315 -2.1190643
-11.549267 23.063345 -2.2566366
-3.5368466 7.1000175 -2.1254222
-4.1105618 8.2589407 -2.1298366
-4.910131 9.8697519 -2.1427851
-6.0597835 12.191313 -2.1562929
-7.6737356 15.451874 -2.1183331
-11.463379 23.092808 -2.2555907
-3.5111837 7.1105886 -2.1249044
-4.081706 8.2732401 -2.1298366
-4.8791194 9.8938761 -2.1443117
-6.0180602 12.214165 -2.1566057
-7.6311522 15.501717 -2.1215017
-11.384453 23.136259 -2.2559392
-3.4846449 7.1193309 -2.1238692
-4.0551062 8.2884798 -2.1302865
-4.8462801 9.9143724 -2.1450748
-5.9662528 12.210979 -2.1525385
-7.6067042 15.582237 -2.1290576
-11.29663 23.161535 -2.2545447
-3.4660764 7.1412759 -2.1269751
-4.0193486 8.2885551 -2.1266873
-4.8116608 9.926857 -2.1443117
-5.9330597 12.251289 -2.1559801
-7.596355 15.699828 -2.1414883
-11.224971 23.209629 -2.2555907
-3.4419665 7.1550708 -2.1274927
-3.9937665 8.3095627 -2.1284869
-4.7803826 9.9506693 -2.145838
-5.8928256 12.277267 -2.1569188
-7.5294933 15.701189 -2.1380758
-11.142169 23.245073 -2.2552419
-3.4169676 7.1670432 -2.1274927
-3.9655724 8.3252134 -2.1289368
-4.7388654 9.9531174 -2.1427851
-5.8473854 12.292412 -2.1559801
-7.6084151 16.008863 -2.176343
-11.060953 23.283829 -2.2552419
-7.3357472 15.456011 -0.89661962
-3.392756 7.1806731 -2.1280103
-3.9373212 8.3407669 -2.1293867
-4.703258 9.9678211 -2.1424036
-5.8002319 12.303813 -2.1544156
-7.5288072 15.985037 -2.1695182
-11.016954 23.401609 -2.2629116
-3.3693104 7.195971 -2.1290457
-3.9057069 8.3491621 -2.128037
-4.6742578 9.9966259 -2.1450748
-5.7463813 12.300716 -2.1503484
-7.378089 15.807958 -2.1419756
-7.2255583 15.488187 -1.4952438
-3.3409169 7.2006793 -2.1269751
-3.8691611 8.3468342 -2.1239879
-4.6409831 10.016445 -2.145838
-5.7100449 12.335044 -2.1528513
-7.2803698 15.741727 -2.1295452
-7.1480374 15.462677 -1.4903631
-3.3141489 7.2087865 -2.1259398
-3.8416259 8.3638315 -2.1248875
-4.6027164 10.025447 -2.1443117
-5.6653018 12.35131 -2.1522255
-7.2253795 15.767042 -2.1295452
-7.0857172 15.469422 -1.4886199
-9.162261 20.03059 5.0852437
-9.0245457 19.747711 5.8177347
-3.2897644 7.2220697 -2.1264575
-3.8132169 8.3789644 -2.1253376
-4.5668774 10.039665 -2.14393
-5.6213388 12.36921 -2.1519127
-7.034061 15.492124 -2.0890844
-7.0234461 15.475918 -1.486877
-7.00633 15.452534 -0.88918805
-9.0520678 19.9737 5.0627484
-3.262152 7.2282257 -2.1249044
-3.7863498 8.3975515 -2.1266873
-4.5318065 10.055545 -2.14393
-5.5765085 12.385155 -2.1512871
-9.0071402 20.013752 2.6947751
-7.0915127 15.764601 -2.1224766
-10.536599 23.434042 -2.247921
-9.0146112 20.086552 -0.38430199
-3.2424219 7.2519131 -2.1285279
-3.7578065 8.4124985 -2.1271372
-8.9683638 20.086617 1.1528566
-4.4966807 10.071301 -2.14393
-5.5251918 12.386505 -2.1481583
-7.0194674 15.751184 -2.1173582
-8.9825058 20.165565 -1.9313713
-8.9178228 20.039169 -1.149507
-8.9184494 20.059423 -0.38318503
-3.2170863 7.2631874 -2.1285279
-3.7268434 8.421999 -2.1262374
-4.4638777 10.092325 -2.1450748
-5.4827218 12.407521 -2.1484711
-12.543685 28.400045 3.8120732
-6.9981179 15.85186 -2.1275952
-8.8573694 20.072845 -1.919518
-8.8768272 20.135967 -1.1532753
-8.838707 20.068468 -0.38276619
-3.1909354 7.2726054 -2.1280103
-3.6958556 8.4313889 -2.1253376
-4.4231043 10.095259 -2.1424036
-5.4441276 12.437444 -2.1503484
-12.404683 28.35273 3.7998865
-6.9331999 15.854362 -2.1246703
-10.320941 23.612471 -2.2545447
-8.7637978 20.088205 -0.38255677
-3.1709216 7.2961011 -2.1316338
-3.6664038 8.4442377 -2.1253376
-4.3870592 10.108835 -2.1420219
-5.3983254 12.450933 -2.1494098
-12.259862 28.290211 3.7857497
-6.8888583 15.903973 -2.1280825
-10.238461 23.648352 -2.2545447
-8.7249117 20.181396 -0.38377842
-3.1377976 7.289381 -2.1264575
-3.6429996 8.4670897 -2.128037
-4.3540735 10.129497 -2.1431668
-5.3523245 12.457879 -2.1475327
-12.148755 28.290581 3.7803874
-6.7883234 15.815454 -2.1132145
-10.160566 23.694931 -2.2555907
-3.1143637 7.3015237 -2.1269751
-3.6080761 8.467205 -2.1248875
-4.320456 10.143881 -2.1431668
-5.3057146 12.469213 -2.146281
-12.02506 28.274363 3.7725878
-6.6507521 15.645406 -2.0873783
-10.074137 23.710159 -2.2538474
-3.091114 7.3176875 -2.1285279
-3.5747118 8.4707708 -2.1226382
-4.2865491 10.162518 -2.14393
-5.2590909 12.480375 -2.1450298
-11.913198 28.285063 3.7684441
-6.6284437 15.74537 -2.0976152
-9.9804983 23.719467 -2.2514071
-3.0633171 7.3230863 -2.1269751
-3.5503793 8.4957848 -2.1257875
-4.2480197 10.170174 -2.1424036
-5.2170124 12.502305 -2.1456554
-11.791459 28.271513 3.761132
-6.5787921 15.781238 -2.0993216
-3.0414305 7.34266 -2.1295633
-3.5162327 8.4973211 -2.1230881
-4.2087436 10.175868 -2.1404953
-5.1748509 12.524089 -2.146281
-11.651789 28.213421 3.7479701
-6.48807 15.717862 -2.0878656
-3.012114 7.3442955 -2.1269751
-3.490242 8.5185604 -2.1253376
-4.1784029 10.203216 -2.1431668
-5.1266108 12.531108 -2.1444039
-11.541206 28.224525 3.7440703
-6.381341 15.613626 -2.0710478
-2.9893682 7.3619242 -2.1290457
-3.4590218 8.5270786 -2.1244378
-4.1368623 10.203183 -2.1401138
-5.0798745 12.541602 -2.1431525
-11.414313 28.194715 3.7348082
-6.3461633 15.683649 -2.0773852
-9.6311655 23.814024 -2.2473979
-2.9629328 7.3705201 -2.1285279
-3.4241498 8.5264435 -2.1212883
-4.1041493 10.224849 -2.1416404
-5.0345912 12.555593 -2.1425269
-11.30697 28.212273 3.7318833
-6.3400931 15.827328 -2.0934718
-9.5805588 23.928885 -2.2550676
-2.939328 7.3862042 -2.1300809
-3.3972478 8.5455866 -2.1230881
-4.0669799 10.235463 -2.140877
-4.9914651 12.574925 -2.1428397
-11.198166 28.225742 3.728471
-6.2965174 15.878886 -2.0973716
-9.5322142 24.051085 -2.2634346
-2.911401 7.3910275 -2.1285279
-3.3659718 8.5537653 -2.1221881
-4.0269122 10.238636 -2.1385872
-4.9475427 12.592272 -2.1428397
-11.067636 28.183361 3.7177465
-6.2163949 15.83794 -2.0890844
-9.4758463 24.154699 -2.2700584
-2.8848836 7.3993444 -2.1280103
-3.3367982 8.5672798 -2.1226382
-3.9911504 10.25263 -2.1385872
-4.8978267 12.594738 -2.1403368
-10.944746 28.158913 3.7094593
-6.0985303 15.698563 -2.0678792
-9.3943624 24.195055 -2.2707555
-2.8604302 7.4129744 -2.1290457
-3.3061733 8.5770559 -2.1221881
-3.9546344 10.264667 -2.1382058
-4.8517065 12.606225 -2.1393981
-10.846393 28.196943 3.7094593
-6.0301557 15.684551 -2.0632482
-9.3227186 24.261175 -2.2738934
-2.8352239 7.4247193 -2.1295633
-3.2720442 8.5776215 -2.119489
-3.9222741 10.287581 -2.1401138
-4.8062639 12.619393 -2.1387722
-10.706933 28.127031 3.6953225
-5.9831381 15.725913 -2.0659294
-9.2478809 24.319643 -2.2763338
-2.809974 7.436377 -2.1300809
-3.2462137 8.5999289 -2.1221881
-3.8773329 10.27733 -2.1351528
-4.7628837 12.637941 -2.1390851
-10.603094 28.149372 3.6933727
-5.9477944 15.798719 -2.0727541
-9.1755686 24.385338 -2.2794712
-2.778585 7.4316654 -2.1259398
-3.2148128 8.6075554 -2.1212883
-3.843492 10.296321 -2.1362975
-4.7173624 12.650788 -2.1384594
-10.489511 28.14529 3.6880105
-5.8641968 15.743117 -2.0627606
-9.1001167 24.443361 -2.2819116
-2.7499468 7.4340711 -2.1238692
-3.1860957 8.6223812 -2.1221881
-3.8082101 10.311516 -2.1366794
-4.6724863 12.665324 -2.1381464
-10.377472 28.144484 3.6831357
-5.7803707 15.6768 -2.0515487
-8.5795355 23.293388 -2.1717467
-2.7246132 7.4413362 -2.1233516
-3.152132 8.6182575 -2.1185889
-3.7685995 10.309337 -2.1336262
-4.6243658 12.664049 -2.1353307
-10.260938 28.115341 3.6748486
-5.7297101 15.699614 -2.0520363
-8.3916864 23.018469 -2.1435084
-15.49475 42.548317 -2.3731217
-2.704531 7.4630437 -2.1269751
-3.1208801 8.621336 -2.1167896
-3.7357299 10.325469 -2.1343896
-4.5843558 12.684889 -2.1362693
-10.154165 28.111872 3.6699739
-5.629714 15.594417 -2.0357056
-8.3126421 23.051367 -2.143857
-2.6745546 7.4656305 -2.1249044
-3.0933962 8.639514 -2.1185889
-3.6932342 10.326151 -2.1317184
-4.5371709 12.699744 -2.1359563
-10.03461 28.087324 3.662174
-5.6219759 15.744835 -2.0527673
-8.3097754 23.297928 -2.164077
-5.5126443 15.472765 -0.86082184
-2.6478314 7.4731007 -2.1243868
-3.0623579 8.6526318 -2.1190388
-3.6532359 10.327876 -2.1294286
-4.4941254 12.719232 -2.1365821
-9.9196911 28.090221 3.6577868
-5.5602627 15.754107 -2.0513051
-8.2388954 23.369568 -2.1679118
-2.6185095 7.4772849 -2.122834
-3.0340693 8.668787 -2.1203887
-3.6153598 10.341195 -2.1294286
-4.443572 12.724427 -2.1347051
-9.818965 28.117176 3.6568117
-5.4699163 15.672211 -2.0381432
-5.2438149 15.041289 -1.3936203
-2.5956402 7.4872994 -2.1233516
-3.0021152 8.6695938 -2.118139
-3.5886347 10.369199 -2.132863
-4.4022808 12.734591 -2.1340792
-9.6997471 28.074532 3.6470621
-5.4237428 15.707152 -2.0403366
-5.1815891 15.014369 -1.3896111
-2.5707397 7.49997 -2.1243868
-2.9686799 8.6708012 -2.1158895
-3.5498724 10.374232 -2.1313365
-4.3558879 12.744272 -2.1331406
-9.5695982 28.014297 3.6348755
-5.3592634 15.697807 -2.0366805
-5.1388016 15.060649 -1.3922259
-2.5457823 7.5125585 -2.1254222
-2.937772 8.6792641 -2.1154397
-3.5136352 10.386561 -2.1313365
-4.3120046 12.761271 -2.1334534
-9.4730139 28.051294 3.6353629
-5.3279271 15.786011 -2.0456991
-5.1301351 15.208761 -1.4042534
-2.5177038 7.515902 -2.1238692
-2.9105475 8.6987066 -2.1176891
-3.4717567 10.382006 -2.127902
-4.270565 12.785613 -2.1350179
-9.3763027 28.087955 3.6358504
-5.2413754 15.710361 -2.0335121
-5.1053786 15.311628 -1.4120973
-2.4890254 7.5173082 -2.1217985
-2.881391 8.7125139 -2.1185889
-3.4373465 10.399653 -2.1290469
-4.2246728 12.79669 -2.1343923
-9.2595453 28.063955 3.6285381
-5.1591468 15.645613 -2.0227876
-7.8764458 23.91411 -2.2027743
-2.4614546 7.526381 -2.1217985
-2.8497479 8.7188148 -2.1176891
-3.4016409 10.419648 -2.1305733
-4.1759019 12.806455 -2.1334534
-9.1479816 28.054588 3.6231759
-5.1149611 15.69561 -2.026931
-4.9401789 15.177258 -1.3964093
-2.4381397 7.5441189 -2.1243868
-2.8135803 8.7162209 -2.1145399
-3.3616345 10.420247 -2.1282835
-4.132988 12.826595 -2.1343923
-9.0231953 28.019903 3.6144013
-4.9217854 15.292862 -1.9725773
-4.8969274 15.22476 -1.3991983
-2.4106138 7.548903 -2.1233516
-2.7831397 8.7259884 -2.1145399
-3.3282189 10.441271 -2.1301918
-4.0875931 12.839061 -2.1340792
-8.9193068 28.032318 3.6119637
-4.8882203 15.372377 -1.9806207
-4.8811693 15.359486 -1.4100057
-2.3813436 7.5480595 -2.1207633
-2.7544217 8.7412243 -2.1158895
-3.2864468 10.435971 -2.1267571
-4.0415683 12.849482 -2.1334534
-8.8106918 28.02919 3.6075766
-4.9231806 15.671527 -2.0169377
-7.7160478 24.576817 -2.2536733
-2.3544085 7.554481 -2.1202457
-2.7230997 8.7428694 -2.11409
-3.2488291 10.443631 -2.125994
-3.9971731 12.857156 -2.132515
-8.6988401 27.997595 3.599777
-4.884131 15.729475 -2.0223
-7.6644344 24.713974 -2.2637832
-2.3293419 7.5622478 -2.1202457
-2.6919937 8.7504587 -2.1136403
-3.2193735 10.471236 -2.1294286
-3.9511118 12.867251 -2.1318891
-8.5917454 27.997421 3.5958769
-4.8425856 15.790078 -2.0279062
-7.5985479 24.807251 -2.2698841
-2.3049786 7.5818253 -2.1233516
-2.6597345 8.7542076 -2.1122904
-3.1775498 10.471693 -2.1271389
-3.9039211 12.881648 -2.1318891
-8.4766836 27.970253 3.5885649
-4.7834067 15.793589 -2.0262001
-7.495173 24.778322 -2.2648292
-2.2785008 7.5898242 -2.1233516
-2.6270692 8.7620316 -2.1118405
-3.1387255 10.475198 -2.1256123
-3.8589346 12.895196 -2.1318891
-8.3684292 27.982111 3.5861275
-4.6896791 15.69119 -2.0108442
-7.4074993 24.800512 -2.2644804
-2.249799 7.590322 -2.1212809
-2.5970228 8.773016 -2.1122904
-3.0982449 10.472912 -2.122941
-3.812222 12.902904 -2.1309505
-8.2729568 28.018766 3.5871027
-4.6303797 15.692235 -2.0088944
-7.2848239 24.703915 -2.2533245
-2.2227454 7.5962758 -2.1207633
-2.566381 8.7820282 -2.1122904
-3.0627666 10.487432 -2.1237042
-3.7660499 12.912341 -2.1303248
-8.1506538 27.963623 3.5763779
-4.5777993 15.715924 -2.0098693
-7.2041087 24.748322 -2.2550676
-2.1930013 7.5928512 -2.1176574
-2.5357122 8.7909327 -2.1122904
-3.0261421 10.498058 -2.1237042
-3.7209573 12.925407 -2.1303248
-8.0475111 27.972824 3.5739408
-4.535531 15.775685 -2.0154753
-7.0406451 24.505232 -2.230664
-2.1680708 7.6060352 -2.1192105
-2.5012739 8.7866116 -2.1091411
-2.9905505 10.512336 -2.1244676
-3.6741931 12.932617 -2.1293862
-7.9270396 27.920542 3.5637035
-4.4799352 15.779184 -2.0140131
-6.9164805 24.393564 -2.2182879
-2.1470251 7.6280589 -2.1233516
-2.4710696 8.7911053 -2.1082413
-2.9524906 10.510855 -2.1221778
-3.6323564 12.948533 -2.1300118
-7.8108373 27.862572 3.5529792
-4.4265165 15.790131 -2.0135255
-6.8377037 24.424038 -2.2189851
-2.1186123 7.6239696 -2.1202457
-2.4424267 8.8011284 -2.1086912
-2.9144678 10.509236 -2.1198881
-7.7368455 27.917095 2.5344889
-3.5883458 12.956699 -2.1293862
-7.6982703 27.815622 3.5437169
-4.3692503 15.797832 -2.0125504
-6.7195125 24.328688 -2.2081778
-4.2766466 15.494576 -0.84239966
-2.0881042 7.622366 -2.1176574
-2.4122024 8.8114805 -2.1091411
-2.8790388 10.53121 -2.1221778
-7.6197762 27.891447 2.5296082
-3.5387492 12.962143 -2.1281347
-7.5990434 27.834661 3.5427423
-4.3119922 15.805326 -2.0115755
-6.1254926 22.483494 -2.0387471
-4.2093439 15.471602 -0.84030622
-2.061486 7.6296082 -2.1176574
-7.5265641 27.875362 0.50399059
-2.3778617 8.8127365 -2.1073413
-7.517231 27.860062 1.5123
-2.8412406 10.537404 -2.1214147
-7.5005918 27.837076 2.5222871
-3.4904022 12.962972 -2.1262577
-7.4856315 27.820154 3.5373797
-4.2442369 15.784603 -2.0069444
-6.4523158 24.013264 -2.1754072
-4.1501322 15.466913 -0.83925951
-7.4825788 27.905834 -0.50430477
-2.0348392 7.6367583 -2.1176574
-7.4294567 27.882774 0.50367641
-2.3481205 8.8186903 -2.1068916
-7.4199276 27.886133 1.5123
-2.8044381 10.547258 -2.1214147
-7.4310107 27.96707 2.5317001
-3.4484069 12.978293 -2.1268833
-7.4045358 27.887035 3.5427423
-4.1801639 15.754458 -2.0013385
-6.4118233 24.199347 -2.1902237
-4.0978003 15.476728 -0.83905017
-7.3820491 27.920187 -0.50409532
-2.0119612 7.6528063 -2.1202457
-7.3671479 28.041988 0.50608486
-2.3168302 8.8249474 -2.1064417
-2.7664595 10.545106 -2.1191249
-3.4035869 12.992162 -2.1271961
-4.1356983 15.809283 -2.0064571
-6.0599413 23.181494 -2.0962698
-4.0669518 15.579832 -0.84386504
-7.3429294 28.149614 -0.50779521
-1.9823257 7.6485624 -2.1171398
-2.2890165 8.8382425 -2.1077914
-2.7252064 10.537592 -2.1156902
-3.3585041 12.995728 -2.1259446
-4.0763021 15.796003 -2.0030446
-6.259881 24.292595 -2.1947558
-3.9843891 15.473313 -0.83737534
-6.7899609 26.406872 -0.47592711
-1.9532259 7.6460762 -2.1145515
-2.2566092 8.8465729 -2.1077914
-2.689379 10.550845 -2.1164536
-3.3113399 13.009865 -2.1262577
-4.0198493 15.816607 -2.0037761
-6.1771789 24.340479 -2.197022
-6.7045045 26.437696 -1.4293998
-6.684299 26.396687 -0.47529885
-1.9247189 7.65131 -2.1140339
-2.2238126 8.8468361 -2.1059918
-2.6506925 10.560632 -2.1164536
-3.2602689 13.008501 -2.1240675
-3.9641356 15.828616 -2.0035322
-6.0960374 24.377357 -2.1984165
-6.599328 26.429153 -1.4276204
-6.5872684 26.400457 -0.47494978
-1.8998561 7.665483 -2.1161046
-2.1904337 8.8511438 -2.105092
-2.6133387 10.567914 -2.1160717
-3.2143638 13.017884 -2.1237545
-3.896111 15.802566 -1.9984137
-5.9966025 24.340454 -2.193187
-6.4994049 26.420996 -1.4259456
-6.4847436 26.401119 -0.47453094
-1.8730849 7.6720686 -2.1161046
-2.1599917 8.8606291 -2.1055419
-2.5745726 10.569343 -2.1145453
-3.1689124 13.029023 -2.1237545
-3.83249 15.781349 -1.9940264
-5.8542976 24.125017 -2.1719213
-6.4043102 26.431877 -1.4253175
-6.3850169 26.3925 -0.47397244
-1.8458468 7.6766806 -2.115587
-2.1290469 8.8681154 -2.1055419
-2.5317166 10.553446 -2.1095843
-3.1257105 13.049612 -2.1253188
-3.7976899 15.867334 -2.0032885
-5.784862 24.207317 -2.1774991
-6.3018136 26.411327 -1.4230148
-6.2909737 26.386292 -0.4734838
-1.8172599 7.6696019 -2.1119635
-2.1018682 8.8846092 -2.1077914
-2.4985096 10.569426 -2.1111107
-3.0810544 13.054138 -2.1243804
-3.7477956 15.89143 -2.004751
-5.3794098 22.845552 -2.0533893
-6.2087159 26.408747 -1.4217587
-6.1942854 26.368078 -0.47278571
-1.7940137 7.6849909 -2.1145515
-2.0706265 8.8839388 -2.1059918
-2.4630032 10.57574 -2.1107292
-3.0368562 13.060434 -2.1237545
-3.7053156 15.960492 -2.0118194
-5.6358914 24.295614 -2.1820312
-6.1138897 26.398062 -1.420084
-6.0981565 26.372002 -0.47247154
-1.7680404 7.6949735 -2.115587
-2.0387335 8.8873129 -2.105092
-2.4247534 10.578534 -2.1095843
-2.9960985 13.092137 -2.1271961
-3.6747794 16.083639 -2.0257125
-5.5217872 24.186939 -2.1705265
-6.0145974 26.388086 -1.4184092
-5.9976392 26.356081 -0.47180834
-1.7424488 7.7067494 -2.1171398
-2.0076962 8.8943748 -2.105092
-2.3886735 10.590764 -2.1103475
-2.9473391 13.089026 -2.125006
-3.6255844 16.127356 -2.0296123
-5.3685179 23.919298 -2.1447284
-5.915462 26.377739 -1.4167345
-5.8959837 26.333927 -0.47104046
-1.712512 7.7055411 -2.1150692
-1.9766387 8.901329 -2.105092
-2.3426194 10.566863 -2.1038601
-2.9010561 13.107456 -2.1262577
-3.6001322 16.279465 -2.0471613
-5.2188482 23.638281 -2.1178844
-5.8144379 26.37974 -1.4156878
-5.7997298 26.334818 -0.47069141
-1.6843684 7.7058105 -2.1135163
-1.9448292 8.912323 -2.1059918
-2.3078129 10.584566 -2.1057682
-2.8540208 13.111712 -2.1253188
-3.4679337 15.958902 -2.0052383
-5.1455979 23.699188 -2.1217194
-5.716825 26.374498 -1.414327
-5.7115712 26.372492 -0.47100553
-1.6574577 7.7116437 -2.1135163
-1.9144477 8.9149122 -2.105092
-2.2696147 10.5868 -2.1046233
-2.8101139 13.119173 -2.125006
-3.4332604 16.055729 -2.0159631
-4.8997965 22.953197 -2.0533893
-5.6809983 26.635523 -1.4273063
-5.6952777 26.748232 -0.47735822
-1.6354707 7.734108 -2.118175
-1.881709 8.9139128 -2.1032922
-2.2348971 10.596189 -2.105005
-2.7630842 13.123102 -2.1240675
-3.399648 16.174461 -2.0293684
-5.2754178 25.142384 -2.2475724
-5.6535487 26.967955 -1.4440539
-1.6067218 7.7381582 -2.1176574
-1.8513714 8.924243 -2.104192
-2.1948533 10.598542 -2.1038601
-2.7113645 13.115732 -2.1212516
-3.3182757 16.065695 -2.0142565
-5.1836042 25.14113 -2.2458291
-9.0076237 43.765335 -2.3417203
-1.5789266 7.7399349 -2.1166222
-1.8194298 8.9347878 -2.105092
-2.1539271 10.586901 -2.100044
-2.664782 13.121243 -2.120626
-3.0720232 15.153631 -1.8984808
-5.0546856 24.955984 -2.2277007
-1.5511458 7.7416101 -2.115587
-1.790171 8.9426842 -2.1055419
-2.1154273 10.586652 -2.0985174
-2.6212521 13.130009 -2.120626
-3.0221534 15.16568 -1.8987246
-4.9900799 25.086817 -2.2378109
-1.5209841 7.7239656 -2.1093752
-1.7578143 8.9431419 -2.104192
-2.0806847 10.595536 -2.0988991
-2.5735004 13.129387 -2.1190615
-2.9829142 15.246271 -1.9074991
-4.8948483 25.064974 -2.2343247
-1.4985228 7.7598372 -2.1176574
-1.7251158 8.9415693 -2.1023927
-2.0429468 10.608875 -2.100044
-2.5249918 13.136791 -2.1187487
-3.1430528 16.367792 -2.0464303
-4.6730523 24.381384 -2.1719213
-1.4714283 7.7650204 -2.1176574
-1.6937736 8.9554911 -2.104192
-2.0069981 10.621728 -2.1011887
-2.4787507 13.143584 -2.1184359
-3.0536678 16.223135 -2.026931
-4.7484508 25.251266 -2.247921
-8.2557087 43.986542 -2.3454885
-1.4450186 7.7739096 -2.1186929
-1.6654961 8.9687223 -2.1059918
-1.9681177 10.619019 -2.0992808
-2.4376779 13.165327 -2.120626
-2.9991271 16.229267 -2.0264435
-4.6386132 25.150124 -2.237462
-8.145978 44.210098 -2.3559556
-1.4174992 7.7691555 -2.1161046
-1.634177 8.9744816 -2.1059918
-1.9325438 10.623555 -2.0988991
-2.3909984 13.16987 -2.1200001
-2.9870553 16.485752 -2.0571547
-4.6034431 25.432001 -2.2611687
-7.3404422 40.633636 -2.1639874
-1.3910528 7.7778592 -2.1171398
-1.6028378 8.9801321 -2.1059918
-1.8954512 10.630236 -2.0988991
-2.3436244 13.170356 -2.1187487
-2.8927023 16.2889 -2.0313184
-4.4025688 24.816231 -2.2050402
-7.1894956 40.60788 -2.1612659
-1.364226 7.7845702 -2.1176574
-1.5701405 8.977993 -2.104192
-1.8590058 10.640655 -2.0996623
-2.295604 13.16678 -2.1168714
-2.8126831 16.165911 -2.0147443
-4.3377576 24.957075 -2.2161963
-7.2607002 41.86068 -2.2265811
-1.3383535 7.7969012 -2.1197281
-1.5394518 8.9872608 -2.105092
-1.8208554 10.641273 -2.0985174
-2.2499645 13.17666 -2.1171842
-2.8052559 16.463293 -2.0505736
-4.2552886 24.999565 -2.2186365
-7.1332731 41.996037 -2.2324429
-1.308486 7.7941337 -2.1176574
-1.5084312 9.0043745 -2.1077914
-1.7802235 10.638196 -2.0966094
-2.2026274 13.190664 -2.1181231
-2.6998668 16.203247 -2.0169377
-4.0753136 24.484346 -2.1715724
-6.8870115 41.466286 -2.2029254
-1.2806468 7.7948408 -2.1166222
-1.4757273 9.001893 -2.1059918
-1.7430805 10.644344 -2.0966094
-2.1559293 13.194373 -2.1174972
-2.5934625 15.906933 -1.9789146
-4.0506663 24.872057 -2.2046916
-6.6582999 40.973564 -2.1755011
-1.2497493 7.7763748 -2.1104105
-1.4449191 9.0108356 -2.1068916
-1.7065324 10.654242 -2.0973725
-2.1073742 13.186213 -2.1149943
-2.5954337 16.276588 -2.0237625
-3.956944 24.842754 -2.2008567
-6.5515871 41.225372 -2.1876433
-1.2264935 7.8055005 -2.1171398
-1.4144233 9.0117292 -2.1059918
-1.6693289 10.660133 -2.0973725
-2.0618005 13.181418 -2.113117
-2.5374606 16.259609 -2.0205939
-6.5019994 41.807358 -2.21737
-1.1997274 7.8037958 -2.115587
-1.3841373 9.0243168 -2.1077914
-1.6327823 10.657847 -2.0958462
-2.0163696 13.192441 -2.1137428
-2.5100253 16.460684 -2.0444803
-3.8387399 25.203959 -2.2304897
-6.4346633 42.347134 -2.2447941
-1.1716169 7.8022046 -2.1140339
-1.355073 9.0346384 -2.1091411
-1.5958623 10.665422 -2.0962276
-1.9717374 13.193194 -2.1128042
-2.4589341 16.492477 -2.0474052
-3.7870786 25.461576 -2.2521045
-6.291254 42.348488 -2.2437472
-1.1457391 7.8060465 -2.1140339
-1.3226829 9.0335293 -2.1077914
-1.5610559 10.674541 -2.0969911
-1.9236791 13.186313 -2.1106141
-2.4082062 16.548107 -2.0532548
-3.6997752 25.454273 -2.2503612
-6.0539632 41.753494 -2.2110896
-1.1182081 7.8080869 -2.1135163
-1.2911396 9.0380917 -2.1077914
-1.5240599 10.68187 -2.0973725
-1.8768003 13.187082 -2.1096754
-7.1739402 50.469856 6.2592096
-2.361871 16.636992 -2.0632482
-3.5538356 25.06461 -2.2148015
-5.8326716 41.240421 -2.1828282
-1.0906804 7.810029 -2.1129987
-1.2576984 9.0290327 -2.1046422
-1.4875777 10.692958 -2.0985174
-1.8299392 13.187682 -2.1087368
-2.2904506 16.548782 -2.0513051
-3.4968705 25.297913 -2.2343247
-5.8027143 42.087559 -2.2265811
-6.9839592 50.786236 -0.8948198
-1.0634096 7.8137889 -2.1129987
-1.2269619 9.0391607 -2.1059918
-1.4497129 10.694195 -2.0977542
-1.7823092 13.182243 -2.1068597
-2.2297482 16.535038 -2.0486238
-3.2293191 23.979107 -2.1168387
-5.5935392 41.644363 -2.2020879
-6.7763577 50.584362 -0.89084065
-1.0366371 7.8212833 -2.1140339
-1.1969359 9.0549793 -2.1086912
-1.4110919 10.689458 -2.0958462
-1.7362865 13.188384 -2.1068597
-2.1722782 16.544687 -2.0488675
-3.3478293 25.567251 -2.2559392
-5.4642034 41.786419 -2.2085774
-1.0064808 7.8135338 -2.1109281
-1.1648256 9.0552368 -2.1077914
-1.3724006 10.698454 -2.0966094
-1.6874323 13.190742 -2.1062338
-2.1223068 16.613213 -2.0564234
-3.0274317 23.764431 -2.0959213
-5.3502879 42.115253 -2.2249064
-0.97848171 7.8112493 -2.1093752
-1.131143 9.0555773 -2.1068916
-13.459137 107.74963 5.6908031
-1.3355359 10.707075 -2.0973725
-1.6399176 13.184791 -2.1043568
-2.0584738 16.597239 -2.0534985
-2.9185073 23.565262 -2.0774441
-0.95400846 7.8376303 -2.115587
-1.1006348 9.0554104 -2.1059918
-13.071412 107.70079 5.6857791
-1.2995673 10.723366 -2.0996623
-1.5961826 13.190156 -2.1043568
-1.9839205 16.442369 -2.0335121
-2.8271933 23.500134 -2.0708203
-4.9762874 41.424919 -2.1865964
-0.92710596 7.8330765 -2.1135163
-1.0694773 9.0630665 -2.1068916
-12.687878 107.68229 5.6824293
-1.262624 10.715918 -2.0973725
-1.5505943 13.19957 -2.1049824
-1.950763 16.656214 -2.0591044
-2.9427073 25.163748 -2.2165449
-4.9038086 42.060993 -2.2192543
-0.89975941 7.8362646 -2.1135163
-1.0373893 9.0628738 -2.1059918
-12.303778 107.65449 5.6786613
-1.2256589 10.72416 -2.0981357
-1.5042826 13.20294 -2.1046696
-1.8554245 16.335501 -2.0186441
-2.8591104 25.211481 -2.2198567
-4.7551918 42.061966 -2.2184167
-0.86876577 7.8067174 -2.1047165
-1.0061835 9.0703125 -2.1068916
-1.1884303 10.730325 -2.0985174
-1.4573287 13.200256 -2.1034181
-1.8337818 16.663507 -2.0583735
-2.6533852 24.149868 -2.1255541
-4.6122427 42.114056 -2.2203009
-0.84481937 7.840435 -2.1129987
-0.97409755 9.0698948 -2.1059918
-1.1503366 10.728553 -2.0973725
-1.4101893 13.195442 -2.1018538
-1.7789718 16.701387 -2.0622733
-2.6948416 25.341772 -2.2296181
-4.4652181 42.129898 -2.2203009
-0.81765163 7.8452568 -2.1135163
-0.94162405 9.065486 -2.104192
-1.1138997 10.742265 -2.0992808
-1.3641164 13.200285 -2.1018538
-1.7259452 16.758839 -2.0686104
-2.6053402 25.341116 -2.2287467
-4.2940974 41.910778 -2.2079496
-0.79103374 7.8557525 -2.115587
-0.90958655 9.0648394 -2.1032922
-1.0769796 10.751947 -2.1004255
-1.3184257 13.208898 -2.1024795
-1.6660557 16.750935 -2.0669043
-2.5152981 25.334194 -2.2273521
-4.1615286 42.06464 -2.2152767
-0.76117992 7.8334689 -2.1088579
-0.87868762 9.0757189 -2.105092
-1.0383109 10.743917 -2.0981357
-1.2715492 13.205554 -2.101228
-1.6108896 16.760317 -2.0673916
-2.4234242 25.307121 -2.2242146
-4.0139403 42.070957 -2.2148581
-0.736821 7.8532605 -2.1135163
-0.84858841 9.0785818 -2.105092
-1.0030389 10.751212 -2.0988991
-1.2270224 13.20183 -2.0999765
-2.3543458 25.475718 -2.2383337
-3.8699999 42.036304 -2.2123458
-0.70973164 7.8441167 -2.1104105
-0.81830066 9.0794067 -2.1046422
-9.6845551 107.45441 5.6542726
-0.96826255 10.764255 -2.1008072
-1.1828805 13.201892 -2.0993509
-2.2468657 25.225395 -2.2156732
-3.7178612 41.905666 -2.2048094
-0.68505514 7.8618236 -2.1145515
-0.78818965 9.0820694 -2.1046422
-9.3238754 107.43618 5.6516557
-0.93238932 10.76545 -2.1004255
-1.1384186 13.197869 -2.0980992
-1.4505384 16.85067 -2.0766537
-2.1902673 25.54834 -2.2433889
-3.5809236 41.941639 -2.2060654
-0.65639788 7.8662062 -2.1150692
-0.75441474 9.0790701 -2.1032922
-8.9070158 107.41943 5.6489344
-0.89227927 10.760971 -2.0988991
-1.09036 13.205891 -2.0987251
-1.393312 16.947121 -2.0878656
-2.0979099 25.572081 -2.2447832
-3.4411697 42.125679 -2.2150671
-0.62708658 7.8453422 -2.1088579
-0.72302938 9.0855341 -2.104192
-8.5254879 107.36824 5.6446428
-0.85470819 10.76402 -2.0988991
-1.0437983 13.203708 -2.0977864
-1.3372574 16.991461 -2.0927405
-2.0067797 25.55541 -2.2426915
-3.2934685 42.129471 -2.2146485
-0.60116726 7.8667455 -2.1140339
-0.69145596 9.0899458 -2.1046422
-8.1472969 107.35354 5.6423402
-0.81653231 10.759107 -2.0973725
-0.99710369 13.199391 -2.096535
-1.1317805 15.052153 -1.8533891
-1.9272434 25.691404 -2.2540219
-3.1413424 42.07299 -2.2110896
-0.57286614 7.857235 -2.1109281
-0.65929633 9.0864725 -2.1032922
-7.7710004 107.35941 5.6411886
-0.77912015 10.763848 -2.0977542
-0.94988424 13.187031 -2.094032
-1.0796536 15.061953 -1.8541204
-1.8112558 25.330322 -2.2217741
-2.9799905 41.880493 -2.2004132
-0.54583496 7.8649693 -2.1124811
-0.62703955 9.0809422 -2.1014926
-0.74194449 10.77238 -2.0988991
-0.90425497 13.196177 -2.0949705
-1.7274264 25.404074 -2.2277007
-2.8421288 42.014191 -2.206903
-0.51876044 7.8726091 -2.1140339
-0.59533489 9.0830755 -2.1014926
-0.70369923 10.765108 -2.0969911
-0.85754198 13.189399 -2.0934062
-2.7195182 42.398567 -2.2265811
-0.49019203 7.8570194 -2.1093752
-0.56363165 9.0850983 -2.1014926
-0.66562992 10.75966 -2.0954645
-0.81211257 13.202168 -2.0949705
-0.97398174 15.924431 -1.9589281
-1.5484537 25.389662 -2.2254345
-2.5475564 42.013073 -2.2058561
-0.46276084 7.8586826 -2.1093752
-0.53225458 9.0928469 -2.1028426
-0.62829351 10.765838 -2.0962276
-0.76579118 13.200979 -2.0943449
-0.92090642 15.971332 -1.9642901
-1.4597089 25.392923 -2.2252605
-2.4141121 42.25301 -2.217998
-0.43575883 7.8679652 -2.1114457
-0.50072312 9.0985413 -2.1037421
-0.59071219 10.767965 -2.0962276
-0.71884292 13.187793 -2.0918419
-0.92816162 17.137993 -2.1073649
-1.3796473 25.557024 -2.2392054
-2.2561131 42.065731 -2.2077403
-0.40889031 7.8810139 -2.1145515
-0.46836039 9.0885563 -2.1010427
-0.55322438 10.771924 -2.0966094
-0.6730085 13.194167 -2.0924675
-0.8022449 15.836612 -1.9469848
-1.2986708 25.724854 -2.2534988
-0.38100621 7.8746758 -2.1124811
-0.43634966 9.0842962 -2.0996931
-0.51496524 10.760061 -2.0939381
-0.62666345 13.190516 -2.0915291
-0.74930108 15.888887 -1.9530783
-1.2113843 25.782965 -2.2582054
-1.9938312 42.754799 -2.2431192
-0.35282105 7.8605185 -2.1083403
-0.40657261 9.0934801 -2.1014926
-0.47713861 10.755909 -2.0927932
-0.58257252 13.184628 -2.0902774
-0.70026189 15.974578 -1.9633152
-1.1064947 25.444668 -2.2282238
-1.8449621 42.597553 -2.2345362
-0.32707134 7.8693652 -2.1104105
-0.37458915 9.0890045 -2.100143
-0.44130415 10.75351 -2.09203
-0.53703064 13.198423 -2.0921547
-0.63889086 15.838081 -1.9462537
-1.0345098 25.756769 -2.2552419
-1.7060989 42.851196 -2.2475154
-0.29901397 7.8550158 -2.1062696
-0.34285793 9.0902557 -2.100143
-0.40398794 10.76087 -2.0931747
-0.49051225 13.188374 -2.0902774
-0.60275406 16.359959 -2.0101132
-0.94415063 25.748276 -2.2541959
-1.5456451 42.557499 -2.2318146
-0.27186167 7.8637347 -2.1083403
-0.31072259 9.0797119 -2.0974436
-0.36669248 10.770062 -2.0947013
-0.44446975 13.190006 -2.0902774
-0.5353179 16.05246 -1.9720899
-0.85597718 25.803188 -2.258728
-1.3951055 42.50275 -2.2286747
-0.24506842 7.8858752 -2.1140339
-0.27902848 9.0807409 -2.0974436
-0.3283734 10.747729 -2.0901217
-0.39836851 13.189503 -2.0899646
-0.76703054 25.843859 -2.2620401
-0.2171156 7.8712335 -2.1098928
-0.24737972 9.0836077 -2.0978935
-0.29064465 10.740959 -2.0885954
-0.35226983 13.188838 -2.0896518
-0.45897332 17.411152 -2.1385634
-0.67550325 25.796587 -2.2576823
-1.1029062 42.687157 -2.2378857
-0.18986908 7.8816009 -2.1124811
-0.21549174 9.076623 -2.0960939
-0.2532396 10.745834 -2.0893586
-0.30614743 13.186038 -2.0890262
-0.39696428 17.359066 -2.1319826
-0.58443034 25.752975 -2.2536733
-0.95709449 42.834515 -2.2454221
-0.16179694 7.855175 -2.1052344
-0.18384415 9.0792694 -2.0965438
-0.21584342 10.752542 -2.0905035
-0.25995836 13.179126 -2.0877745
-0.32821849 16.939585 -2.0803099
-0.48664588 25.344501 -2.2177651
-0.81488061 43.224991 -2.2657285
-0.13457994 7.8672814 -2.1083403
-0.1519848 9.0701122 -2.0942943
-0.1782836 10.751266 -2.0901217
-0.21369304 13.164152 -2.0852716
-0.26214588 16.503962 -2.0266874
-0.3966026 25.246437 -2.2090495
-0.66477823 43.279495 -2.2684498
-0.10727287 7.8792925 -2.1114457
-0.12042858 9.0783815 -2.0960939
-0.14059652 10.740045 -2.0878322
-0.16779336 13.168768 -2.0858974
-0.21648483 17.469458 -2.1451445
-0.30030027 24.578276 -2.1504807
-0.079770014 7.8796191 -2.1114457
-0.088755004 9.0806961 -2.0965438
-0.1029951 10.728691 -2.0855424
-0.12191263 13.179151 -2.0874617
-0.15493262 17.4046 -2.1371009
-0.22336483 25.595255 -2.2393796
-0.36278155 43.303051 -2.2694967
-0.052236795 7.8759861 -2.1104105
-0.057046581 9.0790014 -2.0960939
-0.065565482 10.732912 -2.0863059
-0.075808436 13.161717 -2.0846457
-0.094463632 17.458632 -2.1436818
-0.12812001 24.468199 -2.1407192
-0.21219872 43.419895 -2.2755678
-0.024735989 7.8741884 -2.1098928
-0.025356514 9.0791454 -2.0960939
-0.028107647 10.737002 -2.087069
-0.029843574 13.154001 -2.0833945
-0.044733413 25.632051 -2.2425172
-0.060453162 43.284557 -2.2684498
0.0013678783 7.8587732 -2.105752
0.0047475472 9.0674877 -2.0933945
0.0074928016 10.733109 -2.0863059
0.013774197 13.154028 -2.0833945
0.023658101 16.944733 -2.0805535
0.044921793 25.739641 -2.25193
0.083287627 43.38438 -2.2736833
0.030259069 7.8799648 -2.1114457
0.036404867 9.0693636 -2.0938444
0.046800043 10.725157 -2.0847793
0.061927266 13.142036 -2.0815172
0.13458687 25.705456 -2.2489667
0.24271145 43.455685 -2.2774518
0.057533115 7.8489027 -2.1031637
0.069647826 9.069169 -2.0938444
0.084199332 10.721003 -2.0840161
0.10788568 13.151617 -2.0830817
0.14959669 17.491993 -2.1478255
0.2131943 24.42975 -2.1374075
0.39373693 43.382675 -2.2736833
0.084807217 7.8370638 -2.1000578
0.10132456 9.0708189 -2.0942943
0.12162496 10.720642 -2.0840161
0.15365139 13.139309 -2.0812044
0.2094875 17.394102 -2.1358824
0.31321394 25.636156 -2.2430403
0.54191715 43.12141 -2.260076
0.11246937 7.8579683 -2.105752
0.13316086 9.0821018 -2.0969937
0.15910734 10.724079 -2.0847793
0.19924872 13.120915 -2.0783885
0.27133185 17.466705 -2.1449006
0.40270579 25.634907 -2.2430403
0.6907385 43.015415 -2.2546332
0.13979328 7.8517327 -2.1041989
0.1628903 9.0601778 -2.0920448
0.19661009 10.727384 -2.0855424
0.2426459 13.114257 -2.07745
0.33153921 17.586779 -2.1597686
0.49858028 25.966013 -2.2721503
0.84848017 43.791676 -2.2954552
0.16627696 7.8724718 -2.1098928
0.19438782 9.053709 -2.0906951
0.23184025 10.71097 -2.0824895
0.28854927 13.119255 -2.0783885
0.39053664 17.478346 -2.1466067
0.58467877 25.964216 -2.2721503
1.0051837 43.956173 -2.3042479
0.19366305 7.867981 -2.1088579
0.22618692 9.0607672 -2.0924947
0.2690326 10.702245 -2.0809629
0.33424512 13.114219 -2.0777628
0.45113125 17.461002 -2.1446569
0.67732221 26.039692 -2.2789483
1.1520778 43.704819 -2.2912683
0.22085319 7.8576016 -2.1062696
0.25781593 9.0599222 -2.0924947
0.30655512 10.707129 -2.0821078
0.37985206 13.107049 -2.0768242
0.51498491 17.558533 -2.1568437
0.75599849 25.622932 -2.2426915
1.3031895 43.652622 -2.2887564
0.24809901 7.8509893 -2.1047165
0.28937528 9.0570202 -2.0920448
0.34374183 10.700106 -2.0809629
0.42502207 13.087873 -2.0740085
0.82019645 24.855476 -2.175756
1.434667 43.021015 -2.2558894
0.27577198 7.8577986 -2.1067872
0.32050329 9.0423222 -2.0888956
0.38137245 10.706689 -2.0824895
0.47063091 13.084336 -2.0736954
0.62537789 17.21925 -2.1156518
0.94465882 25.885824 -2.2662234
1.5977627 43.367023 -2.2743115
0.3035737 7.8664403 -2.1093752
0.35206303 9.0411482 -2.0888956
0.41835752 10.695484 -2.0805814
0.51653188 13.088535 -2.0746341
0.63020402 15.828497 -1.9450349
1.0329485 25.830608 -2.2616913
1.7430253 43.209511 -2.2663565
0.33070424 7.8576121 -2.1073048
0.38387069 9.0457058 -2.0902452
0.45543623 10.688075 -2.0794365
0.56213492 13.084679 -2.0743213
0.75742936 17.48815 -2.1492879
1.1319314 26.029877 -2.2794712
1.8899866 43.115372 -2.2617509
0.35716113 7.8351822 -2.1016109
0.41544616 9.0443106 -2.0902452
0.49273953 10.68642 -2.0794365
0.60735071 13.072771 -2.072757
1.2237278 26.04567 -2.2812145
2.0474753 43.256142 -2.2694967
0.38432145 7.8300281 -2.1005754
0.44710848 9.0447512 -2.0906951
0.52984738 10.680713 -2.0786731
0.65228677 13.056761 -2.0705669
0.7504456 14.916969 -1.83389
1.3127227 26.003433 -2.2779024
2.1913686 43.109104 -2.2621696
0.41205516 7.8363557 -2.1026461
0.47785616 9.0275679 -2.087096
0.56712967 10.678798 -2.0786731
0.69796836 13.056377 -2.0708797
0.80100751 14.886509 -1.8304777
1.3781443 25.529171 -2.2367649
2.3472223 43.200905 -2.2674031
0.43973321 7.8406558 -2.1041989
0.5096885 9.031682 -2.0884457
0.60439986 10.676753 -2.0786731
0.74330562 13.049916 -2.0702538
0.85421956 14.905422 -1.8331589
1.4910396 25.937939 -2.2730217
2.4947898 43.13662 -2.2644722
0.46664202 7.8313599 -2.1021285
0.5410977 9.0279026 -2.0879958
0.6416679 10.674578 -2.0786731
0.7895726 13.059072 -2.0721312
0.99058717 16.289352 -2.0037761
1.5718502 25.773483 -2.2590768
2.6543889 43.275166 -2.272218
0.49409199 7.8316112 -2.1026461
0.57322699 9.0356827 -2.0902452
0.67817008 10.660519 -2.0763836
0.83389497 13.036524 -2.0690024
1.0127901 15.746964 -1.937479
1.6797652 26.046192 -2.2834804
2.8100955 43.337391 -2.2759864
0.52168524 7.8336935 -2.1036813
0.60437143 9.0277929 -2.0888956
0.71538091 10.658087 -2.0763836
0.87899411 13.02762 -2.0680637
1.1934841 17.597118 -2.1656184
1.7793186 26.167391 -2.2946362
2.9365785 42.964661 -2.2569358
0.54916012 7.8337517 -2.1041989
0.63533527 9.0178528 -2.087096
0.75258303 10.655524 -2.0763836
0.92376786 13.014622 -2.0664995
1.2386479 17.365141 -2.1375885
1.8521824 25.90267 -2.2719758
3.1197362 43.416321 -2.28122
0.57579476 7.822155 -2.1016109
0.66637647 9.0097504 -2.085746
0.78948063 10.648916 -2.0756204
0.96889555 13.007378 -2.0658739
1.2502235 16.705477 -2.056911
1.9408066 25.872204 -2.2698841
3.27156 43.409153 -2.2814293
0.60473168 7.8412838 -2.1073048
0.69902456 9.022913 -2.0893452
0.82573837 10.634351 -2.0733306
1.0147582 13.009824 -2.0668125
1.3620201 17.383776 -2.1410007
2.0357795 25.924862 -2.2751136
3.3938456 43.02713 -2.2619603
0.63007909 7.8140926 -2.1005754
0.73004663 9.0145903 -2.0879958
0.86253428 10.62749 -2.0725675
1.059841 13.002265 -2.0661867
2.1485746 26.18964 -2.2989943
3.5066371 42.561184 -2.238095
0.65550154 7.8061848 -2.0990226
0.75977486 9.0101786 -2.0875459
0.89942259 10.644135 -2.0763836
1.1024548 12.992773 -2.065248
1.3527513 15.876812 -1.9564906
2.2405026 26.241926 -2.3042235
3.5979524 41.968246 -2.2075307
0.68325341 7.8096228 -2.1005754
0.79070812 9.001647 -2.0861959
0.93571419 10.631152 -2.0744755
1.1469291 12.979008 -2.0636837
1.4025463 15.808719 -1.948691
2.3301439 26.212114 -2.3023059
3.7053583 41.517776 -2.1845031
0.7113837 7.8168097 -2.1031637
0.82177269 8.9949503 -2.0852964
0.97406858 10.641507 -2.0771468
1.1907848 12.959188 -2.0611808
1.4938183 16.195114 -1.9969513
2.4229176 26.217707 -2.3035262
3.8177812 41.154579 -2.1660807
0.73757643 7.8027391 -2.1000578
0.85389608 8.9997883 -2.087096
1.0099108 10.62436 -2.0744755
1.2360047 12.954954 -2.0611808
1.6670988 17.409025 -2.1473379
2.5206809 26.274542 -2.3092785
3.8997855 40.500843 -2.1323764
0.76499909 7.8020396 -2.1005754
0.88607168 9.004509 -2.0888956
1.0477637 10.628584 -2.0760019
1.2810274 12.948594 -2.060868
1.7170666 17.294453 -2.1339324
2.5956266 26.097061 -2.2944622
4.0327964 40.403515 -2.1279802
0.79183292 7.7954783 -2.0995402
0.9167099 8.9936075 -2.087096
1.0846515 10.62291 -2.0756204
1.3244101 12.926358 -2.0580521
1.7851444 17.363392 -2.1431944
2.6954899 26.173061 -2.3019574
4.187367 40.520313 -2.1348886
0.81964719 7.79843 -2.1010931
0.9464609 8.9748478 -2.0834966
1.1225535 10.626869 -2.0771468
1.3691043 12.917727 -2.0574262
1.8692579 17.578138 -2.1704934
2.8229148 26.502275 -2.3317647
4.31988 40.422035 -2.1304922
0.84790534 7.8051243 -2.1036813
0.97884142 8.9811764 -2.085746
1.159426 10.620934 -2.0767653
1.4139756 12.910906 -2.0571134
1.9416502 17.67214 -2.1829238
2.9066975 26.413044 -2.3247924
4.4653091 40.446415 -2.1325858
0.87471658 7.7982774 -2.1026461
1.0106194 8.9815769 -2.0866458
1.1949567 10.603166 -2.0740941
1.4588097 12.903929 -2.0568006
2.0069094 17.696814 -2.1868236
2.979985 26.236444 -2.3101499
4.4934287 39.438374 -2.0802498
0.90038007 7.781743 -2.0990226
1.0417383 8.9760599 -2.0861959
1.2324175 10.60283 -2.0748572
1.5017827 12.8811 -2.0539849
1.9017347 16.262222 -2.0103569
3.0629685 26.152666 -2.3037004
4.609621 39.239956 -2.0706201
0.92822254 7.7843075 -2.1005754
1.0730666 8.9723682 -2.0861959
1.2691852 10.596515 -2.0744755
1.5469759 12.87774 -2.0542977
2.0915184 17.385143 -2.1500192
3.1728628 26.296101 -2.3172967
4.7259412 39.053104 -2.0616181
0.95402962 7.7811866 -2.1005754
1.1011475 8.9552221 -2.0830467
1.3055151 10.601991 -2.0763836
1.587738 12.856854 -2.0517945
2.2042177 17.823351 -2.2051041
3.285557 26.491066 -2.3354251
4.8677378 39.136318 -2.0668516
0.97982985 7.7779799 -2.1005754
1.1305921 8.9495878 -2.0825968
1.3404218 10.595654 -2.0760019
1.6313499 12.859358 -2.0530462
2.0206671 15.883739 -1.9659963
3.3784046 26.519558 -2.3389113
5.1453071 40.276955 -2.1279802
1.0057317 7.7649331 -2.0979872
1.1623293 8.9494514 -2.0834966
1.3746121 10.569495 -2.0718043
1.6746984 12.841832 -2.0511689
2.098489 16.047838 -1.9872018
3.4787219 26.566868 -2.3441408
5.2863803 40.262711 -2.1281896
1.0341028 7.7709503 -2.1005754
1.1945951 8.9530659 -2.0852964
1.4149067 10.576061 -2.0740941
1.7192556 12.83395 -2.0508561
2.2948186 17.085114 -2.1166267
3.5792558 26.577635 -2.3462327
5.4798937 40.583504 -2.1461933
1.062318 7.7651944 -2.1000578
1.2268702 8.944767 -2.0843966
1.453123 10.566915 -2.0733306
1.7643938 12.813865 -2.048666
2.3929822 17.334194 -2.1485567
3.6488018 26.363029 -2.3284528
5.6302404 40.575016 -2.146821
1.0902359 7.757422 -2.0990226
1.2580128 8.9286318 -2.0816972
1.491922 10.575385 -2.0760019
1.8124508 12.815135 -2.0499175
2.4528804 17.299753 -2.1453881
3.7307041 26.279121 -2.3221776
5.7718501 40.555115 -2.146821
1.118129 7.759306 -2.1005754
1.2865036 8.9166956 -2.0798974
1.5276967 10.562344 -2.0744755
1.8538085 12.801234 -2.048666
2.5498645 17.564592 -2.1792676
3.8677535 26.577454 -2.3497188
5.7807593 39.674046 -2.1011841
1.1435739 7.7536445 -2.1000578
1.3199034 8.9275713 -2.0834966
1.5615673 10.54945 -2.0729489
1.8993548 12.800546 -2.0496047
2.5790408 17.3396 -2.1524565
3.9535263 26.548716 -2.3483243
5.4762931 36.686615 -1.9439669
1.168903 7.7381434 -2.096952
1.3480422 8.9135122 -2.0812473
1.5980906 10.541993 -2.0725675
1.9400116 12.78246 -2.0477273
4.0482583 26.548542 -2.3495445
5.6123986 36.763023 -1.9489912
1.1945556 7.7342248 -2.096952
1.3800405 8.9145308 -2.0825968
1.6342412 10.544396 -2.0740941
1.9834033 12.767802 -2.0464759
2.7199214 17.46875 -2.1707368
4.1316957 26.475193 -2.3443151
5.7400842 36.739262 -1.9487817
1.2244027 7.739336 -2.0995402
1.4099325 8.9019585 -2.0807972
1.6722593 10.534458 -2.0733306
2.0317416 12.770202 -2.0480404
2.7899339 17.516005 -2.1778054
4.2438807 26.584558 -2.3552969
5.8279948 36.426098 -1.9332905
1.2507955 7.7312007 -2.098505
1.4416127 8.8909607 -2.0794475
1.7080805 10.522743 -2.0721858
2.0753512 12.757183 -2.0471017
2.8585827 17.533089 -2.1812177
4.3268256 26.480343 -2.3474529
5.9409323 36.318802 -1.9286848
1.2794409 7.7284694 -2.0990226
1.4732788 8.88972 -2.0803473
1.7472827 10.520285 -2.0729489
2.1230648 12.755337 -2.0480404
2.7856758 16.718227 -2.0810411
4.4310408 26.535822 -2.3537278
6.0614734 36.221931 -1.9247073
1.3037734 7.7165651 -2.096952
1.5059255 8.8941298 -2.0825968
1.7815014 10.510562 -2.0721858
2.164032 12.740436 -2.0467887
2.9792516 17.50292 -2.1799989
4.54847 26.693821 -2.3690674
6.2017193 36.319759 -1.9309875
1.3300464 7.7081594 -2.0959167
1.5344144 8.8833275 -2.0812473
1.8171774 10.498474 -2.0710409
2.2055917 12.729298 -2.0461631
3.0675054 17.667013 -2.2016916
4.6590466 26.777889 -2.3779571
6.3468103 36.440662 -1.938524
1.359278 7.7246366 -2.1016109
12.87449 73.089462 1.2954223
1.5640622 8.8702393 -2.0794475
1.8526572 10.49626 -2.0718043
12.926937 73.162971 6.5000749
2.2493272 12.717629 -2.0455372
2.6417484 14.90603 -1.8587514
2.6217039 14.777919 -1.3130884
1.3852113 7.7141395 -2.1000578
13.11258 72.9496 1.2937469
1.5950139 8.8647261 -2.0794475
1.8910276 10.49939 -2.0737123
2.2951069 12.717477 -2.0467887
2.6761065 14.799047 -1.8465644
2.6526866 14.654966 -1.3029783
7.6054754 41.933392 -2.2334895
13.310131 73.241066 -1.2993666
1.4093478 7.6940551 -2.0959167
1.6259502 8.8591042 -2.0794475
13.373728 72.796143 3.8789322
1.9269589 10.488861 -2.0729489
2.3412766 12.719102 -2.0483532
2.7288184 14.795473 -1.8472956
2.6987658 14.618187 -1.3005379
7.6994615 41.623783 -2.2184167
13.019105 70.244835 -1.2470094
1.4361948 7.6890888 -2.0959167
1.6575837 8.8572054 -2.0803473
12.684114 67.71167 3.6103439
1.9613889 10.470493 -2.0706592
2.3834774 12.699202 -2.0464759
3.2294912 17.173756 -2.1456318
5.05619 26.861872 -2.3913794
7.8247333 41.490669 -2.2127645
13.264212 70.198967 -1.2470094
1.4626667 7.6821308 -2.0953991
1.6881196 8.849452 -2.0798974
1.9997697 10.473225 -2.0725675
2.4248133 12.675284 -2.043973
3.1220195 16.288956 -2.036437
4.9735031 25.900061 -2.3073611
7.8692465 40.94138 -2.1849217
13.519777 70.207214 -1.2479867
1.4948627 7.6975784 -2.1010931
1.7178868 8.8377666 -2.0785477
12.79187 65.747246 3.5102777
2.0381403 10.465825 -2.0725675
2.4742897 12.68182 -2.0464759
3.3626246 17.218983 -2.1541626
5.299542 27.087017 -2.414737
8.0353775 40.994583 -2.1893179
13.769403 70.183136 -1.2484056
1.5213503 7.6904187 -2.1005754
1.7517806 8.8390579 -2.0803473
2.0750453 10.460572 -2.0729489
2.5166085 12.663422 -2.0449116
3.3208616 16.695091 -2.0900595
5.3667865 26.931578 -2.4025352
8.1526318 40.837013 -2.1824095
1.5487487 7.6948009 -2.1031637
1.7810847 8.8331985 -2.0803473
2.1101086 10.455558 -2.0733306
2.5601573 12.66275 -2.0461631
3.2502103 16.061377 -2.012063
5.3729429 26.503572 -2.3659298
8.3046932 40.89196 -2.1868057
1.5727093 7.6820517 -2.1010931
1.8115396 8.8329716 -2.0816972
2.1469855 10.450053 -2.0737123
2.6017342 12.652256 -2.0458503
3.3430994 16.228806 -2.034487
5.4114742 26.223183 -2.342572
8.3907671 40.588898 -2.1721518
1.602825 7.6856918 -2.1036813
1.8419117 8.8167343 -2.0794475
2.1856773 10.444035 -2.0740941
2.6452582 12.629101 -2.0436602
3.4628935 16.503979 -2.0705605
5.5993443 26.639927 -2.3816178
8.5098591 40.417156 -2.1646154
1.6313834 7.6816559 -2.1041989
1.8738068 8.8080187 -2.0789976
2.2249801 10.449783 -2.0767653
2.6902952 12.613524 -2.0427215
3.5884428 16.810171 -2.1105335
5.4973283 25.708391 -2.30004
8.6366777 40.320805 -2.1610565
1.6588879 7.6856456 -2.1067872
1.9021796 8.7979469 -2.0780978
2.2587929 10.438508 -2.0760019
2.7308445 12.598744 -2.0417829
3.5734689 16.472263 -2.0695853
5.560956 25.590731 -2.2911501
8.7762775 40.319263 -2.1625221
1.6793976 7.6574578 -2.1005754
1.9317648 8.7934942 -2.0785477
2.2922659 10.417138 -2.0733306
2.7751613 12.601193 -2.0436602
4.0470281 18.345837 -2.3067431
5.5617037 25.170397 -2.2552419
8.9592533 40.479492 -2.1727798
1.7074506 7.6512518 -2.1005754
1.964834 8.7901573 -2.0794475
12.371858 55.303272 2.9699612
2.3321447 10.41633 -2.0748572
12.374855 55.271263 4.955327
2.8200355 12.585153 -2.0427215
5.6530404 25.145956 -2.2548933
9.1119556 40.465866 -2.1738265
1.7359155 7.6468244 -2.1010931
12.55235 55.249405 0.98895812
1.9957402 8.7771969 -2.0780978
12.568386 55.27533 2.9707985
2.3689284 10.41004 -2.0752387
2.8630679 12.561252 -2.0405314
3.6700561 16.088789 -2.0262001
5.7421198 25.131897 -2.2554164
9.1925497 40.169029 -2.1595912
12.669736 55.319023 -0.99059856
1.759523 7.6334977 -2.0990226
2.0252764 8.7724295 -2.0785477
2.4038713 10.404041 -2.0756204
2.9038196 12.547838 -2.0399058
4.1372437 17.863455 -2.2514145
5.8371415 25.163176 -2.2599483
9.3211756 40.118874 -2.1585445
1.7843853 7.6257405 -2.098505
2.0539091 8.7637672 -2.0780978
2.4388053 10.397924 -2.0760019
2.9472179 12.545832 -2.041157
4.2250295 17.957115 -2.2650638
5.8627734 24.87891 -2.2362421
9.4670115 40.14217 -2.1614752
1.8154579 7.6323037 -2.1021285
2.0853887 8.7603369 -2.0789976
2.4764516 10.387005 -2.0756204
2.991802 12.529182 -2.0402186
5.9597907 24.900921 -2.2400768
9.5814781 39.971252 -2.1541483
1.8389082 7.6127768 -2.098505
2.1184013 8.756422 -2.0798974
2.5113013 10.372576 -2.0744755
3.0359876 12.520582 -2.0405314
3.8643453 15.912521 -2.0106006
6.07303 24.98838 -2.2498384
9.687891 39.801712 -2.146821
1.8631717 7.5969291 -2.0959167
2.1474295 8.7493477 -2.0798974
2.5512445 10.378997 -2.0775285
3.0784376 12.51428 -2.041157
