# .PCD v0.7 - Point Cloud Data file format
VERSION 0.7
FIELDS x y z
SIZE 4 4 4
TYPE F F F
COUNT 1 1 1
WIDTH 1495
HEIGHT 1
VIEWPOINT 0 0 0 1 0 0 0
POINTS 1495
DATA ascii
-0.74386317 0.42670426 0.10529512
-0.78338856 0.44955906 -0.11090111
-0.81373906 0.46716496 0.14861277
-0.79482895 0.45630869 -0.080183282
-0.76890367 0.441782 -0.046474334
-0.77835488 0.44757375 -0.015672261
-0.79652399 0.4595027 -0.24639574
-0.77765089 0.44879577 0.015672261
-0.76450926 0.44138962 -0.20380566
-0.78000575 0.45051804 0.047207039
-0.77352583 0.44677535 -0.1736362
-0.7814759 0.45154878 0.078963101
-0.77985537 0.45079431 -0.14266825
-0.75096136 0.43426701 0.10651381
-0.78353292 0.45328477 -0.11114486
-0.80526459 0.46604466 0.14736128
-0.77771157 0.45009845 -0.078614481
-0.77254158 0.44746664 -0.04678835
-0.76813757 0.44527364 -0.015497738
-0.79491526 0.46228009 -0.24639574
-0.78990716 0.45955241 0.015951499
-0.78654337 0.45777914 -0.21010427
-0.78360653 0.45625272 0.047521055
-0.77874821 0.45342398 -0.17516267
-0.77645159 0.45226854 0.078614481
-0.78510398 0.4574919 -0.14391972
-0.75287098 0.438885 0.10700129
-0.78023094 0.45501718 -0.11090111
-0.83775747 0.48876157 0.15361866
-0.77097291 0.44979838 -0.078091539
-0.78649801 0.45922405 -0.047730397
-0.77175814 0.45097899 -0.015602452
-0.79329669 0.46505207 -0.24639574
-0.78657323 0.46129534 0.015916595
-0.78998321 0.46348017 -0.21145399
-0.79406655 0.46606213 0.048253756
-0.78393334 0.46011466 -0.17668915
-0.77315003 0.4539673 0.078440167
-0.77839261 0.457228 -0.14298111
-0.73935401 0.4344705 0.10529512
-0.78548306 0.46176204 -0.11187606
-0.80194646 0.47181714 -0.081403457
-0.81070894 0.47716296 -0.049300473
-0.78051716 0.45975968 -0.015811879
-0.80156493 0.47385517 -0.24950157
-0.79012257 0.46709087 0.016021309
-0.78836048 0.46623492 -0.21145399
-0.79243469 0.46883133 0.048253756
-0.78731024 0.46598476 -0.17783399
-0.76805228 0.45476761 0.078091539
-0.79370731 0.47014546 -0.1461098
-0.72758526 0.43097863 0.10383269
-0.78898984 0.46753684 -0.11260728
-0.80543578 0.47766253 -0.081926398
-0.80380207 0.47707295 -0.048986461
-0.78062707 0.46350235 -0.015846785
-0.78662956 0.46873915 -0.24536048
-0.77981693 0.46486405 0.015846785
-0.77660406 0.46313253 -0.20875457
-0.7787047 0.46456945 0.047521055
-0.78399283 0.46772429 -0.17745239
-0.77330339 0.46153039 0.078788787
-0.78358102 0.46784982 -0.14454547
-0.74474728 0.44483963 0.10651381
-0.78556669 0.4694075 -0.11236355
-0.79179251 0.47331515 -0.080706216
-0.77470851 0.46346986 -0.047311708
-0.78235447 0.46841466 -0.015916595
-0.79492509 0.47745022 -0.2484663
-0.79361618 0.47685254 0.01616093
-0.76496142 0.45981678 -0.20605516
-0.77878988 0.46831408 0.047625724
-0.76889545 0.4623642 -0.17439944
-0.78363854 0.47141626 0.080008969
-0.77517319 0.46650773 -0.14329399
-0.73638731 0.44334108 0.10553886
-0.77542102 0.46702591 -0.11114486
-0.77818972 0.46887827 -0.079486035
-0.76453418 0.46101454 -0.04678835
-0.76872987 0.46391049 -0.015672261
-0.78664297 0.47622049 -0.24639574
-0.78510493 0.47547635 0.016021309
-0.76001823 0.46046463 -0.20515537
-0.78235728 0.4739989 0.04793974
-0.76559776 0.464028 -0.17401782
-0.78880304 0.47828063 0.080706216
-0.77185106 0.46818632 -0.14298111
-0.74332058 0.45105809 0.10675755
-0.7721709 0.4685649 -0.11090111
-0.76292467 0.46331832 -0.078091539
-0.77657437 0.47197881 -0.047625724
-0.76547867 0.46541813 -0.015637357
-0.78176117 0.47681427 -0.24536048
-0.77328163 0.47182786 0.015811879
-0.77678388 0.47415084 -0.21010427
-0.77907628 0.47555012 0.047835067
-0.76908165 0.46963337 -0.17516267
-0.75830853 0.46323681 0.077742919
-0.77197987 0.47177342 -0.14329399
-0.73673975 0.45041427 0.10602634
-0.78246838 0.47837099 -0.11260728
-0.77498013 0.47416443 -0.079486035
-0.76648843 0.4693366 -0.047102366
-0.76222581 0.46690947 -0.015602452
-0.78017569 0.47940409 -0.24536048
-0.77171278 0.47438958 0.015811879
-0.76026756 0.46753678 -0.20605516
-0.78251499 0.48140615 0.048149083
-0.77086437 0.47423863 -0.17592591
-0.77203929 0.47514746 0.079311721
-0.7620005 0.46915248 -0.14172964
-0.73186171 0.4507727 0.10553886
-0.78755409 0.48526466 -0.11358224
-0.7581389 0.46732256 -0.077917233
-0.76152813 0.46977863 -0.046893019
-0.76059127 0.46956751 -0.015602452
-6.815958 4.2211318 -2.1481981
-0.78195131 0.48445261 0.016056214
-7.6757555 4.7573128 -2.0848465
-0.77743489 0.48202983 0.04793974
-8.3094072 5.1520481 -1.9004576
-0.77376223 0.47993985 0.079660349
-0.77882165 0.48326632 -0.1451712
-0.7302838 0.45332462 0.10553886
-0.80818582 0.5028556 -0.01661469
-6.7962656 4.2418323 -2.1466453
-0.8701545 0.5433107 0.017906168
-7.6921582 4.8047256 -2.0938444
-0.80623537 0.50379175 0.049823835
-8.2996969 5.1862264 -1.9023658
-0.76701385 0.4794696 0.079137415
-11.692123 7.3117223 -2.1841383
-0.7320627 0.4579767 0.10602634
-15.253849 9.5464754 -2.2094915
-22.13237 13.856702 -2.2845263
-6.783052 4.2665582 -2.1471629
-7.6736898 4.8305106 -2.0933945
-8.2782202 5.2130742 -1.9016025
-11.699951 7.373558 -2.1903956
-0.71870512 0.4531185 0.10432017
-15.213718 9.5954247 -2.2085166
-22.080492 13.931753 -2.2841778
-47.265175 29.845161 -2.9295578
-6.7599597 4.2850366 -2.1445746
-7.6748819 4.8687506 -2.0983434
-8.2119026 5.2114301 -1.8905357
-11.637457 7.3910551 -2.1835127
-0.72549671 0.46094704 0.10553886
-6.3762903 4.0527644 -0.92766953
-22.012474 14.00189 -2.2824345
-47.16407 30.012123 -2.9297671
-6.7442079 4.3097854 -2.1445746
-7.6726184 4.9049563 -2.1023927
-8.2192059 5.2584238 -1.8966415
-6.3566294 4.0699239 -1.1954722
-0.71719611 0.45919517 0.10456391
-21.976881 14.087244 -2.283829
-47.179928 30.277348 -0.97852153
-6.7356215 4.3374839 -2.1466453
-7.6578646 4.9351559 -2.1032922
-8.2057505 5.2902713 -1.8977863
-6.3573222 4.101728 -1.1982881
-0.71217251 0.45966774 0.10407643
-21.937613 14.170365 -2.2848749
-48.786449 31.537205 -3.0444875
-6.7236805 4.3630729 -2.1476805
-7.6520319 4.9692869 -2.1064417
-8.1987581 5.3263693 -1.9004576
-11.564734 7.518836 -2.1847639
-0.70057923 0.45565701 0.102614
-15.07655 9.8095388 -2.2085166
-21.888018 14.24685 -2.2848749
-48.542171 31.62011 -3.0361137
-6.7067924 4.3854589 -2.1471629
-7.6590986 5.0119734 -2.1131902
-8.1636906 5.3442039 -1.8966415
-11.558246 7.5721498 -2.1885185
-0.71226674 0.46680471 0.10456391
-15.042215 9.8621073 -2.2085166
-21.838154 14.323168 -2.2848749
-46.525978 30.550224 -0.97154057
-6.686604 4.4056525 -2.1456099
-7.6521983 5.0437789 -2.1158895
-8.1908741 5.4029346 -1.9073268
-11.509991 7.5952053 -2.1841383
-0.71071482 0.4691641 0.10456391
-15.002801 9.9075575 -2.2075415
-21.788023 14.399311 -2.2848749
-6.6703486 4.4267344 -2.1450922
-7.6475329 5.0790854 -2.119489
-8.1451139 5.4115977 -1.9008393
-11.483408 7.6353369 -2.1841383
-0.69750291 0.46394616 0.10285773
-14.997874 9.9796629 -2.2119288
-9.1684141 6.1030183 -0.9635939
-44.527229 29.662294 -2.8039515
-46.002079 30.667984 -0.96504825
-6.6580677 4.4521394 -2.1461277
-7.642714 5.114418 -2.1230881
-8.132699 5.4443655 -1.9023658
-9.1394196 6.1229267 -1.7423673
-0.70742208 0.47411439 0.10456391
-9.1129713 6.1098199 -1.3471439
-45.838318 30.790457 -0.96386153
-6.655302 4.4839902 -2.1502688
-7.6409726 5.1519589 -2.1275871
-8.1478233 5.4957771 -1.9103796
-9.1065302 6.1470556 -1.7401772
-0.69260174 0.46769363 0.102614
-9.0899439 6.1404796 -1.3469001
-9.0925694 6.1445637 -0.96010768
-45.598072 30.860607 -0.96106911
-6.6316185 4.5017681 -2.1476805
-7.6390605 5.1895528 -2.132086
-8.1172247 5.516458 -1.9077084
-8.9739437 6.1032672 -1.7189021
-0.70409501 0.47904143 0.10456391
-9.1303501 6.2166348 -0.96638286
-45.668503 31.141262 -0.96483886
-6.6078906 4.5194364 -2.1450922
-7.6385894 5.228292 -2.1370349
-8.1465168 5.5780349 -1.919157
-11.395237 7.8083234 -2.1878927
-0.70569324 0.48374102 0.10505138
-9.1205235 6.2543116 -1.3578683
-9.1069536 6.2473392 -0.96620852
-45.841911 31.482721 -0.97070283
-6.600029 4.5479555 -2.1476805
-7.6260233 5.2569122 -2.1383848
-8.107604 5.59306 -1.9145776
-9.1029043 6.2820163 -1.7517534
-0.70735234 0.48833412 0.10553886
-9.1128035 6.2935448 -1.3598183
-9.0818129 6.276825 -0.96585995
-43.318096 29.950144 -2.7599893
-46.047474 31.860996 -0.97740453
-6.5880847 4.5720201 -2.1487157
-7.6140294 5.2879472 -2.1401844
-8.1115837 5.6355972 -1.9199202
-0.69586545 0.48399934 0.10407643
-14.767828 10.275382 -2.2090039
-21.412029 14.903924 -2.2824345
-42.967449 29.929941 -2.7442884
-46.24017 32.221596 -0.98375726
-6.5752535 4.5972018 -2.1497512
-7.6108236 5.3232193 -2.1442335
-8.1159897 5.6807628 -1.9256444
-8.8398666 6.1897402 -1.7092031
-0.70401198 0.49313763 0.10553886
-14.736929 10.32657 -2.2094915
-21.369659 14.985439 -2.2834804
-42.786221 30.014893 -2.7390549
-6.5623245 4.6223507 -2.1507864
-7.6040053 5.3600588 -2.1478326
-8.0046549 5.6445713 -1.9038923
-11.283269 7.9624162 -2.1872668
-0.7119301 0.50258368 0.10700129
-14.70222 10.382808 -2.2099788
-21.323734 15.064536 -2.2841778
-42.154045 29.802565 -2.70556
-42.957806 30.382057 -0.91841549
-6.53827 4.6396408 -2.1481981
-7.5846 5.3841176 -2.1473827
-8.0681295 5.7316022 -1.9237365
-11.24392 7.990634 -2.1847639
-0.70217013 0.49919054 0.1057826
-14.693592 10.449913 -2.2138786
-21.254782 15.127331 -2.2824345
-42.038715 29.930605 -2.7045131
-42.076275 29.979485 -0.90180075
-6.5244217 4.6624193 -2.1487157
-7.5578332 5.4048924 -2.1451333
-8.0889969 5.7868834 -1.9332769
-11.209536 8.0252352 -2.1835127
-0.70526481 0.50510627 0.10651381
-8.2797747 5.9321094 -1.2506232
-8.2223139 5.8952856 -0.88515365
-41.820374 29.995684 -2.6971862
-41.912888 30.084198 -0.90054417
-6.5135598 4.6908169 -2.1507864
-7.5547323 5.4426322 -2.1496322
-8.0741034 5.8210831 -1.9348032
-11.199266 8.0801392 -2.1872668
-0.69383842 0.50059623 0.10505138
-14.613843 10.547588 -2.2129037
-8.0821657 5.8376236 -0.87225467
-41.891884 30.291252 -0.90235925
-6.4955821 4.7123909 -2.1502688
-7.5347328 5.4702854 -2.1496322
-8.0585003 5.8526926 -1.9359483
-11.178985 8.1249866 -2.1888313
-0.71768814 0.52181363 0.1089512
-14.55903 10.589408 -2.2104664
-7.8909683 5.7415428 -0.85377765
-41.01049 29.861534 -2.6586668
-41.974514 30.585907 -0.90654784
-6.4744153 4.7316151 -2.1487157
-7.506155 5.4896512 -2.1469328
-8.0396042 5.881948 -1.9363298
-11.155336 8.1674604 -2.18977
-0.70945621 0.51962399 0.10797625
-7.7645917 5.6890659 -1.1818891
-7.7680321 5.6936707 -0.84262168
-29.606934 21.716642 -1.9242886
-41.60957 30.542913 -0.90096301
-6.4563022 4.7530417 -2.1481981
-7.4885163 5.5169735 -2.1473827
-8.0158634 5.9076443 -1.9355664
-7.740561 5.7089181 -1.5233591
-0.70763814 0.52209711 0.10797625
-7.7255197 5.7019897 -1.1789641
-7.6872015 5.6757827 -0.83599782
-41.612045 30.76881 -0.90333658
-6.4474301 4.7813044 -2.1507864
-7.477036 5.5488882 -2.1496322
-8.0330248 5.9636755 -1.9447254
-11.109145 8.2533865 -2.1919601
-14.47124 10.759049 -2.2141225
-21.137953 15.721335 -2.3047464
-41.376091 30.818316 -0.90054417
-6.429153 4.8026242 -2.1502688
-7.448256 5.5679536 -2.1469328
-8.0750484 6.0387101 -1.95999
-11.040729 8.2625256 -2.1841383
-14.40976 10.791649 -2.2104664
-20.904356 15.661228 -2.2852235
-6.4154377 4.8273582 -2.151304
-7.4350019 5.598608 -2.1487324
-8.0586262 6.0704026 -1.961135
-11.021284 8.3081493 -2.1860156
-14.375173 10.844275 -2.2109537
-20.84638 15.731703 -2.2848749
-29.27533 22.108646 -1.9226137
-41.654484 31.480183 -0.91136467
-6.4000874 4.8508906 -2.1518216
-7.4060988 5.6174593 -2.146033
-8.0201817 6.085444 -1.9569372
-10.979632 8.3370113 -2.1835127
-14.340392 10.89679 -2.2114413
-20.772308 15.789903 -2.2827833
-6.3723655 4.8649974 -2.1481981
-7.3858809 5.6408052 -2.1455832
-8.0082493 6.1205554 -1.9592268
-10.951924 8.3733759 -2.1835127
-14.291566 10.934635 -2.2094915
-20.748701 15.886545 -2.2862694
-6.3531356 4.8837461 -2.1471629
-7.3646016 5.6653643 -2.1451333
-8.0003567 6.1566572 -1.9622798
-10.913239 8.4043226 -2.1816354
-14.272181 10.998993 -2.2124164
-20.689596 15.950392 -2.2855721
-6.3467422 4.9141722 -2.1507864
-7.3370781 5.6850691 -2.1428835
-8.0020933 6.2025857 -1.968004
-10.893202 8.4496307 -2.1835127
-14.230563 11.046311 -2.2119288
-20.627495 16.017633 -2.2848749
-40.795795 31.701509 -2.7076533
-6.3402133 4.944613 -2.1544099
-7.320262 5.7130446 -2.1437836
-8.0345554 6.2727661 -1.9813608
-10.872979 8.4948997 -2.1853898
-14.19348 11.09714 -2.2121725
-20.599709 16.111629 -2.2880125
-40.763523 31.905272 -2.7128868
-6.3107605 4.9571671 -2.1502688
-7.3109994 5.7469926 -2.1469328
-8.0481052 6.3286858 -1.9901379
-10.841707 8.53158 -2.1850767
-14.168693 11.157671 -2.214366
-20.530825 16.173576 -2.286618
-6.2858448 4.9731717 -2.1476805
-7.3015881 5.7809453 -2.1500821
-8.0721369 6.3933072 -2.0015864
-10.810312 8.5681467 -2.1847639
-14.132771 11.20953 -2.2148538
-20.499214 16.264957 -2.289407
-6.2820439 5.0059185 -2.1523392
-7.2722244 5.7991061 -2.1473827
-8.0589781 6.428793 -2.0038762
-10.780339 8.6058273 -2.1847639
-14.096658 11.261272 -2.2153411
-20.43609 16.331434 -2.2887099
-6.2630239 5.0266085 -2.1518216
-7.2580147 5.8293366 -2.1491826
-8.0487309 6.4667215 -2.0069292
-10.784102 8.6706371 -2.1916471
-6.3349714 5.0970874 -0.99835372
-20.388266 16.410172 -2.2897556
-6.246943 5.0496535 -2.1523392
-7.2406502 5.8570895 -2.1500821
-8.0352669 6.5021863 -2.0092189
-6.3094912 5.1093259 -1.2858914
-6.3202252 5.1216693 -0.99884117
-20.358717 16.503822 -2.2928932
-6.2277799 5.070209 -2.1518216
-7.2307386 5.8909426 -2.1532316
-8.3108034 6.7732944 -2.0840161
-10.666668 8.6995192 -2.1800709
-13.964116 11.396976 -2.2131476
-20.285553 16.562189 -2.2911501
-6.1995864 5.0833426 -2.1481981
-7.1945887 5.9012938 -2.1482825
-8.5997162 7.0588584 -2.1626294
-10.653026 8.7473783 -2.1831996
-13.921648 11.439437 -2.2124164
-20.239929 16.643015 -2.2925446
-6.1871648 5.1075635 -2.1497512
-7.1664343 5.920167 -2.146033
-8.5732336 7.084837 -2.1618662
-10.630037 8.7908058 -2.1847639
-13.896922 11.500624 -2.2148538
-20.184628 16.710043 -2.2925446
-6.1707845 5.130363 -2.1502688
-7.1392713 5.9376688 -2.1437836
-8.5514698 7.1172299 -2.1626294
-10.608418 8.8323288 -2.1863284
-13.858714 11.546638 -2.2148538
-20.126175 16.780399 -2.2925446
-6.160244 5.1580749 -2.1528571
-7.1189551 5.9650455 -2.1442335
-8.5190496 7.1407328 -2.1607211
-10.588085 8.8813047 -2.1888313
-13.813253 11.594804 -2.214366
-20.104097 16.8813 -2.2967281
-6.1303864 5.1695833 -2.1487157
-7.1010685 5.9923725 -2.1451333
-8.4955711 7.1716928 -2.1611028
-10.557016 8.9182129 -2.1888313
-13.77573 11.645515 -2.2148538
-20.035921 16.943657 -2.2956822
-6.1049423 5.1846976 -2.1461277
-7.0815911 6.0183873 -2.1455832
-8.4824543 7.2114763 -2.1641557
-10.503253 8.9358091 -2.1841383
-13.741042 11.698674 -2.2158287
-19.994854 17.028994 -2.2977738
-6.0985518 5.2160211 -2.1502688
-7.0546184 6.038002 -2.1437836
-8.4736338 7.2550869 -2.1683536
-10.480998 8.9801302 -2.1860156
-13.706148 11.75174 -2.2168036
-19.94739 17.109062 -2.2991683
-29.153189 25.022631 -2.013469
-6.0788441 5.2360172 -2.1497512
-7.0231671 6.0536828 -2.1406343
-8.4333878 7.2718005 -2.1645374
-10.458563 9.0244017 -2.1878927
-13.674058 11.807298 -2.218266
-19.905642 17.194212 -2.3012602
-6.0649052 5.261003 -2.151304
-7.0093503 6.084548 -2.1428835
-8.3871994 7.2831759 -2.1591947
-5.100924 4.4326015 -1.0703248
-13.620779 11.844533 -2.216316
-19.839489 17.25836 -2.3005631
-6.0421414 5.2783279 -2.1497512
-6.9910054 6.1115427 -2.1437836
-8.3484249 7.3007741 -2.15576
-5.0616345 4.4295669 -1.0653188
-13.58831 11.899853 -2.2177784
-19.76713 17.317009 -2.2991683
-6.0280304 5.3032146 -2.151304
-6.9740157 6.1397734 -2.1451333
-8.3155222 7.3233833 -2.153852
-5.0135388 4.4184732 -1.0584357
-13.540733 11.94196 -2.2168036
-19.718519 17.396446 -2.3005631
-5.9921303 5.3088512 -2.1450922
-6.9467092 6.1589093 -2.1433337
-8.2840328 7.3471551 -2.1523256
-4.9803557 4.4202118 -1.0546813
-13.478187 11.970699 -2.2133911
-19.657673 17.46517 -2.3005631
-5.9894204 5.3438816 -2.1507864
-6.9280748 6.1857157 -2.1442335
-8.258338 7.3760257 -2.1523256
-4.9707875 4.4428358 -1.0559328
-5.1949034 4.6464105 -0.85576659
-19.605495 17.541655 -2.3016088
-5.9635434 5.3583016 -2.1481981
-6.9064417 6.2098598 -2.1442335
-8.228159 7.4008708 -2.1511807
-4.944972 4.4509087 -1.0537428
-4.9662552 4.4732056 -0.82066822
-19.538229 17.604645 -2.3009117
-5.9433708 5.37779 -2.1476805
-6.8890562 6.2378545 -2.1455832
-8.20082 7.4282298 -2.150799
-4.9001317 4.4416099 -1.0474852
-19.458948 17.656677 -2.2988198
-5.9217081 5.3959002 -2.1466453
-6.865799 6.2605529 -2.1451333
-8.1719408 7.4541626 -2.1500359
-4.8933516 4.4666786 -1.0493625
-4.9217153 4.4957175 -0.81847459
-19.42367 17.748686 -2.3019574
-5.9071059 5.4204555 -2.1481981
-6.8467755 6.2871151 -2.146033
-8.1545467 7.490612 -2.1523256
-4.9315405 4.5331945 -1.0609387
-19.329346 17.786695 -2.2981226
-5.8867307 5.4397316 -2.1476805
-6.8190646 6.3056846 -2.1442335
-8.1197023 7.5110321 -2.1500359
-4.9084382 4.5436711 -1.0593743
-4.9266167 4.563693 -0.82456803
-19.293446 17.878435 -2.3012602
-5.8747773 5.4668274 -2.1502688
-6.788455 6.3214812 -2.1415341
-8.0905619 7.536654 -2.1492727
-4.8983278 4.5661654 -1.0606258
-13.207821 12.320801 -2.2177784
-19.195961 17.91305 -2.2970767
-5.8429708 5.4754119 -2.1456099
-6.7805638 6.3584676 -2.146033
-8.0584764 7.5594769 -2.1477461
-13.161839 12.364111 -2.2172909
-19.139118 17.985409 -2.2977738
-5.8252287 5.4971013 -2.1461277
-6.7537723 6.375567 -2.1442335
-8.0406027 7.5956488 -2.1500359
-9.9682922 9.4199514 -2.1722493
-13.138074 12.424058 -2.2202158
-19.050175 18.027454 -2.2946362
-29.000086 27.452791 -2.0928104
-5.8111691 5.5203795 -2.1476805
-6.7314763 6.3991036 -2.1442335
-8.0239067 7.6303883 -2.1523256
-9.9267626 9.4465218 -2.170372
-13.091753 12.467101 -2.2197285
-18.97875 18.079535 -2.293242
-5.7890735 5.5379591 -2.1466453
-6.7062817 6.4198689 -2.1433337
-7.99297 7.6542754 -2.1511807
-9.8994322 9.4865828 -2.1716235
-13.059618 12.523718 -2.2216785
-18.921274 18.151192 -2.2939391
-5.7836194 5.5715356 -2.1518216
-6.6866379 6.4459414 -2.1442335
-7.9605508 7.6766782 -2.1496544
-9.8577309 9.5128489 -2.1697464
-12.998684 12.552684 -2.2187536
-16.605181 16.041039 -2.0199213
-5.7488832 5.5768943 -2.1461277
-6.6599011 6.4651709 -2.1428835
-7.9322972 7.703052 -2.1492727
-9.8386297 9.5609665 -2.1728749
-12.96617 12.609051 -2.2207034
-5.7238536 5.5915279 -2.144057
-6.6358995 6.4870172 -2.1424339
-7.9081645 7.7334404 -2.1500359
-9.8023729 9.5924883 -2.1722493
-12.92208 12.654232 -2.2207034
-16.470398 16.145901 -1.2087513
-5.7111869 5.618248 -2.1466453
-6.6076622 6.5046721 -2.1406343
-7.8839207 7.7637515 -2.150799
-9.7744551 9.6321964 -2.1735008
-12.886311 12.707625 -2.2221658
-16.379824 16.169621 -1.2062392
-5.6929126 5.6395087 -2.1471629
-6.576611 6.5194678 -2.1379349
-7.8553782 7.7898426 -2.1504176
-9.7491875 9.6746035 -2.1753781
-12.827788 12.738542 -2.2197285
-16.282066 16.174433 -2.007894
-16.297781 16.201357 -1.2043551
-41.452103 41.221226 -1.0204073
-5.6772966 5.6634383 -2.1487157
-6.5604725 6.5467463 -2.1397343
-7.8323083 7.8213754 -2.1515625
-9.7170515 9.7068806 -2.1753781
-12.782667 12.778205 -2.2192409
-16.241001 16.24667 -2.0098114
-16.238323 16.24966 -1.2039365
-5.648942 5.6726518 -2.1450922
-6.540329 6.5723696 -2.1406343
-7.7938643 7.8347807 -2.1481278
-9.6858931 9.7435417 -2.1760037
-12.735188 12.819932 -2.2187536
-16.20384 16.323057 -2.0122519
-16.201199 16.326092 -1.2054019
-40.318474 40.657665 -0.99946439
-5.6199622 5.6850758 -2.1419864
-6.5214567 6.5993185 -2.141984
-7.7609582 7.8591037 -2.1469829
-9.6528931 9.7817869 -2.1766293
-12.698724 12.872787 -2.2202158
-16.197121 16.430597 -2.018527
-16.163677 16.408129 -1.2070767
-5.6000834 5.7046585 -2.1419864
-40.736721 41.511906 1.0152065
-6.489038 6.6148276 -2.1392844
-7.7389755 7.8917532 -2.1485093
-9.6186876 9.8154249 -2.1766293
-12.662572 12.930586 -2.2221658
-5.5841837 5.7283216 -2.1435394
-40.598835 41.646767 1.0152065
-6.4589062 6.6279364 -2.136585
-7.7141223 7.9215317 -2.1492727
-9.5943556 9.8557577 -2.1785066
-12.603012 12.955431 -2.2192409
-40.378098 41.579746 -1.0116811
-5.5678439 5.7495832 -2.1445746
-6.4425054 6.6574454 -2.1388347
-7.6823506 7.9414248 -2.1477461
-9.565383 9.8948717 -2.1797581
-12.554955 12.99649 -2.2187536
-18.139097 18.783587 -2.2845263
-5.5464015 5.7675915 -2.144057
-6.4138274 6.6742711 -2.1370349
-7.6559424 7.9696083 -2.1481278
-9.5335236 9.9310493 -2.1803839
-12.517752 13.048835 -2.2202158
-18.067905 18.841034 -2.283829
-39.326153 41.066273 -0.9924835
-5.5168953 5.7771373 -2.1404335
-6.4012537 6.7078986 -2.1406343
-7.6267219 7.994864 -2.1477461
-9.501524 9.9671268 -2.1810095
-12.477607 13.098197 -2.2211909
-17.979496 18.886925 -2.2813885
-39.251453 41.275757 -0.99422872
-5.5049877 5.8071332 -2.144057
-6.365736 6.7174716 -2.136585
-7.5973678 8.0227642 -2.1477461
-9.4594984 9.9961462 -2.1797581
-12.42908 13.138787 -2.2207034
-17.913458 18.949572 -2.2813885
-5.4780622 5.8192801 -2.1414688
-6.3490829 6.7492743 -2.1392844
-7.5814204 8.0621061 -2.1511807
-9.4245472 10.029105 -2.1797581
-12.375407 13.178463 -2.2197285
-17.852659 19.017799 -2.2820859
-39.365383 41.993244 -1.0047002
-5.4616752 5.8426003 -2.1430218
-6.3188338 6.7642756 -2.1370349
-7.5505548 8.0856495 -2.1504176
-9.3894815 10.061942 -2.1797581
-12.318497 13.20997 -2.2177784
-17.788881 19.082914 -2.2824345
-39.251266 42.165516 -1.0055379
-5.4491329 5.8701243 -2.1461277
-6.2925348 6.783433 -2.1361351
-7.5196142 8.1090784 -2.1496544
-9.3543034 10.094654 -2.1797581
-4.1420231 4.4729776 -0.74852157
-4.1321044 4.4638271 -0.53217298
-39.146523 42.333622 -1.0064454
-5.415514 5.8749065 -2.1409512
-6.2594404 6.792798 -2.1325359
-4.1000452 4.4525237 -1.1765283
-4.133882 4.4987135 -0.32019141
-4.1278906 4.5079589 -1.6378069
-4.0985098 4.4805808 -1.1803445
-4.0673008 4.4527001 -0.74047816
-4.0975933 4.4874358 -0.53165001
-4.0737271 4.4644294 -0.31673726
-4.1030316 4.5123353 -1.6341835
-4.0573707 4.4652495 -1.392897
-4.0485234 4.4570761 -1.1704224
-4.0706286 4.4845562 -0.95925629
-4.0437303 4.4580483 -0.73901576
-4.0658441 4.4840002 -0.5295583
-4.0433679 4.4623408 -0.31558585
-4.0510054 4.4864831 -1.6196897
-4.0443697 4.4822788 -1.3937967
-4.0276809 4.4653497 -1.168896
-4.0443692 4.486999 -0.95675331
-4.0201735 4.4632869 -0.73755336
-4.0514994 4.4996467 -0.52973258
-4.037118 4.4868207 -0.31631854
-4.0314507 4.4962816 -1.6181368
-4.0138764 4.4782515 -1.3883979
-4.0094495 4.4764571 -1.1681327
-4.036057 4.5077438 -0.95831764
-4.0066738 4.4780736 -0.73779708
-4.038425 4.5167317 -0.53008121
-4.0222168 4.5001836 -0.31631854
-4.0139484 4.5067406 -1.6171014
-4.0008101 4.4951472 -1.3892977
-4.0024128 4.498529 -1.1704224
-4.0084834 4.5085192 -0.95550185
-4.0055223 4.5083547 -0.74047816
-3.9943173 4.4973259 -0.52624637
-4.0091362 4.5171833 -0.3165279
-3.9981933 4.5207233 -1.6171014
-3.9863853 4.5105457 -1.3897476
-3.9866865 4.5124712 -1.1704224
-3.9887989 4.5180416 -0.9545632
-4.0081453 4.5431504 -0.74389052
-3.9878197 4.5217018 -0.5274666
-4.0039067 4.543138 -0.31736526
-3.9849384 4.5375552 -1.6181368
-3.9744735 4.5288267 -1.3910973
-3.9890368 4.5470219 -1.175765
-3.9782133 4.5378785 -0.95581466
-4.002727 4.5690594 -0.74584043
-4.0132165 4.5842581 -0.53304452
-3.9893391 4.5585904 -0.31746995
-3.9847829 4.5710611 -1.624866
-3.9791248 4.5661793 -1.3982958
-3.9723432 4.5616126 -1.175765
-3.9913785 4.5867033 -0.96301067
-3.9919651 4.5889945 -0.74681538
-3.9919603 4.5922251 -0.53234726
-3.9814463 4.5995493 -1.6300424
-3.9725604 4.592525 -1.4018949
-28.829941 33.423393 -2.3132493
-5.2059259 6.0588598 -2.1404335
-6.0071344 6.9938068 -2.1284869
-7.2078962 8.3977222 -2.1511807
-8.9264593 10.407321 -2.1716235
-11.751742 13.706146 -2.2168036
-16.870464 19.690056 -2.2684896
-28.743626 33.571308 -2.3161802
-5.1906295 6.0795913 -2.1419864
-5.9864368 7.0166554 -2.1293867
-7.1814795 8.4203234 -2.1511807
-8.9014053 10.444337 -2.1735008
-11.713945 13.754113 -2.218266
-16.80335 19.736893 -2.2677922
-5.1668763 6.0947275 -2.1409512
-5.9493122 7.0226383 -2.1248875
-7.1545796 8.4483385 -2.1519439
-8.8699989 10.481374 -2.1747522
-11.647923 13.773696 -2.2148538
-16.760084 19.825857 -2.2712786
-5.1505485 6.1186371 -2.1430218
-5.9272738 7.0463443 -2.1257875
-7.1199894 8.4672527 -2.1504176
-8.8308191 10.509245 -2.1741264
-11.602326 13.817308 -2.2153411
-16.680534 19.872026 -2.2698841
-5.1279182 6.1350975 -2.1425042
-5.9088845 7.074471 -2.128037
-7.0790672 8.4784899 -2.1469829
-8.7915478 10.536976 -2.1735008
-11.559106 13.863826 -2.216316
-16.598303 19.914833 -2.268141
-29.80756 35.788837 -2.4409492
-5.1015377 6.1470122 -2.1404335
-5.8866444 7.0980535 -2.1289368
-7.0556946 8.510704 -2.148891
-8.754715 10.567598 -2.1735008
-11.515707 13.910203 -2.2172909
-16.543924 19.991074 -2.2702327
-29.746099 35.969616 -2.4461827
-5.0788198 6.1632934 -2.1399159
-5.8593516 7.1155505 -2.128037
-7.029685 8.5398302 -2.1500359
-8.7102423 10.588943 -2.1716235
-11.462036 13.944185 -2.216316
-5.0597224 6.1839733 -2.1409512
-5.8307791 7.131433 -2.1266873
-6.9973497 8.5612755 -2.1492727
-8.6707287 10.61622 -2.1709976
-11.405765 13.974881 -2.2148538
-29.698715 36.427185 -2.4631398
-5.0441976 6.2090936 -2.1435394
-5.8107815 7.1552687 -2.128037
-6.9649463 8.5826015 -2.1485093
-8.6379633 10.647986 -2.1716235
-11.356853 14.009543 -2.214366
-29.668242 36.63723 -2.4706762
-5.0150862 6.2152638 -2.1399159
-5.7906647 7.1815758 -2.1298366
-6.9339843 8.6025925 -2.1477461
-8.5982656 10.674994 -2.1709976
-11.310377 14.052195 -2.2148538
-12.929143 16.074862 -1.804821
-4.9862356 6.2260623 -2.1373277
-5.7619085 7.1971803 -2.1284869
-6.9024053 8.6279507 -2.1477461
-8.5516787 10.697182 -2.1691206
-11.263731 14.094693 -2.2153411
-12.866733 16.112114 -1.8039496
-28.877117 36.186661 -2.426295
-4.9644709 6.2434316 -2.1373277
-5.736702 7.2197781 -2.1289368
-6.8722482 8.6519909 -2.1477461
-8.5118332 10.72387 -2.1684947
-11.211998 14.13588 -2.2153411
-12.821556 16.170977 -1.8055184
-28.686121 36.205849 -2.4208522
-4.9462385 6.2652698 -2.1388805
-5.7078972 7.2326446 -2.1271372
-6.8517323 8.6882572 -2.150799
-8.4786673 10.755143 -2.1691206
-11.147865 14.151149 -2.2119288
-12.784753 16.240679 -1.8083073
-28.570848 36.307053 -2.4212711
-4.9278178 6.2846799 -2.1399159
-5.6874251 7.2586594 -2.1289368
-6.8071437 8.6908398 -2.145838
-8.4410763 10.784672 -2.1691206
-11.105734 14.199359 -2.2133911
-12.781137 16.347343 -1.8154541
-4.9070377 6.3033662 -2.1404335
-5.6632509 7.280005 -2.1293867
-6.7803831 8.7191973 -2.1469829
-8.4033804 10.81407 -2.1691206
-11.051235 14.231767 -2.2124164
-29.445332 37.960674 -2.5177784
-4.8731928 6.3051696 -2.135257
-5.6354203 7.2966456 -2.1284869
-6.7559018 8.7505827 -2.148891
-8.3607521 10.837083 -2.1678691
-11.006332 14.276546 -2.2133911
-29.436935 38.224644 -2.528455
-4.8535047 6.3252087 -2.1362925
-5.6146603 7.3224564 -2.1302865
-6.7265124 8.7756701 -2.1492727
-8.3216743 10.864632 -2.1675563
-10.944369 14.299114 -2.2109537
-29.417366 38.476303 -2.5382943
-4.8313942 6.3421135 -2.1362925
-5.5819817 7.3327093 -2.1275871
-6.6934581 8.7959728 -2.1485093
-8.2956514 10.909339 -2.1706848
-10.892083 14.329009 -2.2099788
-15.693473 20.660412 -2.2698841
-29.338434 38.651928 -2.5431092
-4.8149996 6.3642616 -2.1383629
-5.5588117 7.3527322 -2.128037
-6.6571522 8.8087215 -2.1462197
-8.2510986 10.925753 -2.1684947
-10.845706 14.366632 -2.2102227
-15.632077 20.72188 -2.2709301
-29.325508 38.902122 -2.5531576
-4.7927065 6.3786507 -2.1378453
-5.5379105 7.3758006 -2.1293867
-6.6231885 8.8244705 -2.1446934
-8.201787 10.93567 -2.1650534
-10.803827 14.415521 -2.2119288
-15.542924 20.753998 -2.2684896
-4.7635226 6.3884287 -2.135257
-5.5132928 7.3966498 -2.1298366
-6.5954933 8.8549824 -2.1462197
-8.1522121 10.952981 -2.1625502
-10.755808 14.456333 -2.2124164
-15.460876 20.79533 -2.2670951
-4.7434945 6.4081225 -2.1362925
-5.4861469 7.4168062 -2.1298366
-6.5692148 8.8842649 -2.1477461
-8.1057148 10.970248 -2.1603601
-10.698036 14.489267 -2.2114413
-15.392931 20.855581 -2.2677922
-4.727962 6.4339814 -2.1393983
-5.4569049 7.4286776 -2.128037
-6.5358372 8.9039783 -2.1469829
-8.0564337 10.979551 -2.1569188
-10.640535 14.511861 -2.2094915
-15.320031 20.909187 -2.2677922
-4.7054591 6.4480643 -2.1388805
-5.4309421 7.4476786 -2.128037
-6.5016499 8.9192543 -2.1454566
-8.0192242 11.009201 -2.1572316
-10.575799 14.529652 -2.2065666
-15.241237 20.946985 -2.266398
-4.6783881 6.4581943 -2.1368101
-5.4084997 7.4688067 -2.1289368
-6.4647193 8.9339437 -2.1435483
-7.9861426 11.040538 -2.1581702
-10.539184 14.580734 -2.2090039
-4.6479225 6.4635057 -2.1331868
-5.3833642 7.4917431 -2.1298366
-6.4323511 8.9548597 -2.1431668
-7.9490809 11.074547 -2.1591089
-10.487989 14.622489 -2.2094915
-4.6309457 6.4875512 -2.1357749
-5.3549156 7.507318 -2.1289368
-6.4010558 8.9772568 -2.1431668
-7.9034953 11.092576 -2.1572316
-10.427676 14.646069 -2.2075415
-4.6138539 6.511559 -2.1383629
-5.3275533 7.5243721 -2.1284869
-6.3742151 9.0059586 -2.1446934
-7.8613067 11.115256 -2.1562929
-10.362736 14.66293 -2.2046165
-11.105977 15.726234 -1.6843718
-4.5899587 6.5284247 -2.1383629
-5.3023782 7.5445166 -2.1289368
-6.3400373 9.0276527 -2.1443117
-7.8273253 11.153695 -2.1581702
-10.313772 14.702261 -2.2051041
-11.05101 15.764909 -1.6843718
-4.5627184 6.5380716 -2.1362925
-5.2713437 7.5591054 -2.1275871
-6.3028703 9.0416775 -2.1424036
-7.7838254 11.174468 -2.1569188
-10.257848 14.731658 -2.204129
-10.999331 15.808292 -1.6848948
-4.535512 6.5452256 -2.1337044
-5.2529054 7.5861559 -2.1302865
-6.2750888 9.0657558 -2.1431668
-7.7467232 11.200221 -2.1569188
-10.230392 14.796616 -2.20876
-10.952506 15.85288 -1.6857663
-4.5192552 6.5681891 -2.1362925
-5.2233057 7.5971098 -2.1284869
-6.237844 9.0795155 -2.1412585
-7.7073107 11.222587 -2.1562929
-10.200017 14.863337 -2.2133911
-10.938797 15.95181 -1.6922158
-4.4918852 6.5799208 -2.1347394
-5.191031 7.6097646 -2.1266873
-6.2078438 9.1071825 -2.1424036
-7.6661229 11.250761 -2.1562929
-10.168936 14.935078 -2.2185097
-4.4677367 6.5963416 -2.1347394
-5.1663828 7.6335797 -2.128037
-6.1738133 9.1255465 -2.1416404
-7.6237321 11.277146 -2.1559801
-10.142302 15.008316 -2.2241156
-4.4426055 6.6063113 -2.1331868
-5.1410389 7.650672 -2.128037
-6.1391406 9.1394491 -2.1401138
-7.5928955 11.312208 -2.1578572
-10.107965 15.064943 -2.2275281
-4.418529 6.6177921 -2.1321514
-29.403244 44.054958 0.92452377
-5.1210494 7.6757827 -2.1302865
-6.1017532 9.1526566 -2.1382058
-7.5531521 11.334036 -2.1572316
-10.059713 15.106747 -2.228503
-14.304336 21.497189 -2.2590768
-29.344055 44.149643 -0.92532665
-4.3942423 6.6339436 -2.1321514
-5.0842748 7.6815014 -2.1266873
-6.0811644 9.1946087 -2.1427851
-7.5061102 11.353406 -2.1556673
-10.002093 15.140201 -2.2280157
-14.232038 21.559443 -2.2601228
-4.3667173 6.6451607 -2.1305985
-5.0571585 7.7017131 -2.1271372
-6.0490298 9.2157812 -2.1427851
-7.4687834 11.387446 -2.1569188
-9.916069 15.130267 -2.2211909
-14.141415 21.585657 -2.2576823
-4.3456035 6.6636 -2.1316338
-5.0283961 7.7135448 -2.1257875
-6.0189686 9.2401276 -2.1435483
-7.432055 11.413809 -2.1572316
-9.8355227 15.11648 -2.214366
-14.07249 21.644915 -2.258728
-4.320334 6.6731086 -2.1300809
-5.0056753 7.7375937 -2.1275871
-5.9797673 9.2468472 -2.1404953
-7.3932433 11.44134 -2.1575444
-9.7762394 15.140713 -2.2129037
-13.994158 21.681414 -2.2576823
-4.2949243 6.6848993 -2.1290457
-4.9863052 7.7639899 -2.1302865
-5.9421487 9.2594042 -2.1385872
-18.092531 28.203669 2.9315705
-7.3605914 11.474109 -2.1591089
-9.7259731 15.173052 -2.2129037
-13.926983 21.743557 -2.2590768
-4.2706556 6.6958461 -2.1280103
-4.9570808 7.7780609 -2.1293867
-5.920907 9.2939596 -2.1420219
-18.050282 28.344172 2.9399376
-7.3120103 11.4864 -2.1566057
-9.6654949 15.195183 -2.2111976
-13.83984 21.766081 -2.2566366
-4.2482882 6.7123461 -2.1285279
-4.9257355 7.7887278 -2.1275871
-5.8842306 9.3079348 -2.1404953
-7.2792521 11.523545 -2.1587958
-9.5848494 15.185182 -2.2048604
-13.765898 21.817631 -2.2569852
-4.224833 6.7271333 -2.1285279
-4.9005876 7.8091769 -2.1284869
-5.8558793 9.3350697 -2.1420219
-7.2368875 11.545536 -2.1581702
-9.5222979 15.203407 -2.2026668
-13.679087 21.84866 -2.2552419
-4.1982617 6.7369208 -2.1269751
-4.8767228 7.8286943 -2.1293867
-5.8222222 9.3537855 -2.1416404
-7.2027326 11.576182 -2.1594217
-9.4623995 15.219728 -2.2004731
-13.60064 21.892889 -2.2548933
-4.1758966 6.7508068 -2.1269751
-4.8534656 7.8522987 -2.1311862
-5.7870407 9.3663616 -2.1401138
-7.1612449 11.599571 -2.1591089
-9.4019156 15.240841 -2.1987669
-13.526221 21.943626 -2.2552419
-4.1501169 6.7644196 -2.1264575
-4.8239903 7.865869 -2.1302865
-5.7598557 9.3992262 -2.1427851
-7.116622 11.622369 -2.158483
-9.3528061 15.280336 -2.1997418
-13.441229 21.977106 -2.2538474
-4.1325045 6.7887669 -2.1295633
-4.7951298 7.8834958 -2.1302865
-5.7321086 9.4276638 -2.1446934
-7.0770307 11.648829 -2.1587958
-9.2823124 15.290761 -2.1963296
-13.360584 22.026228 -2.2538474
-4.1055989 6.800559 -2.1285279
-4.766573 7.898519 -2.1298366
-26.736271 44.321205 2.7126775
-5.6914349 9.4385204 -2.1424036
-7.0363307 11.678074 -2.1594217
-9.238102 15.33837 -2.198523
-13.287731 22.079556 -2.2545447
-4.0812325 6.808454 -2.1269751
-4.7413535 7.9159551 -2.1302865
-26.541943 44.330807 2.7078626
-5.6597352 9.4529867 -2.1416404
-7.0026464 11.705209 -2.1603601
-9.1780233 15.353584 -2.1963296
-13.220338 22.124617 -2.2548933
-4.0554686 6.8193369 -2.1259398
-4.7176766 7.939158 -2.132086
-26.387049 44.42318 2.7078626
-5.6267061 9.4726839 -2.1416404
-6.955698 11.719387 -2.158483
-9.0950041 15.336014 -2.189261
-13.141002 22.167198 -2.2545447
-4.0306602 6.8317876 -2.1254222
-4.6859779 7.9488606 -2.1302865
-5.5956011 9.4956493 -2.1424036
-6.9127455 11.740191 -2.1578572
-8.9880619 15.276991 -2.176343
-13.065568 22.216366 -2.2548933
-4.0048342 6.8424816 -2.1243868
-4.6542659 7.9584427 -2.1284869
-5.5634093 9.51682 -2.1427851
-6.8776975 11.774485 -2.1597345
-8.9326811 15.304841 -2.1758554
-12.979899 22.248074 -2.2534988
-23.406507 40.151894 -2.4357157
-3.9867463 6.8664422 -2.1274927
-4.6362376 7.9914951 -2.1329858
-5.5242486 9.5259905 -2.1404953
-6.8345766 11.795 -2.1591089
-8.8553362 15.294698 -2.1700058
-12.914142 22.313936 -2.2555907
-3.963716 6.8819919 -2.1280103
-4.6034522 7.9991865 -2.1307364
-5.4909601 9.5452166 -2.1404953
-6.7904067 11.813649 -2.1581702
-8.7860708 15.297976 -2.1661057
-12.832198 22.351973 -2.2548933
-3.9358377 6.8890762 -2.1259398
-4.5784016 8.0202827 -2.132086
-5.4615016 9.571146 -2.1420219
-6.7520657 11.842427 -2.1591089
-8.7326136 15.328553 -2.1661057
-12.752131 22.393164 -2.2545447
-3.9079578 6.8960481 -2.1238692
-4.553256 8.0413046 -2.1334357
-5.428061 9.5901508 -2.1420219
-6.7077661 11.860768 -2.1581702
-8.6868696 15.372766 -2.1680558
-12.67192 22.434072 -2.2541959
-3.8867006 6.9147015 -2.1254222
-4.5203891 8.0486526 -2.1311862
-5.3993545 9.6175995 -2.14393
-6.6595612 11.872049 -2.1559801
-8.6457767 15.425505 -2.1712244
-12.597434 22.485119 -2.2548933
-3.8625381 6.9282279 -2.1254222
-4.4946246 8.0653 -2.1316364
-5.3600168 9.6260986 -2.1416404
-6.6259165 11.904426 -2.1578572
-8.6283407 15.514813 -2.1797554
-12.522745 22.535919 -2.2555907
-8.5615215 15.413658 -0.92404372
-3.838608 6.9393063 -2.1249044
-4.4683275 8.0843525 -2.1325359
-5.326169 9.6403818 -2.140877
-6.58146 11.922293 -2.1569188
-8.6220713 15.631745 -2.1919422
-8.5182753 15.44994 -1.5435282
-8.5346518 15.492428 -0.92697448
-3.8143601 6.9526644 -2.1249044
-4.4410191 8.1016083 -2.1329858
-5.296257 9.6658039 -2.1424036
-6.5379086 11.941726 -2.1562929
-15.638463 28.576088 3.999752
-8.4855261 15.511972 -2.1709807
-8.4977455 15.540767 -1.5496291
-8.5111675 15.578212 -0.93032408
-3.7882226 6.9625416 -2.1238692
-4.4108481 8.1136379 -2.132086
-5.2643614 9.6876812 -2.1431668
-6.4942961 11.961004 -2.1556673
-8.4436293 15.564183 -2.1741493
-3.7709329 6.9916816 -2.1285279
-4.3806515 8.1255531 -2.1311862
-5.2316141 9.7120953 -2.1443117
-6.4513521 11.986465 -2.1559801
-8.3986511 15.611047 -2.1765866
-12.204985 22.705061 -2.2552419
-3.7419474 6.9962859 -2.1259398
-4.3535943 8.1467123 -2.1325359
-5.1986032 9.7320309 -2.1446934
-6.4159799 12.021112 -2.1581702
-8.3189611 15.599684 -2.1707368
-12.174383 22.838953 -2.2643061
-3.7193146 7.0127172 -2.1269751
-4.3247309 8.1576605 -2.1316364
-5.1554127 9.7327671 -2.140877
-6.3714619 12.033591 -2.1566057
-8.1994247 15.499092 -2.1529438
-8.2027216 15.518424 -1.5356841
-3.6960373 7.0250134 -2.1269751
-4.2971373 8.1744308 -2.132086
-5.1294985 9.7619772 -2.1435483
-6.3248296 12.047013 -2.1550415
-8.1342039 15.506526 -2.1500192
-11.959427 22.808363 -2.2531502
-3.6697075 7.0344462 -2.1259398
-4.264071 8.1807413 -2.1298366
-5.0972085 9.7833042 -2.1443117
-6.283648 12.070771 -2.1553543
-14.59768 28.053825 3.8830013
-8.1414013 15.652818 -2.1663496
-11.883419 22.857038 -2.2538474
-3.647794 7.0523596 -2.1274927
-4.2372761 8.1990395 -2.1307364
-5.0639305 9.8027811 -2.1446934
-6.2414713 12.092633 -2.1553543
-14.372249 27.857626 3.8488779
-8.0166407 15.538596 -2.1468506
-11.80538 22.901924 -2.2541959
-3.6235039 7.0626998 -2.1269751
-4.2100654 8.2130451 -2.1307364
-5.0287066 9.8142776 -2.1435483
-6.1986384 12.107988 -2.1544156
-14.326806 27.99703 3.8615522
-8.0166101 15.665827 -2.1607437
-11.723933 22.930302 -2.2531502
-3.5991886 7.0729542 -2.1264575
-4.1810422 8.223485 -2.1298366
-4.9899096 9.8186483 -2.140877
-6.1638155 12.139047 -2.1562929
-7.8388362 15.45118 -2.1273515
-11.651426 22.976164 -2.2538474
-3.5753455 7.0872002 -2.1269751
-4.1593261 8.2519522 -2.1334357
-4.9573698 9.8395147 -2.1416404
-6.1240721 12.16578 -2.1572316
-7.7616601 15.432343 -2.1210144
-11.567579 23.009573 -2.2531502
-3.5523143 7.1030922 -2.1280103
-4.1226587 8.2507315 -2.1293867
-4.9282584 9.8672962 -2.14393
-6.075397 12.17471 -2.1550415
-7.7024322 15.44868 -2.1195517
-11.487195 23.04981 -2.2531502
-3.5249259 7.1102562 -2.1264575
-4.0938306 8.2650728 -2.1293867
-4.8955297 9.8879566 -2.1446934
-6.0328588 12.195845 -2.1550415
-7.6537328 15.486154 -2.1210144
-11.404896 23.086197 -2.2528017
-3.506047 7.1346545 -2.1300809
-4.0649571 8.2793121 -2.1293867
-4.859252 9.9014606 -2.14393
-5.991992 12.220374 -2.1556673
-7.6293249 15.573382 -2.1293013
-11.315482 23.107969 -2.2510586
-3.4768894 7.1381664 -2.1274927
-4.0326228 8.2864408 -2.1275871
-4.8229394 9.9148331 -2.1431668
-5.9501591 12.242994 -2.1559801
-7.6234779 15.699918 -2.1429508
-11.239965 23.158087 -2.2521045
-3.4494336 7.1450396 -2.1259398
-4.0070577 8.3074884 -2.1293867
-4.7891555 9.9333744 -2.1435483
-5.9013882 12.25123 -2.15379
-7.561738 15.712126 -2.1410007
-11.157337 23.193584 -2.2517557
-3.4269743 7.1622639 -2.1274927
-3.9805577 8.3266983 -2.1307364
-4.7544541 9.9500303 -2.1435483
-5.8585901 12.271754 -2.15379
-7.6290498 15.994641 -2.1758554
-11.095166 23.271959 -2.2555907
-7.362473 15.456573 -0.89724773
-3.404434 7.1794205 -2.1290457
-3.9414537 8.3194113 -2.1253376
-4.7213717 9.9701166 -2.1443117
-5.8131809 12.286775 -2.1528513
-7.5562081 15.98528 -2.1709807
-11.059831 23.407822 -2.2650034
-3.3818185 7.1965051 -2.1305985
-3.9173601 8.3437014 -2.128037
-4.6873722 9.9883156 -2.1446934
-5.7660661 12.298048 -2.1512871
-7.3959494 15.78865 -2.1407571
-7.2454863 15.474475 -1.4948952
-3.352598 7.1995096 -2.1280103
-3.885747 8.3520231 -2.1266873
-4.6475129 9.9939346 -2.1424036
-5.7272611 12.32706 -2.1528513
-7.2864614 15.697336 -2.1249142
-7.1830359 15.481601 -1.4931521
-3.3201635 7.1953812 -2.1233516
-3.8590147 8.3708458 -2.128037
-4.6183524 10.022576 -2.1450748
-5.6850257 12.348769 -2.1531644
-7.2407503 15.742511 -2.1275952
-7.1089807 15.463133 -1.4889687
-9.1902285 20.017775 5.0852437
-9.0488758 19.728071 5.8156643
-3.3014543 7.2209816 -2.1274927
-3.8273401 8.3789492 -2.1266873
-4.5800791 10.031491 -2.1435483
-5.632864 12.34877 -2.1497226
-7.0639157 15.50035 -2.0915217
-7.0533047 15.484227 -1.4886199
-7.0353432 15.459098 -0.89013004
-3.2730379 7.2254248 -2.1254222
-3.79632 8.3844929 -2.1248875
-4.5482693 10.054574 -2.1450748
-9.0408182 19.995266 1.9198667
-5.5975823 12.37998 -2.1519127
-9.0295715 19.979679 2.6920938
-7.1048236 15.728114 -2.1190643
-10.564389 23.408409 -2.246875
-9.0609493 20.105179 -0.38493028
-3.2546 7.2485743 -2.1290457
-3.7686226 8.4012518 -2.1257875
-8.9999037 20.072506 1.1528566
-4.5116911 10.062435 -2.1435483
-5.5462556 12.381418 -2.1487842
-7.0433888 15.738327 -2.1171145
-10.522496 23.523344 -2.2545447
-8.9753647 20.08349 -1.1528566
-8.949955 20.045385 -0.38318503
-3.2277057 7.2563605 -2.1280103
-3.7392759 8.4143543 -2.1257875
-4.4709573 10.065564 -2.140877
-5.5046077 12.404313 -2.1494098
-12.60035 28.407526 3.8157294
-7.0213981 15.837218 -2.1271076
-8.8888865 20.058907 -1.919518
-8.9084435 20.122 -1.1532753
-8.8783054 20.072849 -0.38311523
-3.2007966 7.2640491 -2.1269751
-3.7130234 8.4344883 -2.1275871
-4.4357924 10.081111 -2.140877
-5.4596882 12.419834 -2.1487842
-12.45 28.335026 3.8001301
-6.9596915 15.847092 -2.1251578
-10.372442 23.629063 -2.2576823
-8.8033638 20.09273 -0.38290578
-3.1769679 7.2787175 -2.1280103
-3.683557 8.4473991 -2.1275871
-4.4052839 10.10733 -2.1431668
-5.4099884 12.424328 -2.146281
-12.327256 28.323706 3.7928181
-6.9185815 15.904055 -2.1295452
-10.270825 23.621279 -2.2534988
-8.7530804 20.169195 -0.38377842
-3.1523092 7.2915354 -2.1285279
-3.6470954 8.4441042 -2.123538
-4.3730912 10.129856 -2.1446934
-5.365025 12.439507 -2.1456554
-12.198458 28.297287 3.783556
-6.8119693 15.809608 -2.1137023
-10.18989 23.660643 -2.2538474
-8.7260599 20.300667 -0.38569817
-3.1329195 7.3167033 -2.1326692
-3.6191282 8.4603672 -2.1244378
-4.3377018 10.14506 -2.1446934
-5.3246708 12.465427 -2.1469069
-12.084011 28.30319 3.7786813
-6.6725893 15.636105 -2.0873783
-10.104104 23.68874 -2.2531502
-3.1043448 7.3204794 -2.1305985
-3.5910964 8.4765377 -2.1253376
-4.2953749 10.143868 -2.1412585
-5.2772808 12.474841 -2.1453426
-11.958861 28.28303 3.7703941
-6.645792 15.725127 -2.0961528
-10.035313 23.756899 -2.2562878
-3.072787 7.3170228 -2.1264575
-3.5637488 8.4944105 -2.1266873
-4.2622151 10.164233 -2.1424036
-5.2321792 12.48954 -2.1447167
-11.82632 28.244036 3.7596698
-6.6038847 15.779362 -2.1002965
-9.9523296 23.791782 -2.2562878
-3.0509374 7.3366222 -2.1290457
-3.5303357 8.4978018 -2.1244378
-4.2289696 10.184486 -2.1435483
-5.1900611 12.511379 -2.1453426
-11.709416 28.241137 3.7538199
-6.5206485 15.734464 -2.0912783
-3.024575 7.3454394 -2.1285279
-3.4969423 8.5010624 -2.1221881
-4.1919031 10.195555 -2.1427851
-5.1441016 12.523938 -2.1444039
-11.585137 28.219397 3.7455328
-6.410677 15.623063 -2.0734851
-3.0011022 7.361321 -2.1300809
-3.4701891 8.5204363 -2.1239879
-4.1533246 10.202852 -2.1412585
-5.1011004 12.543648 -2.1447167
-11.471607 28.222889 3.740658
-6.3590884 15.652705 -2.0744603
-9.6426668 23.747019 -2.2423429
-2.9732206 7.3663764 -2.1285279
-3.4419167 8.5318966 -2.1239879
-4.116219 10.213646 -2.1404953
-5.055788 12.551332 -2.1431525
-11.349787 28.190798 3.731396
-6.3634634 15.813668 -2.0929844
-9.6087685 23.90254 -2.2538474
-2.9437547 7.3636398 -2.1249044
-3.4135568 8.5474787 -2.1248875
-4.0808687 10.223594 -2.1397321
-5.010479 12.565235 -2.1425269
-11.248365 28.22287 3.7304208
-6.3243895 15.876353 -2.0983465
-9.5603991 24.012022 -2.2611687
-2.9222994 7.3846478 -2.1280103
-3.3816118 8.5496912 -2.1226382
-4.0480447 10.245079 -2.1412585
-4.9651575 12.572594 -2.1409624
-11.119735 28.171385 3.7187216
-6.2542248 15.852919 -2.0924966
-9.5130558 24.137926 -2.2698841
-2.895798 7.3930054 -2.1274927
-3.3467045 8.5529528 -2.1203887
-4.01297 10.260977 -2.1416404
-4.9190464 12.590707 -2.1409624
-10.993294 28.152781 3.7109218
-6.1224585 15.687115 -2.0676355
-9.4360952 24.202335 -2.2726731
-2.8735693 7.4161787 -2.1311162
-3.315419 8.5609503 -2.119489
-3.9682534 10.257304 -2.1378241
-4.8707261 12.603124 -2.1400237
-10.884943 28.165058 3.7075095
-6.05193 15.66765 -2.0622733
-9.3529949 24.23884 -2.2730217
-2.8435156 7.4153404 -2.1280103
-3.2882035 8.5839615 -2.1221881
-3.9303207 10.265593 -2.1366794
-4.8267059 12.620048 -2.1400237
-10.758951 28.145433 3.6997099
-6.0072136 15.723106 -2.0666604
-9.2754297 24.289955 -2.2747648
-2.8162415 7.4216099 -2.1269751
-3.2610998 8.5984631 -2.1230881
-3.892374 10.273743 -2.1355343
-4.7799296 12.623055 -2.1378336
-10.638864 28.110405 3.6904478
-5.9704952 15.783788 -2.0720227
-9.1891823 24.318455 -2.2744162
-2.78754 7.4200563 -2.1238692
-3.2317524 8.611619 -2.123538
-3.8603542 10.292109 -2.1366794
-4.7316818 12.628563 -2.1359563
-10.535097 28.132498 3.6884978
-5.8930922 15.745043 -2.0642233
-9.1322289 24.412239 -2.2803428
-2.7649858 7.438797 -2.1264575
-3.1969218 8.6100597 -2.1203887
-3.825768 10.309202 -2.1374426
-4.6861949 12.6413 -2.1353307
-10.414769 28.109535 3.6806982
-5.8022528 15.668714 -2.0515487
-9.0621653 24.485079 -2.2841778
-2.7410045 7.4538412 -2.1280103
-3.1668456 8.6211681 -2.1203887
-3.7870543 10.315121 -2.135916
-4.6427164 12.659436 -2.1356435
-10.298828 28.097258 3.674361
-5.746161 15.685143 -2.0510612
-8.42313 23.004858 -2.1433339
-15.519837 42.432858 -2.3678882
-2.7143066 7.4615493 -2.1274927
-3.1354034 8.6285057 -2.119489
-3.7456603 10.313516 -2.132863
-4.5998487 12.679279 -2.1362693
-10.196621 28.12184 3.6728985
-5.6399693 15.563267 -2.0325372
-8.3278551 22.992905 -2.1394989
-2.6830134 7.4564362 -2.1233516
-3.1072445 8.6448984 -2.1208386
-3.7096388 10.326528 -2.132863
-4.5515618 12.684101 -2.1343923
-10.080978 28.108677 3.6665616
-5.6405368 15.736088 -2.0525236
-8.3295269 23.250664 -2.1607652
-5.5396323 15.480094 -0.86165929
-2.6602097 7.4748559 -2.1259398
-3.0763941 8.6538572 -2.1203887
-3.6788304 10.354212 -2.135916
-4.5092363 12.705498 -2.1353307
-9.9695177 28.106279 3.6616867
-5.5849056 15.753812 -2.0522799
-8.2696037 23.339697 -2.166343
-2.6334579 7.482275 -2.1254222
-3.0435841 8.6571875 -2.1185889
-3.6387572 10.355878 -2.1336262
-4.4642072 12.719296 -2.1350179
-9.85427 28.092203 3.6553495
-5.493763 15.670179 -2.0388744
-5.2694173 15.038671 -1.3941432
-2.6098616 7.4987197 -2.1274927
-3.0129402 8.6617117 -2.1172395
-3.601295 10.364808 -2.132863
-4.4220066 12.734029 -2.1350179
-9.7415257 28.068468 3.6480372
-5.4463177 15.701441 -2.0405805
-5.2077546 15.030619 -1.3917029
-2.5830953 7.5018535 -2.1259398
-2.9833181 8.6740189 -2.1176891
-3.5630774 10.365554 -2.1305733
-4.3794503 12.754992 -2.1359563
-9.6177216 28.027195 3.6382878
-5.3773117 15.679044 -2.0352182
-5.157197 15.054359 -1.3922259
-2.5537171 7.5057831 -2.1243868
-2.9567842 8.6954508 -2.1203887
-3.5275896 10.385978 -2.1320999
-4.3282318 12.757863 -2.1337664
-9.5140963 28.043678 3.6360941
-5.353786 15.789836 -2.0471613
-5.1416874 15.18172 -1.4023358
-2.5268836 7.5128207 -2.1238692
-2.9217927 8.6969929 -2.118139
-3.4888117 10.390785 -2.1305733
-4.283041 12.771022 -2.1334534
-9.409977 28.074594 3.6356065
-5.2719135 15.737826 -2.0378993
-5.1297727 15.322383 -1.4136661
-2.5018642 7.5252614 -2.1249044
-2.8883474 8.6978903 -2.1158895
-3.4562325 10.414079 -2.132863
-4.2421679 12.797144 -2.1353307
-9.2969446 28.062048 3.6297569
-5.1782641 15.639297 -2.0227876
-7.8791552 23.810402 -2.1942329
-2.4779913 7.5412908 -2.1269751
-2.8579664 8.7079201 -2.1158895
-3.4186327 10.42235 -2.1320999
-4.198698 12.815629 -2.1359563
-9.1803951 28.037735 3.6224446
-5.1304278 15.67803 -2.0254686
-4.9582682 15.160879 -1.3955377
-2.4492669 7.5425444 -2.1249044
-2.8314822 8.7247639 -2.1176891
-3.3743634 10.409941 -2.1271389
-4.1573973 12.833241 -2.1365821
-9.0800352 28.045357 3.6195197
-4.9470215 15.288889 -1.9730648
-4.9200244 15.223594 -1.3997213
-2.420696 7.5395889 -2.1217985
-2.8010077 8.7345943 -2.1176891
-3.3410199 10.424812 -2.127902
-4.1089582 12.836388 -2.1347051
-8.973609 28.050415 3.6161075
-4.914784 15.372239 -1.9815956
-4.9010439 15.338515 -1.4087855
-2.3949492 7.5498343 -2.1223164
-2.7699142 8.7424612 -2.1172395
-3.3028347 10.430797 -2.1267571
-4.0587683 12.8337 -2.1318891
-8.8541088 28.013426 3.6073329
-4.9489856 15.667561 -2.0174253
-7.7000604 24.391768 -2.2378109
-2.3691599 7.5599914 -2.122834
-2.7329793 8.7316179 -2.1122904
-3.2669923 10.444135 -2.1271389
-4.0133591 12.845904 -2.1315763
-8.7361603 27.979734 3.5990458
-4.9072709 15.726433 -2.0227876
-7.2245822 23.166946 -2.1231139
-2.3438966 7.5719061 -2.1238692
-2.7042081 8.7466917 -2.1136403
-3.2305129 10.455476 -2.1271389
-3.9690728 12.861723 -2.1318891
-8.6302414 27.983503 3.5956335
-4.8611183 15.771918 -2.0264435
-7.6457143 24.821941 -2.2723243
-2.3151937 7.5726514 -2.1217985
-2.6759384 8.7635317 -2.1154397
-3.1899879 10.453544 -2.1244676
-3.9247317 12.877389 -2.1322021
