# .PCD v0.7 - Point Cloud Data file format
VERSION 0.7
FIELDS x y z
SIZE 4 4 4
TYPE F F F
COUNT 1 1 1
WIDTH 1499
HEIGHT 1
VIEWPOINT 0 0 0 1 0 0 0
POINTS 1499
DATA ascii
9.1026716 -11.72664 2.3512104
10.556701 -13.599813 -1.5062256
9.0893097 -11.713645 2.8819792
19.855457 -25.5975 -1.6977786
9.0944777 -11.728756 3.4264543
9.0979795 -11.741734 3.9801192
4.7585974 -6.1569052 -2.0850463
5.4758043 -7.0899763 -2.0681999
5.2525921 -6.8034186 -1.6707237
5.2404022 -6.792531 -1.35879
10.934826 -14.18379 -2.1990106
10.572409 -13.718642 -1.5152898
19.817165 -25.733112 -1.7021748
11.060083 -14.366998 4.1858892
9.1205454 -11.856106 4.0080719
4.7170835 -6.1474228 -2.0762465
5.4522076 -7.1105933 -2.0686498
5.1786494 -6.7562685 -1.6546957
5.204649 -6.7951002 -1.3556613
10.984182 -14.351134 -2.218997
10.919138 -14.271312 -1.5721152
19.759975 -25.844973 -1.705001
9.1142807 -11.933928 4.0236011
4.7002797 -6.1699982 -2.0783172
5.4226332 -7.1233797 -2.0668504
5.1086674 -6.7133737 -1.6398127
5.1737237 -6.8037915 -1.353784
10.973655 -14.441548 -2.2270405
10.948795 -14.414055 -1.5836197
19.727596 -25.990149 -1.7100251
4.6717219 -6.1771226 -2.0752113
5.4060326 -7.15065 -2.0695498
5.0721841 -6.7139339 -1.6356149
5.1535139 -6.8240628 -1.3544097
10.938859 -14.495289 -2.2297218
10.934403 -14.499908 -1.5888492
19.671362 -26.095299 -1.7126421
4.661653 -6.2064829 -2.07987
5.2722483 -7.0245285 -2.027709
5.016902 -6.6867461 -1.6249295
5.1628408 -6.8862653 -1.3631701
10.894144 -14.541328 -2.2309406
10.981807 -14.663669 -1.6027942
19.596905 -26.186193 -1.7141075
4.6503544 -6.2366557 -2.0845287
5.1976819 -6.9732251 -2.0079131
4.9700756 -6.6727271 -1.6172972
5.1659303 -6.9382052 -1.3700532
21.002272 -28.2178 4.3190498
10.902741 -14.65382 -2.2426398
11.032785 -14.839418 -1.6177849
19.47422 -26.202944 -1.7109672
4.6158509 -6.2334123 -2.0783172
5.1837416 -7.005425 -2.0119622
4.9175653 -6.6481338 -1.6073751
5.1592927 -6.9800234 -1.3747462
20.863537 -28.236656 4.3107629
10.765429 -14.575223 -2.2248468
10.999849 -14.903488 -1.6205739
19.354176 -26.232189 -1.7084551
4.5918293 -6.2487316 -2.0777996
5.1857915 -7.0595984 -2.02231
4.8687687 -6.6328769 -1.5993611
5.1675572 -7.0450788 -1.3838195
20.776588 -28.325317 4.3132
10.367041 -14.138859 -2.1527004
11.027832 -15.051082 -1.6324271
19.262619 -26.309393 -1.7088737
4.5620193 -6.2537966 -2.0741758
5.1771002 -7.10218 -2.0290585
4.8236189 -6.6196847 -1.5921104
5.1754909 -7.1077867 -1.3925798
20.504406 -28.170162 4.2781014
10.779984 -14.815613 -2.2497082
11.026793 -15.160378 -1.6400968
19.130743 -26.321547 -1.7053151
4.5378957 -6.2665534 -2.0731406
5.1499929 -7.1170516 -2.0281587
4.7970309 -6.6317096 -1.5909655
20.403622 -28.238346 4.2776146
10.74215 -14.872462 -2.2526331
11.022791 -15.266621 -1.6474178
18.966293 -26.287743 -1.6988254
4.5193768 -6.2870617 -2.0746937
5.2103858 -7.2536893 -2.0619013
4.7601113 -6.6292772 -1.586386
5.1222882 -7.1389308 -1.3916413
20.348896 -28.370695 4.2868767
10.695086 -14.911228 -2.2531207
11.021664 -15.377878 -1.6552618
18.886047 -26.370026 -1.6998721
4.4985032 -6.3020144 -2.0746937
5.1942239 -7.2820334 -2.0650506
4.725564 -6.6274428 -1.5821884
8.7150517 -12.231594 -2.3787427
10.644428 -14.944995 -2.2528768
10.977541 -15.424084 -1.6563078
18.916567 -26.598524 -1.7105486
4.4764628 -6.3153205 -2.0741758
5.1801848 -7.31353 -2.0690999
4.6922159 -6.6270533 -1.5783721
8.7257843 -12.332994 -2.3928218
10.594489 -14.985304 -2.2533646
10.953524 -15.504617 -1.6608399
18.860519 -26.706789 -1.7134794
22.432268 -31.787989 -0.67910808
4.4588428 -6.3395858 -2.0767641
5.164712 -7.3459153 -2.073149
4.6543512 -6.6249299 -1.5737926
8.7088985 -12.405312 -2.4006436
19.723047 -28.094316 4.2147298
10.583164 -15.080688 -2.2621388
10.885608 -15.523182 -1.6587481
18.737288 -26.739752 -1.7111766
4.4234161 -6.336103 -2.0705523
5.1344075 -7.3600006 -2.071799
4.6244597 -6.6314735 -1.5715029
8.676837 -12.451842 -2.4037724
19.556404 -28.075197 4.2010803
10.542568 -15.140555 -2.2653077
10.794501 -15.513911 -1.6535187
18.648399 -26.811554 -1.7115953
4.4023643 -6.3554497 -2.0715878
5.0942636 -7.3570504 -2.0659504
4.5822496 -6.6225471 -1.5653971
8.67383 -12.545304 -2.4156613
19.41087 -28.074711 4.1908431
10.692728 -15.48264 -1.6461976
18.554541 -26.886299 -1.712014
4.381247 -6.3723698 -2.0721054
28.020382 -40.769905 0.86351013
5.0716786 -7.3820972 -2.06775
4.5535474 -6.6304107 -1.563489
8.6624002 -12.622738 -2.4247346
19.249449 -28.060551 4.1781688
10.612457 -15.475913 -2.3040619
10.631405 -15.515154 -1.6455004
18.467348 -26.960789 -1.7126421
4.3709254 -6.407536 -2.0783172
5.0601521 -7.4206862 -2.0735989
4.5159492 -6.6275859 -1.5589095
8.6772232 -12.744209 -2.4419422
19.124567 -28.088188 4.1723189
10.553904 -15.506299 -2.303087
10.55029 -15.512631 -1.6413169
18.393108 -27.064636 -1.7149448
4.3518944 -6.4204769 -2.0783172
51.96207 -76.68998 1.6169654
5.0357213 -7.4349337 -2.073149
4.4874034 -6.6303592 -1.5562382
8.6659384 -12.809165 -2.4494512
19.111853 -28.259951 4.1888933
9.9181223 -14.671056 -2.1743929
10.853933 -16.06741 -1.6963993
18.325871 -27.148771 -1.7166196
4.320787 -6.4251628 -2.0746937
5.0073504 -7.4517226 -2.0726991
4.4444671 -6.6190543 -1.5497508
8.678381 -12.929409 -2.466346
9.7913046 -14.5985 -2.1583064
10.890366 -16.24942 -1.7113901
18.21735 -27.20248 -1.715782
4.3100743 -6.4602399 -2.0809052
4.9713569 -7.4570537 -2.0690999
4.419157 -6.6312594 -1.5489874
8.6539249 -12.995659 -2.4729164
9.7842846 -14.698688 -2.1680558
12.766804 -19.193773 -2.016784
18.117863 -27.259253 -1.7153634
4.3067632 -6.5018768 -2.089705
4.9369202 -7.4588733 -2.0650506
4.3808937 -6.6213183 -1.5432632
8.6510916 -13.085254 -2.4844925
10.252089 -15.512734 -2.2831006
12.727241 -19.272581 -2.0206187
18.033968 -27.329184 -1.7159915
4.3032241 -6.5435624 -2.098505
4.9196501 -7.4866037 -2.0681999
4.348134 -6.619401 -1.5394472
8.6401711 -13.163412 -2.4938784
18.432281 -28.09251 4.1255212
10.198964 -15.550084 -2.283344
12.67081 -19.333555 -2.0223618
17.908216 -27.335377 -1.7126421
4.3034887 -6.5965042 -2.1104105
4.9190354 -7.5429063 -2.0789976
4.3109808 -6.6155553 -1.5348676
8.6242027 -13.244653 -2.5032647
18.321112 -28.136719 4.1225967
10.157618 -15.605557 -2.2862689
12.622799 -19.407732 -2.0254996
17.873211 -27.501308 -1.7189224
4.300385 -6.6422973 -2.1202457
4.8828878 -7.5477958 -2.0753984
4.2782664 -6.615725 -1.531433
8.5629091 -13.251449 -2.4988844
18.194164 -28.166992 4.1172342
10.167113 -15.746077 -2.3013809
12.554977 -19.451674 -2.0254996
17.755455 -27.529963 -1.7168288
4.2949252 -6.6848984 -2.1290457
4.8473005 -7.5475488 -2.0708995
4.243484 -6.6124444 -1.5272354
8.5551815 -13.336302 -2.5095217
17.961357 -28.009939 4.0855484
10.1127 -15.776363 -2.3008933
12.510641 -19.532291 -2.0293343
17.664066 -27.588688 -1.7168288
4.2779274 -6.7072477 -2.1316338
4.814642 -7.5545626 -2.0681999
4.2088747 -6.6066108 -1.5226558
8.4725103 -13.309427 -2.4988844
17.878393 -28.095913 4.0889606
10.042652 -15.788117 -2.2974811
12.46376 -19.60947 -2.0328205
17.550518 -27.623209 -1.7151542
4.2522826 -6.7212496 -2.1311162
11.348837 -17.938217 0.3705146
4.7965746 -7.5844989 -2.071799
4.1720467 -6.6020756 -1.5180764
8.4321089 -13.353754 -2.5013874
9.915431 -15.708927 -2.2809069
12.410114 -19.676451 -2.0352609
17.481102 -27.738041 -1.7182943
4.2164688 -6.7164178 -2.1249044
4.7842774 -7.6267915 -2.0785477
4.1364603 -6.5966392 -1.513497
8.4263487 -13.448389 -2.5135894
9.8451471 -15.724973 -2.277982
12.36461 -19.756807 -2.0390959
17.377815 -27.788731 -1.7176661
4.1929984 -6.7310958 -2.1249044
4.7565956 -7.6417904 -2.0780978
4.094739 -6.5810332 -1.5066279
8.452363 -13.595151 -2.53549
9.7556276 -15.703599 -2.2699387
11.133074 -17.927849 -1.8463073
11.145583 -17.961985 -1.1078477
4.1694775 -6.7456903 -2.1249044
4.7012191 -7.6119227 -2.0655005
4.0738053 -6.5986276 -1.5073912
8.4484158 -13.695186 -2.5486307
9.8608294 -15.991004 -2.3067431
12.257737 -19.893534 -2.0443251
17.191772 -27.922977 -1.7185037
11.036594 -17.932713 -0.36754769
4.149106 -6.762774 -2.1259398
4.6800261 -7.6341166 -2.0673003
4.031384 -6.5786223 -1.4997588
8.3895435 -13.701225 -2.5445633
9.7020426 -15.850917 -2.2818818
12.206252 -19.957869 -2.0467653
17.090746 -27.9662 -1.7176661
4.1387134 -6.7962947 -2.1321514
10.894758 -17.897612 0.36573264
4.6607623 -7.6595831 -2.0699997
4.0075068 -6.5885997 -1.4989955
8.4066467 -13.831941 -2.5636482
9.6548977 -15.898262 -2.2838318
12.175157 -20.056141 -2.0526922
17.004129 -28.032969 -1.7182943
4.112968 -6.8073936 -2.1311162
10.814643 -17.906433 0.36513925
4.6511197 -7.7041655 -2.0776479
3.9682531 -6.5756536 -1.4928896
8.3746319 -13.888267 -2.5686541
9.5809021 -15.901259 -2.2794445
10.470643 -17.384809 -1.7755368
16.918533 -28.112688 -1.7195504
4.101099 -6.8415923 -2.1373277
4.602169 -7.6835752 -2.06775
3.9331734 -6.5692525 -1.4883102
8.3220472 -13.910634 -2.5674028
9.5711727 -16.011282 -2.2904127
10.383321 -17.376785 -1.7710047
16.803915 -28.144133 -1.7178756
4.0801539 -6.8608475 -2.1388805
4.5763159 -7.7012677 -2.0681999
3.900193 -6.5660625 -1.4844941
8.3097353 -14.000752 -2.578666
9.550663 -16.104353 -2.2989435
11.956335 -20.168827 -2.0512974
16.713715 -28.216368 -1.7187129
4.0502911 -6.8650651 -2.1357749
4.5454469 -7.7104807 -2.0664005
3.8613019 -6.5525737 -1.4783882
8.2337503 -13.983714 -2.5702186
9.5084848 -16.161545 -2.3023558
11.903537 -20.248583 -2.0549581
16.564524 -28.188442 -1.7134794
4.0485144 -6.9198828 -2.1481981
4.5194879 -7.7279825 -2.0668504
3.807544 -6.5158305 -1.4669396
8.2441978 -14.119564 -2.5896165
9.4910374 -16.261501 -2.3118618
16.527462 -28.362858 -1.7203877
4.0553665 -6.9874382 -2.1647625
4.4930882 -7.7478676 -2.06775
3.7828071 -6.5256848 -1.4661764
8.2235718 -14.197825 -2.5986898
9.4612017 -16.347721 -2.3191738
11.818757 -20.429493 -2.0648937
16.476337 -28.503376 -1.725412
4.0386624 -7.014946 -2.1689036
4.4654269 -7.7593455 -2.0668504
3.7404325 -6.5048103 -1.458544
8.2010555 -14.267833 -2.6065114
9.4267111 -16.413435 -2.3240488
11.766213 -20.503456 -2.0682058
16.395639 -28.582111 -1.7268775
4.2405834 -7.4224892 -2.2905486
4.4363823 -7.7715011 -2.0659504
3.7207868 -6.5205884 -1.4593072
8.1766415 -14.340991 -2.614646
9.4253712 -16.544554 -2.3379416
11.72872 -20.596033 -2.0736094
16.325401 -28.69124 -1.7300174
4.1698828 -7.3582525 -2.2662196
4.4134679 -7.7912564 -2.0673003
3.6689913 -6.4822803 -1.4478587
8.1416845 -14.390378 -2.6187134
9.3851089 -16.601641 -2.3415978
11.661657 -20.645523 -2.074481
16.247845 -28.776529 -1.7319016
4.2549229 -7.5697966 -2.3267834
4.3848815 -7.8073802 -2.0673003
3.6213534 -6.4505372 -1.4379367
8.0869532 -14.416676 -2.6180873
9.2737284 -16.545881 -2.3289232
11.590493 -20.687843 -2.0746553
16.177385 -28.898624 -1.7356699
4.2576361 -7.63691 -2.3428299
4.3576026 -7.8226385 -2.0673003
3.5825777 -6.4339795 -1.4314492
8.0269766 -14.427556 -2.614959
9.328764 -16.781151 -2.3574409
11.520143 -20.731657 -2.0750039
16.10162 -29.000324 -1.7383914
4.258996 -7.7024441 -2.3583593
4.3359241 -7.8480368 -2.0699997
3.552505 -6.4326973 -1.4283962
7.9708405 -14.445108 -2.6130815
9.2758808 -16.824041 -2.3589032
11.468862 -20.810133 -2.0788388
16.029192 -29.108835 -1.7415314
4.2590218 -7.7663856 -2.3733706
4.3131852 -7.8716688 -2.0722492
3.5224841 -6.431283 -1.4253433
7.9573536 -14.540426 -2.6252837
9.2980499 -17.004364 -2.379621
11.396151 -20.85004 -2.0788388
15.948546 -29.203171 -1.7438341
4.2503452 -7.8151464 -2.3837235
4.2791681 -7.874691 -2.0690999
3.4915791 -6.4280133 -1.4219086
7.9216251 -14.595892 -2.6302896
9.2632399 -17.082088 -2.3859582
11.347989 -20.935234 -2.0833709
15.867437 -29.297302 -1.746137
4.2468839 -7.8741441 -2.397182
4.2530317 -7.8888378 -2.0690999
3.4542239 -6.4125075 -1.4158028
7.8806725 -14.635994 -2.6327922
9.2469845 -17.187883 -2.3964391
10.382439 -19.314571 -1.9184722
15.808009 -29.420135 -1.7503238
4.2325969 -7.9103274 -2.4039114
4.2318997 -7.9156656 -2.0722492
3.424612 -6.4083424 -1.4123683
7.8341866 -14.672125 -2.6343565
9.2056189 -17.255083 -2.4013138
10.305582 -19.333113 -1.916729
15.720244 -29.503338 -1.7519987
33.47863 -62.884686 -1.2435189
4.1972394 -7.9138412 -2.4002879
4.2188473 -7.9579372 -2.0794475
3.3992629 -6.4173813 -1.411605
7.7988391 -14.735661 -2.640614
9.2251635 -17.438015 -2.4222753
10.228722 -19.351353 -1.9149859
15.639986 -29.613745 -1.7551389
4.1677918 -7.925024 -2.3992527
4.1941838 -7.9819722 -2.0816972
3.3695383 -6.4153037 -1.4085521
7.7657127 -14.797777 -2.6468713
9.0745344 -17.306452 -2.399364
11.178519 -21.328104 -2.1067286
15.555051 -29.703537 -1.7572322
4.2276392 -8.1073933 -2.4499812
4.1920118 -8.0424948 -2.0938444
3.3398697 -6.4130955 -1.4054991
7.7457867 -14.879519 -2.6568832
9.0729694 -17.443878 -2.414232
11.136158 -21.428873 -2.1128294
15.485928 -29.811678 -1.7605819
32.9104 -63.409302 -1.2470094
4.2309065 -8.1797085 -2.4675808
4.1871753 -8.1020908 -2.1055419
3.3041677 -6.3962278 -1.3993932
7.6956134 -14.909975 -2.6575091
9.1212072 -17.687157 -2.4434805
11.074164 -21.483393 -2.1145725
15.416521 -29.933027 -1.7645594
4.2199593 -8.2288074 -2.4779336
3.3110983 -6.4621077 -1.6763352
3.2791357 -6.4024811 -1.3982484
7.6525197 -14.954332 -2.6606379
9.0576048 -17.715355 -2.4429932
11.014519 -21.55208 -2.1175358
15.33011 -30.02223 -1.7666527
4.1693201 -8.2004356 -2.4649925
3.27793 -6.4527774 -1.6709365
3.2541003 -6.4086366 -1.3971035
7.6074219 -14.995048 -2.6631405
9.0244303 -17.803522 -2.4507926
10.95976 -21.640293 -2.1222422
15.257694 -30.139711 -1.770421
4.1966057 -8.3295288 -2.4991567
3.239608 -6.4328513 -1.6628381
3.2270601 -6.4135046 -1.3955771
7.5914512 -15.100486 -2.6769071
8.991642 -17.893448 -2.4588361
10.937792 -21.785254 -2.1327009
15.150705 -30.20257 -1.7708396
32.066673 -63.952 -1.2487546
3.3362482 -6.6797957 -2.0006714
3.2055681 -6.4237576 -1.6574394
3.1950138 -6.4054055 -1.3913792
7.5457416 -15.141035 -2.6794097
13.876969 -27.857241 3.8213353
8.940156 -17.954716 -2.4627359
10.898966 -21.898216 -2.140022
15.086092 -30.337536 -1.7756544
3.3111963 -6.6879377 -1.9996361
3.1747401 -6.4151397 -1.6524904
3.1691544 -6.4094796 -1.3898528
7.5042448 -15.183682 -2.6825385
13.745831 -27.824797 3.810611
8.9007835 -18.025202 -2.4683421
10.868302 -22.029037 -2.1490862
15.024273 -30.466215 -1.7802601
3.2787828 -6.678072 -1.9934243
3.1403122 -6.4016886 -1.6461918
3.147018 -6.418191 -1.3894712
7.4459839 -15.199142 -2.6806614
13.626795 -27.828039 3.8045175
8.8884258 -18.159575 -2.4824786
10.83897 -22.154442 -2.1578019
14.940643 -30.565125 -1.7829815
3.2681332 -6.7155328 -2.001189
3.1068692 -6.3898282 -1.6403431
3.1168714 -6.4132452 -1.3860366
7.3980594 -15.235703 -2.6825385
13.523506 -27.862936 3.8028114
8.8553104 -18.252998 -2.4910095
10.796344 -22.263851 -2.1647744
14.872172 -30.69618 -1.7875872
3.2916715 -6.8243408 -2.0301766
3.067626 -6.3655238 -1.631345
3.0927625 -6.4205484 -1.3852733
7.3653936 -15.304153 -2.6900475
13.376254 -27.806215 3.7886744
8.7855177 -18.271276 -2.4893034
10.186906 -21.195221 -2.0573983
14.778766 -30.776709 -1.7892617
3.2611642 -6.8218455 -2.0260355
3.0386686 -6.3621254 -1.6277459
3.063565 -6.4171314 -1.3822205
7.2915158 -15.286979 -2.6825385
13.25177 -27.795401 3.780875
8.7498684 -18.360968 -2.4973466
10.102576 -21.209064 -2.0553067
14.698713 -30.88582 -1.7926114
4.1537757 -8.7675705 -2.5995786
3.0114393 -6.3621254 -1.6250465
3.0319102 -6.4082646 -1.3780226
7.2887616 -15.419494 -2.7013109
13.141098 -27.812767 3.7769749
8.6899595 -18.400375 -2.4985654
10.647662 -22.555861 -2.1822054
14.599328 -30.955008 -1.7936581
4.0944114 -8.7208109 -2.5814614
2.9825928 -6.3584838 -1.6214472
3.0053563 -6.4099212 -1.3761146
7.2583551 -15.494928 -2.7100711
8.6727991 -18.531281 -2.5122147
10.600943 -22.661467 -2.1888292
14.536853 -31.103483 -1.7993103
4.1658082 -8.9539957 -2.6461661
2.9505224 -6.3476505 -1.6160485
2.9837892 -6.4221535 -1.3764962
7.2092133 -15.530922 -2.7119482
8.6314459 -18.611862 -2.5190394
10.563669 -22.788715 -2.1975448
14.441623 -31.183039 -1.8009851
4.1595998 -9.0228691 -2.6622128
2.929162 -6.3596811 -1.6164982
2.9572492 -6.4236131 -1.3745881
7.1698155 -15.588294 -2.7175801
8.5631084 -18.634666 -2.5180645
10.531459 -22.928652 -2.2074807
14.361008 -31.294979 -1.8045441
4.1360521 -9.0464334 -2.6653185
2.9043102 -6.3582163 -1.6137989
2.9321618 -6.4221563 -1.3722984
7.1601582 -15.697009 -2.7325976
8.4345522 -18.507936 -2.4973466
10.106709 -22.187412 -2.1330495
14.284132 -31.387201 -1.8072654
4.0526357 -8.946434 -2.6316721
2.8732593 -6.3487868 -1.60885
2.9032536 -6.4180417 -1.3692454
7.1346078 -15.786711 -2.743861
12.513118 -27.700586 3.732127
8.4483185 -18.710953 -2.5207458
10.047231 -22.262508 -2.1368845
14.215528 -31.527906 -1.8124989
4.0379925 -8.9975376 -2.6425424
2.8502836 -6.3569994 -1.6084001
2.8744087 -6.413805 -1.3661925
7.06493 -15.779066 -2.7382293
8.3797102 -18.733078 -2.5197706
9.8767529 -22.090094 -2.117013
14.120052 -31.610165 -1.8143831
3.9704583 -8.9303761 -2.618731
2.8217473 -6.3526616 -1.6048008
2.8543932 -6.4291825 -1.3673373
7.0218191 -15.830718 -2.7429221
8.3351812 -18.809402 -2.526108
9.9512739 -22.466913 -2.1497834
14.051658 -31.754234 -1.8198261
3.8925424 -8.8381033 -2.5876729
42.808735 -97.244217 1.8545974
2.7909219 -6.3428526 -1.599852
2.8343048 -6.4444981 -1.3684822
7.0094285 -15.95279 -2.7598171
8.3005915 -18.909271 -2.5356138
9.856781 -22.465023 -2.1462972
10.297179 -23.491043 -1.3441969
3.9520476 -9.0588074 -2.6482365
42.484226 -97.427872 1.8552607
2.7664287 -6.3471961 -1.5985022
5.7302217 -13.153489 -2.7888646
6.9741979 -16.024252 -2.7679517
12.030903 -27.655981 3.7031221
8.2923174 -19.071024 -2.5534067
9.7354164 -22.400621 -2.1368845
10.215915 -23.528675 -1.3443015
3.8928168 -9.008707 -2.6296017
2.7434828 -6.3550262 -1.5980524
5.6679392 -13.135555 -2.7808504
6.9377675 -16.093851 -2.7757735
11.9123 -27.646761 3.6962976
8.2194166 -19.085266 -2.5514567
10.188118 -23.667913 -2.2543705
10.164495 -23.63575 -1.3483838
3.8841496 -9.0755205 -2.6451306
2.718219 -6.3573961 -1.5962527
5.2787271 -12.3519 -2.6110306
6.9079204 -16.179737 -2.786411
8.1768875 -19.170444 -2.5590127
10.141384 -23.78764 -2.2623887
13.702407 -32.171509 -1.8325961
3.8577235 -9.1014748 -2.6487541
2.6884129 -6.3489003 -1.5917536
5.5630889 -13.14407 -2.774363
6.8467827 -16.192839 -2.784534
8.1137838 -19.208014 -2.5602314
10.085408 -23.88714 -2.2684896
13.59934 -32.241222 -1.8338521
3.7825646 -9.011569 -2.618731
2.6662338 -6.3582463 -1.5917536
5.4966836 -13.114521 -2.7640593
6.8108182 -16.265833 -2.7929811
8.0305996 -19.197763 -2.5551128
10.018875 -23.962635 -2.2723243
13.486709 -32.288498 -1.8338521
3.7814853 -9.0978575 -2.6399543
2.635056 -6.3459172 -1.5863549
5.4719453 -13.1844 -2.7747445
6.7600532 -16.304108 -2.7954843
11.498528 -27.746206 3.6877668
7.9817686 -19.269693 -2.5609627
9.9450769 -24.021395 -2.2745905
13.436518 -32.486721 -1.8424352
3.7158835 -9.0288248 -2.616143
2.6121464 -6.3532743 -1.585905
5.4266353 -13.205235 -2.7751262
6.7293539 -16.391563 -2.8064346
11.303643 -27.547428 3.6560807
7.9867706 -19.473755 -2.5843616
9.8407612 -24.006187 -2.2698841
13.34726 -32.592567 -1.8457847
3.7113168 -9.107934 -2.6352956
2.5884845 -6.3587441 -1.5850052
5.374588 -13.20955 -2.7720733
6.6773043 -16.427763 -2.8086247
11.250751 -27.693388 3.6702175
7.9359202 -19.543818 -2.5899675
9.3822737 -23.117323 -2.1827283
13.270926 -32.731506 -1.8510182
3.6903441 -9.1477079 -2.6430602
2.5651977 -6.3618712 -1.5836555
5.3174419 -13.200914 -2.7663491
6.6331191 -16.47547 -2.8130047
7.9399567 -19.741306 -2.6126354
9.2881508 -23.116655 -2.1795907
13.175714 -32.808701 -1.8529024
3.6650047 -9.1724529 -2.6466837
2.5371957 -6.356307 -1.5800562
5.2881866 -13.254946 -2.7739813
6.6150632 -16.597612 -2.8298998
11.03554 -27.702936 3.6614428
7.5838847 -19.047783 -2.5173333
9.1952362 -23.106602 -2.175756
13.074389 -32.887897 -1.8547865
3.6372292 -9.1959686 -2.6497896
2.5114119 -6.3560629 -1.5778067
5.2469344 -13.286105 -2.7766528
6.5585341 -16.624279 -2.8305256
10.838285 -27.486443 3.6278069
7.8332434 -19.875668 -2.6231158
9.1064882 -23.11817 -2.1738386
9.1506443 -23.254055 -1.3096552
3.6473634 -9.3165426 -2.6808479
2.4856608 -6.3557162 -1.5755571
5.175509 -13.240341 -2.7632959
6.1728201 -15.808002 -2.6878574
10.794959 -27.659101 3.6455998
7.7674232 -19.912138 -2.6243346
9.0257378 -23.149817 -2.1738386
9.0600119 -23.285751 -0.43613565
3.6050475 -9.3039999 -2.6736009
9.0234232 -23.299955 0.43613565
2.4655709 -6.3698058 -1.5769069
5.1427183 -13.293116 -2.7705467
6.4643931 -16.726778 -2.8402243
7.7214622 -20.00024 -2.6323779
8.9757137 -23.26111 -2.181334
12.841342 -33.313728 -1.8711153
3.5580235 -9.2786465 -2.6627305
2.4377434 -6.3638153 -1.5733078
5.1068163 -13.338489 -2.7762711
6.4109035 -16.762156 -2.8424144
7.7040305 -20.164293 -2.6504147
8.9598541 -23.463537 -2.1973705
12.717857 -33.339691 -1.8700686
3.5454895 -9.3433895 -2.677742
2.4106803 -6.3595304 -1.5701584
4.963541 -13.101041 -2.7232261
5.9663892 -15.76462 -2.6697109
7.647634 -20.228199 -2.6552894
9.3680639 -24.791853 -2.3186915
12.657827 -33.533367 -1.8784424
3.5128531 -9.3557091 -2.677742
2.3870983 -6.3642569 -1.5692586
4.9536152 -13.213881 -2.7430701
6.2798705 -16.769508 -2.8361573
7.6006274 -20.317987 -2.6635766
9.2982082 -24.869194 -2.3228748
9.6909866 -25.947321 -1.4515903
3.4727745 -9.3479929 -2.6720479
2.3635116 -6.368897 -1.5683587
4.883564 -13.166666 -2.7297137
6.1911001 -16.709824 -2.822391
7.5048528 -20.277374 -2.6548018
9.1850786 -24.83049 -2.316251
9.5726595 -25.906054 -1.4474034
3.4134653 -9.287528 -2.6513424
2.3399229 -6.3734498 -1.567459
4.8707128 -13.273944 -2.7484128
6.1279774 -16.718349 -2.8202009
7.4934049 -20.465622 -2.6760073
9.1421671 -24.982145 -2.3274069
9.4712029 -25.909294 -1.4457285
3.3790445 -9.2939405 -2.6497896
2.3149993 -6.3742528 -1.5656594
4.8149714 -13.265029 -2.7430701
6.092473 -16.802778 -2.8308384
7.4787073 -20.648436 -2.6964815
9.0603333 -25.028894 -2.3288014
9.3698406 -25.912146 -1.4440539
3.345928 -9.3038607 -2.6492717
2.2848296 -6.3602862 -1.5602605
4.7971649 -13.36121 -2.7594798
6.0244489 -16.797911 -2.8264582
7.4159555 -20.700579 -2.6998937
9.0273151 -25.212305 -2.3429208
9.2537708 -25.873234 -1.4400762
3.3367386 -9.3810091 -2.6679068
2.2626147 -6.3682232 -1.5602605
4.7373571 -13.340874 -2.7518475
5.9413428 -16.749956 -2.8148823
7.3575759 -20.765633 -2.7050121
8.9492273 -25.271835 -2.3455353
9.2006998 -26.01082 -1.445938
3.30269 -9.3889542 -2.6668715
2.2423086 -6.381598 -1.5616102
4.6699433 -13.298054 -2.7396357
5.9096456 -16.847015 -2.8277097
7.3224635 -20.897972 -2.7189052
8.8767614 -25.348049 -2.3497188
9.1863432 -26.261467 -1.4580798
3.2686265 -9.3967752 -2.6658361
2.2168217 -6.3801818 -1.5593606
4.6273613 -13.325399 -2.7419255
5.8456259 -16.852613 -2.8252068
7.2897615 -21.039701 -2.7340171
8.823431 -25.480547 -2.3591316
9.1612139 -26.485903 -1.4687564
3.2414603 -9.4245701 -2.670495
2.1926374 -6.3823524 -1.5580109
4.6005826 -13.399035 -2.7537556
5.7957349 -16.899075 -2.829587
7.2265706 -21.095064 -2.7379169
8.8118763 -25.737389 -2.380049
11.77019 -34.417099 -1.9062852
3.2197371 -9.468749 -2.6798124
2.1653316 -6.3752055 -1.5544118
4.5014043 -13.260709 -2.7220812
5.7525678 -16.965971 -2.8374085
7.1223226 -21.029913 -2.7262175
8.7411489 -25.824606 -2.3852785
11.696032 -34.5942 -1.9138213
3.1718934 -9.4359827 -2.6673892
2.1430655 -6.3827248 -1.5544118
4.4888163 -13.376848 -2.7426887
5.7297211 -17.09458 -2.8555553
7.0885754 -21.173235 -2.7415729
8.3904858 -25.076517 -2.313462
11.598 -34.703014 -1.9175897
3.1139612 -9.3718328 -2.6461661
2.1183171 -6.3827686 -1.5526122
4.4272594 -13.347713 -2.7335298
5.6016784 -16.908209 -2.8211393
6.9990354 -21.150736 -2.7354796
8.7195473 -26.365475 -2.4295535
11.494331 -34.796383 -1.9205205
3.1125705 -9.4780855 -2.6730831
2.096024 -6.3901243 -1.5526122
4.3690219 -13.327641 -2.7262793
5.5125055 -16.835672 -2.8058088
6.9337983 -21.201452 -2.7388918
8.3105383 -25.426128 -2.340306
11.402552 -34.927433 -1.9255447
3.0806606 -9.492569 -2.6741185
2.0730181 -6.391479 -1.5512625
4.3412309 -13.400708 -2.7381091
5.4377837 -16.795601 -2.7961099
6.906208 -21.356544 -2.7559536
8.5401716 -26.440872 -2.430948
11.313659 -35.048679 -1.9301503
3.0633302 -9.5468788 -2.6865418
2.0411797 -6.3689837 -1.544064
4.3015571 -13.429989 -2.7411623
5.3779187 -16.810717 -2.7954843
6.8364534 -21.395651 -2.7579036
8.4754734 -26.54117 -2.4375718
11.221596 -35.183102 -1.9353839
3.0393279 -9.5869789 -2.694824
2.0195224 -6.3779278 -1.5445139
4.2428064 -13.407486 -2.7335298
5.3674259 -16.981953 -2.8208268
6.8214879 -21.608685 -2.7822773
8.4271345 -26.711201 -2.4504707
11.084306 -35.176342 -1.9328718
3.0208561 -9.645462 -2.7082827
1.9995748 -6.3923779 -1.5463136
4.1959791 -13.422215 -2.7335298
5.3287225 -17.066582 -2.8317771
6.7548795 -21.660789 -2.7859333
8.3385887 -26.755671 -2.4518654
10.916338 -35.069885 -1.9249167
1.9709208 -6.3788381 -1.5413646
4.1705332 -13.506186 -2.7476497
5.2720275 -17.094517 -2.8333414
6.6897483 -21.718386 -2.7903209
8.2832441 -26.908386 -2.4631956
10.867225 -35.346405 -1.9380007
19.162884 -62.406178 -1.1395025
1.9446608 -6.3726315 -1.5382153
4.1153445 -13.494372 -2.7423069
5.2301669 -17.171396 -2.8430405
6.6318026 -21.800478 -2.7978766
8.247797 -27.129669 -2.4808009
10.809343 -35.600079 -1.9498285
2.8677876 -9.5045633 -2.6601424
1.9190311 -6.3681855 -1.5355159
4.0619888 -13.487977 -2.7381091
5.1701946 -17.189548 -2.8430405
6.5762258 -21.891935 -2.8066511
8.1988754 -27.310951 -2.494746
10.752125 -35.861431 -1.9620752
2.8119774 -9.4386072 -2.6389189
1.8973463 -6.3767138 -1.5359658
3.9947376 -13.434328 -2.724371
5.1067872 -17.196127 -2.8411632
6.5398479 -22.049883 -2.8239567
8.1318016 -27.434919 -2.5034614
10.668262 -36.038548 -1.9697162
2.7435808 -9.327898 -2.6052728
1.8701324 -6.3664699 -1.5319167
3.9356523 -13.406748 -2.7159753
5.0017147 -17.060305 -2.8158207
6.4873805 -22.156401 -2.834681
8.0684414 -27.574043 -2.5135717
10.513267 -35.97588 -1.9642733
2.6727607 -9.2056961 -2.5685203
1.8478978 -6.3729591 -1.5319167
3.8746245 -13.371376 -2.7060535
4.9673924 -17.164948 -2.8302126
6.4193721 -22.21133 -2.8388247
8.0152636 -27.751345 -2.527168
10.420838 -36.127499 -1.9705535
2.669878 -9.3171101 -2.5969903
1.8224624 -6.3640642 -1.5283175
3.804172 -13.301767 -2.6892622
4.8843894 -17.090157 -2.8151948
6.3451362 -22.230589 -2.8385811
7.9238043 -27.798313 -2.5289109
10.33928 -36.296322 -1.9778807
2.6147716 -9.240406 -2.573179
1.7986467 -6.3647614 -1.5269678
3.7813842 -13.389883 -2.7045269
4.811832 -17.061474 -2.8076861
6.2432818 -22.166616 -2.8276129
7.8720374 -27.986914 -2.5435531
10.29467 -36.624439 -1.9937907
2.5959432 -9.3038883 -2.5881906
1.7774652 -6.3747554 -1.5278676
3.7412369 -13.435804 -2.7110145
4.6852326 -16.848715 -2.769829
6.1945658 -22.291557 -2.8407748
7.8435607 -28.2638 -2.5662136
10.1913 -36.773567 -1.9998617
2.5655003 -9.320344 -2.590261
1.7499566 -6.3661952 -1.5242684
3.7021127 -13.477179 -2.7167387
4.6911902 -17.101185 -2.8086247
6.1379991 -22.40601 -2.8524742
7.7651501 -28.384604 -2.5745807
10.088159 -36.901386 -2.0048862
1.7879969 -6.5492849 -0.11850184
1.8676342 -6.883533 -1.9111199
1.7798007 -6.5598054 0.11864146
1.7282333 -6.3741455 -1.5247183
3.6408904 -13.447072 -2.7079613
4.6192007 -17.083941 -2.8029931
6.1011729 -22.580608 -2.8719733
7.6317625 -28.284578 -2.563076
7.3609653 -27.318853 -1.4827825
1.8437974 -6.8859553 -1.9100846
1.7044634 -6.3744912 -1.5233686
7.3353305 -27.433268 1.4882253
1.8427374 -6.8964462 -1.3875631
7.3263974 -27.438234 2.4846358
1.8303051 -6.8595147 -1.124451
7.3329787 -27.501406 3.4947255
1.8302561 -6.8689575 -0.8728283
7.3630085 -27.633398 4.5294037
7.2734065 -27.316271 -2.4731314
7.2723842 -27.350836 -1.4832011
2.4845266 -9.4102058 -2.6078608
1.6778467 -6.3593817 -1.5184196
7.2186494 -27.379526 1.4839339
1.8151526 -6.8895478 -1.3848917
7.2204289 -27.425106 2.4811497
7.213459 -27.418066 3.4810762
1.7968687 -6.8346725 -0.86770982
7.2143068 -27.460238 4.4968657
7.2161169 -27.48666 5.5239205
1.802254 -6.8697805 -0.37221336
2.432368 -9.338007 -2.5856025
1.655638 -6.3652 -1.5184196
7.1300659 -27.43162 1.4853992
3.5035949 -13.479439 -2.7071981
7.1334538 -27.464327 2.4825442
7.1226912 -27.462294 3.4835136
1.7904307 -6.9081597 -0.87624067
7.1253419 -27.512026 4.501246
1.7838142 -6.8875766 -0.62246627
7.122098 -27.519285 5.5254474
1.7762616 -6.8682952 -0.37179467
2.3944738 -9.3258572 -2.5799084
1.7378898 -6.7735429 0.12206213
1.6305059 -6.3596139 -1.5157202
3.4501886 -13.466863 -2.7022371
4.4008918 -17.202652 -2.8123791
5.8236518 -22.797216 -2.889035
1.7451053 -6.8563209 -0.12349322
2.3576405 -9.3173037 -2.5752497
1.7402164 -6.8823175 0.12391209
1.6087739 -6.367156 -1.5161701
3.3959486 -13.450272 -2.6965129
4.3243995 -17.152784 -2.8017418
5.6936421 -22.617203 -2.8636861
7.2742314 -28.917206 -2.6087456
9.5113201 -37.86615 -2.0461266
1.7449999 -6.9574122 -0.12520356
2.3297758 -9.3442202 -2.580426
1.7335862 -6.9582038 0.12516867
1.5841845 -6.3632784 -1.5139207
3.3105884 -13.307723 -2.6656017
4.2621169 -17.158188 -2.8001773
5.667222 -22.848877 -2.8904972
7.2911549 -29.418154 -2.6516263
9.4491339 -38.182178 -2.0614088
1.7389328 -7.0372305 -0.12652995
2.3035963 -9.378561 -2.5876729
1.7312121 -7.0535479 0.12677428
1.5550001 -6.3403797 -1.5071721
3.2828088 -13.39547 -2.6808665
4.1979713 -17.155691 -2.7973614
5.5657592 -22.779816 -2.8792853
7.249856 -29.695045 -2.6742868
8.960084 -36.755726 -1.9826956
1.7346925 -7.1268053 -0.12803085
2.257216 -9.3302145 -2.5721438
1.7244359 -7.1334085 0.12810066
1.5346893 -6.3533454 -1.5089717
3.2406344 -13.425933 -2.6846826
4.137135 -17.166399 -2.7967355
5.4360509 -22.590664 -2.8529615
7.1368399 -29.681427 -2.6708004
8.863431 -36.918839 -1.9898132
2.2376177 -9.3925352 -2.5871553
1.5116006 -6.3548727 -1.5080719
3.1787694 -13.374131 -2.6720893
4.1082029 -17.311432 -2.8180106
5.3946915 -22.767895 -2.8729482
7.1093869 -30.028 -2.6997364
8.7574787 -37.046741 -1.9950469
2.211436 -9.4285002 -2.5949197
1.4898528 -6.3620076 -1.5085218
3.1325109 -13.387058 -2.6724708
4.0171924 -17.194862 -2.7967355
5.3070688 -22.751789 -2.868561
7.0741763 -30.35145 -2.7265804
8.7412777 -37.563404 -2.021215
2.1711221 -9.4041634 -2.5861201
1.4641345 -6.3519778 -1.5049226
3.1051514 -13.482091 -2.6892622
3.9841499 -17.326216 -2.8158207
5.2271452 -22.749914 -2.8661234
6.9601636 -30.341005 -2.7234426
8.6555834 -37.792267 -2.0318913
2.1394973 -9.4094276 -2.5856025
1.4404738 -6.345396 -1.5022231
3.0560825 -13.473166 -2.6854458
3.9201272 -17.310432 -2.8111277
5.099102 -22.534788 -2.836875
6.904295 -30.562147 -2.7412224
8.5565758 -37.93766 -2.0381715
2.1078601 -9.4145861 -2.5850849
1.4198486 -6.3520398 -1.502673
3.0173795 -13.510052 -2.6907885
3.843785 -17.238504 -2.7973614
5.0773497 -22.808222 -2.8690484
6.8546276 -30.842793 -2.7642314
8.4705639 -38.145206 -2.0478015
2.0500903 -9.3165922 -2.556097
1.3959939 -6.3493443 -1.5008734
2.9724722 -13.542113 -2.6949863
3.7311075 -17.026714 -2.7607558
4.9586387 -22.647404 -2.8466244
6.7741528 -30.991104 -2.7753875
8.4388542 -38.671631 -2.0743883
1.4230762 -6.5764313 -1.8029336
1.3714784 -6.3487034 -1.4995238
2.9206266 -13.531298 -2.6907885
3.6604154 -16.987497 -2.7523084
4.924859 -22.894428 -2.8753855
6.7203612 -31.26779 -2.7980478
8.4001789 -39.150002 -2.0984626
1.401318 -6.5870266 -1.8044864
1.3480951 -6.3477335 -1.4981741
2.8546312 -13.453067 -2.673234
3.5851302 -16.924803 -2.7401063
4.8794127 -23.074617 -2.8958595
6.6317682 -31.388529 -2.8067636
8.3079882 -39.390144 -2.1097672
1.3767346 -6.5843143 -1.8024158
1.3159745 -6.3047094 -1.4869264
2.7948263 -13.401449 -2.6610224
3.5026805 -16.825048 -2.7219601
4.7980313 -23.087622 -2.8953722
6.5569949 -31.579252 -2.8217545
8.2304325 -39.708347 -2.1252587
1.3533537 -6.5871878 -1.8018982
1.2981948 -6.3243103 -1.4905257
2.7460601 -13.401507 -2.6591144
3.4452794 -16.828829 -2.7207084
4.7206478 -23.099518 -2.8948846
6.5128293 -31.926008 -2.8506899
8.1641283 -40.056374 -2.1424248
1.3598075 -6.7317662 -1.8402034
1.2788069 -6.3421755 -1.493675
2.6996648 -13.400916 -2.6572063
3.3919687 -16.867865 -2.7250886
4.6243567 -23.038006 -2.8851352
6.4350123 -32.116554 -2.8656807
8.0830545 -40.378387 -2.1581256
1.8500214 -9.3347425 -2.5498853
1.2559044 -6.3427773 -1.4927752
2.6406326 -13.360644 -2.647284
3.3362393 -16.911192 -2.7300947
4.5561972 -23.116329 -2.8929348
6.3444018 -32.248291 -2.875442
8.0096731 -40.787952 -2.178432
1.8163201 -9.3354549 -2.5483325
1.2296764 -6.3320341 -1.489176
2.5846319 -13.321597 -2.6377437
3.270803 -16.889767 -2.7247758
4.4495897 -23.019833 -2.878798
6.2265062 -32.242855 -2.8730018
7.9428501 -41.207893 -2.1993663
1.6840838 -8.8199062 -2.405982
1.2061065 -6.3286309 -1.4873765
2.5546374 -13.417326 -2.6549165
3.1978137 -16.827335 -2.7128868
4.2619319 -22.469631 -2.8081138
6.0805378 -32.088215 -2.8573136
7.8724494 -41.62394 -2.2200916
1.6696471 -8.9130774 -2.4297934
1.1847241 -6.3366332 -1.4882761
2.505625 -13.414583 -2.6526268
3.1401415 -16.844221 -2.7138255
4.1783881 -22.457047 -2.8047013
5.9772258 -32.156258 -2.8614972
7.7875819 -41.97715 -2.2374671
1.7051973 -9.2817602 -2.5286622
1.1576774 -6.3138952 -1.4819776
2.4580779 -13.419385 -2.6518636
3.0585897 -16.730719 -2.6938019
4.114224 -22.54961 -2.814451
5.8520846 -32.106365 -2.8552222
7.7003484 -42.330265 -2.2548425
1.6864047 -9.3539057 -2.5467794
1.1401849 -6.3368788 -1.4864765
2.4021018 -13.363696 -2.6392701
3.016345 -16.814653 -2.7056909
4.0618124 -22.688189 -2.8300502
5.7673306 -32.247192 -2.8660295
7.6385427 -42.79599 -2.2782891
1.6544154 -9.3635406 -2.5478148
1.1178097 -6.3329492 -1.484677
2.3636127 -13.418404 -2.6484292
2.9496152 -16.762306 -2.6956789
3.9638917 -22.572489 -2.8139632
5.6581697 -32.286751 -2.8677726
7.5654664 -43.214558 -2.2992234
1.6111522 -9.2985468 -2.5286622
1.091049 -6.3099289 -1.4783784
2.301069 -13.335643 -2.6304929
2.8900793 -16.766663 -2.6947405
3.8534443 -22.402292 -2.7910519
5.5535254 -32.353432 -2.8719559
7.3503742 -42.91127 -2.2816384
1.5822266 -9.3348637 -2.5369444
1.0666137 -6.3061996 -1.4765787
2.2724333 -13.464012 -2.6541533
2.8351748 -16.816099 -2.7009978
3.7686749 -22.400604 -2.7891021
5.4421597 -32.416798 -2.8757908
7.3725657 -44.009502 -2.3385801
1.5486337 -9.3444128 -2.5379798
1.0447649 -6.3177571 -1.4783784
2.2132635 -13.398256 -2.6396518
2.7661321 -16.781549 -2.6938019
3.6739824 -22.337873 -2.7795961
5.3367267 -32.482788 -2.8799744
7.2932119 -44.488285 -2.3626547
1.5058023 -9.2868319 -2.5208976
1.0177263 -6.2905855 -1.47118
2.1664796 -13.405901 -2.6396518
2.7094247 -16.802803 -2.6956789
3.6246805 -22.528913 -2.8017764
5.245441 -32.638916 -2.8921762
7.1777182 -44.761955 -2.3758433
1.4694427 -9.2672272 -2.5141683
0.99698049 -6.3017988 -1.4729795
2.6399853 -16.743864 -2.6847286
3.5478706 -22.553194 -2.8032389
5.1382766 -32.700325 -2.8960109
7.0517449 -44.980103 -2.3861012
1.4317601 -9.237937 -2.5048509
0.97249961 -6.281961 -1.4675807
2.5895677 -16.785717 -2.6900475
3.4573584 -22.462809 -2.7905643
5.0446663 -32.851974 -2.9078641
6.9879341 -45.559959 -2.4156187
1.404882 -9.2674637 -2.5115802
0.94998187 -6.2814636 -1.4666809
2.0072093 -13.28773 -2.6121752
2.496223 -16.564161 -2.6531289
3.3346574 -22.180288 -2.7540038
4.8990083 -32.624207 -2.8862495
6.8690987 -45.852703 -2.4298539
1.362056 -9.2016029 -2.4924273
0.92914706 -6.2845793 -1.4666809
1.9579477 -13.275233 -2.6083591
2.4369633 -16.543032 -2.6484358
3.2414598 -22.057673 -2.7374296
4.7793221 -32.601681 -2.8827631
6.775455 -46.274418 -2.4509976
1.3320899 -9.2098942 -2.4934628
0.90553427 -6.2762122 -1.4639815
1.9234364 -13.347721 -2.6213341
2.3718946 -16.500601 -2.6403012
3.1621923 -22.053133 -2.7354796
4.6587558 -32.530571 -2.8750937
6.6799846 -46.760452 -2.475491
1.295614 -9.1838818 -2.4851806
0.88199121 -6.2677565 -1.461282
1.880111 -13.377684 -2.6259136
2.3230577 -16.571381 -2.6503131
3.0571527 -21.863506 -2.710618
4.5264349 -32.412453 -2.8632405
6.5525331 -47.040646 -2.4890983
1.2553906 -9.1290197 -2.4691339
0.85904855 -6.2630739 -1.4594824
1.8264763 -13.333592 -2.6159916
2.2657328 -16.583302 -2.6509387
2.8484066 -20.902391 -2.5902114
4.417027 -32.455696 -2.8656807
6.378087 -46.988026 -2.4851208
1.2409586 -9.2635489 -2.5043333
0.83718097 -6.2660346 -1.4594824
1.7845938 -13.374914 -2.6228604
2.2138271 -16.636147 -2.6581347
2.8720603 -21.640306 -2.6803946
4.3010898 -32.451164 -2.8639376
6.2087936 -46.970406 -2.4830275
1.2001212 -9.202692 -2.4867337
0.8148005 -6.2650537 -1.4585826
1.7409315 -13.404426 -2.62744
2.1524436 -16.618307 -2.6540675
2.7807345 -21.528139 -2.6652827
4.2075796 -32.664322 -2.8813689
6.0437775 -46.983864 -2.4826086
1.1641982 -9.1897793 -2.4820747
0.79243708 -6.2639933 -1.4576828
1.6949843 -13.436038 -2.632401
2.094723 -16.651564 -2.6581347
2.6956751 -21.458927 -2.6555333
4.1004634 -32.734165 -2.8862495
5.8532181 -46.859043 -2.4748628
1.1460437 -9.3069115 -2.5126152
0.76828551 -6.257184 -1.4554334
1.6437739 -13.406796 -2.6255319
2.0353882 -16.64897 -2.6565704
2.6344638 -21.580524 -2.6694264
4.0116959 -32.95792 -2.9047267
5.677094 -46.776089 -2.46942
1.1013896 -9.1955729 -2.4815571
0.7466079 -6.2519574 -1.4536338
1.5818716 -13.265966 -2.5969105
1.9741031 -16.604626 -2.6484358
2.557271 -21.54183 -2.6635766
3.8649116 -32.654472 -2.8768368
5.5617414 -47.131851 -2.4872143
1.0711129 -9.2010937 -2.4820747
0.72564673 -6.2524633 -1.4531839
1.5432947 -13.317944 -2.6060696
1.9151767 -16.577723 -2.643117
2.4709282 -21.453997 -2.6516335
3.7078962 -32.243526 -2.839534
5.4181533 -47.261154 -2.4930758
1.018838 -9.026248 -2.4339345
0.70381695 -6.2549586 -1.4531839
1.4849607 -13.217896 -2.5854619
1.8531206 -16.547009 -2.6371727
2.4059377 -21.55127 -2.6626017
3.6196001 -32.474091 -2.8587084
5.2456536 -47.212284 -2.489517
5.4754877 -49.438133 -0.8682223
1.0022327 -9.1660976 -2.4706867
0.68197858 -6.2573771 -1.4531839
1.4390246 -13.224951 -2.5858438
1.792154 -16.523918 -2.6324794
2.3230133 -21.488485 -2.653827
3.5189078 -32.657494 -2.8736989
5.0538964 -46.980103 -2.4763284
5.2457523 -48.92408 -0.85886782
0.96457058 -9.1312876 -2.4603341
0.65972394 -6.2558432 -1.452284
1.3755621 -13.087605 -2.5579855
1.7286993 -16.502872 -2.6280994
2.2358084 -21.379978 -2.6394465
3.4065461 -32.685432 -2.8750937
4.8804383 -46.986389 -2.4757001
5.0877237 -49.065411 -0.86103195
0.94034439 -9.2095509 -2.4805219
0.63540965 -6.244648 -1.4491347
1.3358226 -13.150922 -2.5694342
1.678839 -16.585451 -2.6403012
2.1408982 -21.224098 -2.6192162
3.260421 -32.436028 -2.8520846
4.7000432 -46.840179 -2.4671173
0.89258343 -9.0706663 -2.4422166
0.61322665 -6.242949 -1.4482349
1.2904814 -13.185038 -2.5751584
1.6120969 -16.530546 -2.6306021
2.0496812 -21.055601 -2.5975235
3.1083195 -32.046623 -2.8168733
4.5045152 -46.61058 -2.4541378
0.86847883 -9.1195812 -2.4546399
0.59325701 -6.2527084 -1.4500345
1.246833 -13.165574 -2.5705791
1.5686916 -16.625994 -2.6449943
1.9822612 -21.087973 -2.6006918
3.007257 -32.052265 -2.816525
4.3811078 -46.871086 -2.4671173
0.84228581 -9.1841173 -2.4712043
0.57125062 -6.2528009 -1.4495846
1.1978363 -13.136608 -2.5640914
1.5061809 -16.582188 -2.6371727
1.8889612 -20.877295 -2.5738807
2.9172156 -32.304649 -2.837791
4.2249846 -46.969643 -2.4715135
0.80937326 -9.1773796 -2.468616
0.54839754 -6.2431087 -1.4468851
1.1578041 -13.207205 -2.5770664
1.4467419 -16.569632 -2.6343565
1.8232965 -20.96682 -2.5841177
2.7858284 -32.100266 -2.8189652
3.9990871 -46.267765 -2.4338315
0.77766019 -9.1839991 -2.4696515
0.5259465 -6.2372179 -1.4450855
1.1116966 -13.211165 -2.5770664
1.3799868 -16.468285 -2.6174617
1.7484491 -20.953278 -2.5816805
2.6519396 -31.847706 -2.7959561
3.8639691 -46.599911 -2.4505789
0.75012791 -9.2424974 -2.484663
0.50338709 -6.2293038 -1.4428362
1.0706216 -13.277587 -2.5892782
1.3213862 -16.459217 -2.6152716
1.6672307 -20.858334 -2.5692496
2.5290318 -31.709801 -2.783057
3.719619 -46.844067 -2.4627211
0.71457171 -9.2026873 -2.4732749
5.245265 -67.704781 1.1853327
0.48284024 -6.2465663 -1.4464353
1.0194381 -13.218605 -2.5770664
1.2548519 -16.345554 -2.5964997
1.6003098 -20.941219 -2.5787556
2.4080276 -31.583344 -2.771204
2.0691397 -27.264074 -1.4329586
0.68344462 -9.2186108 -2.4768984
0.46031627 -6.2384963 -1.4441857
1.1983665 -16.357718 -2.5977511
1.486928 -20.394304 -2.5107524
2.3061521 -31.70681 -2.7813139
3.3645222 -46.482437 -2.4424148
0.65357387 -9.2536993 -2.4856982
0.43853688 -6.2400651 -1.4441857
0.92575711 -13.205816 -2.5732503
1.1238033 -16.111534 -2.5580168
1.4406072 -20.757809 -2.5548692
2.1918786 -31.662989 -2.7767818
3.2107606 -46.617435 -2.4489043
0.61428297 -9.1518393 -2.4577458
0.41584331 -6.2279472 -1.4410365
1.0710818 -16.168579 -2.5664639
1.3724469 -20.828077 -2.5629125
2.0664489 -31.443804 -2.7569103
3.0430641 -46.552628 -2.4449267
0.58049226 -9.1250095 -2.4499812
0.3955591 -6.2351265 -1.4423862
0.82278597 -13.041492 -2.5400493
1.0190707 -16.19767 -2.5705316
1.3082045 -20.909784 -2.5724185
1.9569274 -31.454802 -2.7572591
2.8965862 -46.690041 -2.4516258
0.54558009 -9.0497494 -2.4292758
0.37367523 -6.2345238 -1.4419363
0.77801126 -13.018672 -2.5350883
0.97037476 -16.333244 -2.5914936
1.2393059 -20.983578 -2.5809493
1.8457118 -31.437574 -2.7551672
2.7408245 -46.823483 -2.4581153
0.51339096 -9.069047 -2.4339345
0.35234943 -6.2435727 -1.4437358
0.73084122 -13.031237 -2.5369966
0.90379828 -16.216383 -2.5724087
1.1631858 -20.936243 -2.5746119
1.7350872 -31.42791 -2.7537727
2.5792534 -47.016685 -2.4677451
0.47916833 -9.0225544 -2.4209933
0.32915589 -6.2389846 -1.4423862
0.68091601 -12.949406 -2.520587
0.84904325 -16.254946 -2.5780404
1.0728682 -20.678686 -2.5424385
1.623722 -31.401939 -2.7509837
2.3802938 -46.347233 -2.4321568
0.31290114 -6.307467 -1.6921589
0.30731004 -6.2166858 -1.4369874
0.63802105 -12.998764 -2.5297458
0.79117817 -16.176777 -2.5652127
1.0081396 -20.761438 -2.5521882
1.5022054 -31.160646 -2.7293692
2.1928556 -45.652641 -2.3953123
0.29198286 -6.3084698 -1.6921589
0.28560773 -6.2177205 -1.4369874
0.60280913 -13.173395 -2.5633283
0.73031271 -16.082748 -2.5498822
0.91850543 -20.384081 -2.5053902
1.2108176 -27.081398 -2.3716822
2.0235312 -45.43655 -2.383589
0.26885909 -6.3094974 -1.6921589
0.26439765 -6.230361 -1.4396867
0.55699855 -13.234362 -2.5747766
0.67531526 -16.18005 -2.5648997
0.84133023 -20.242376 -2.4875972
1.2624748 -30.632885 -2.6823051
1.81752 -44.477787 -2.3329277
0.2460787 -6.2910938 -1.6869825
0.24186231 -6.2390776 -1.4414864
0.50913268 -13.193067 -2.5663812
0.62162679 -16.255348 -2.5764761
0.77592409 -20.477415 -2.5161147
1.1570431 -30.676926 -2.6857913
1.659412 -44.408024 -2.3289504
0.22432332 -6.2977061 -1.6885355
0.220688 -6.2262125 -1.4383371
0.46486717 -13.245776 -2.5763032
0.5623408 -16.103334 -2.5520723
0.70595831 -20.420357 -2.5088024
1.5132315 -44.445217 -2.3306251
0.20349951 -6.3003464 -1.6890532
0.19870475 -6.2191534 -1.4365374
0.42330891 -13.321812 -2.5908048
0.50960237 -16.215765 -2.5695927
0.63097346 -20.30365 -2.4941783
0.94759291 -30.664177 -2.6840482
1.3483193 -44.130817 -2.3138776
0.18139529 -6.2971563 -1.6880178
0.17699446 -6.2198095 -1.4365374
0.37519616 -13.266295 -2.5797377
0.45580617 -16.318148 -2.5855491
0.55145043 -19.992201 -2.4556675
0.84010798 -30.651363 -2.6826537
1.1910231 -44.015461 -2.3075972
0.15941358 -6.2977514 -1.6880178
0.15528202 -6.2203894 -1.4365374
0.32698807 -13.190981 -2.5648546
0.39749259 -16.264347 -2.5767887
0.48744538 -20.234131 -2.4851599
0.72987318 -30.518665 -2.6708004
1.0384072 -44.063278 -2.3099
0.1369227 -6.2750921 -1.6818062
0.13394493 -6.2384286 -1.4405866
0.27964482 -13.131195 -2.5530245
0.34063575 -16.261684 -2.5761631
0.4159531 -20.194031 -2.4800413
0.62309748 -30.509075 -2.6697547
0.88154888 -43.914875 -2.301945
0.11508909 -6.2793951 -1.6828415
0.11188678 -6.2232709 -1.4369874
0.23247983 -13.057499 -2.538523
0.28359166 -16.246977 -2.5736601
0.34926471 -20.417658 -2.5073402
0.51369184 -30.339743 -2.6547639
0.73043638 -44.049488 -2.3088531
0.093283668 -6.2874856 -1.6849121
0.090050474 -6.2158289 -1.4351877
0.18363965 -12.830517 -2.4942553
0.22693402 -16.251818 -2.574286
0.27871826 -20.472343 -2.513921
0.40762544 -30.329399 -2.653718
0.57698303 -44.075733 -2.3101094
0.072522618 -6.2954869 -1.6869825
0.069393776 -6.2121964 -1.4342879
0.14115691 -12.836945 -2.4954002
0.17272373 -16.222851 -2.5695927
0.21046171 -20.437428 -2.5095336
0.29861748 -30.015856 -2.6261768
0.43078393 -44.073406 -2.3099
0.049387217 -6.2879839 -1.6849121
0.047799099 -6.224093 -1.4369874
0.09524291 -12.992469 -2.525548
0.11315222 -16.207571 -2.5670898
0.13910641 -20.436052 -2.50929
0.19011228 -29.438934 -2.5756266
0.26811552 -43.890949 -2.3002703
0.027403863 -6.2803898 -1.6828415
0.024970582 -6.2203288 -1.4360875
0.049631935 -12.925971 -2.512573
0.056474607 -16.178238 -2.562397
0.06354218 -20.226006 -2.4834535
0.08742369 -29.463327 -2.5777183
0.11450201 -43.735832 -2.2921057
0.0054774974 -6.2765837 -1.6818062
0.0043428512 -6.2203774 -1.4360875
0.0044531217 -12.755263 -2.4793723
0.0028015955 -16.045986 -2.5414345
-0.0035588555 -20.400795 -2.5049026
-0.01535436 -29.323984 -2.5655162
-0.030410839 -43.560211 -2.2828946
-0.015327235 -6.2727041 -1.680771
-0.017331684 -6.2067137 -1.4329382
-0.037938572 -12.78662 -2.4854782
-0.053314619 -16.077503 -2.5464404
-0.074713252 -20.384775 -2.5029526
-0.11252074 -29.303848 -2.5637734
-0.18217576 -43.491932 -2.2793357
-0.037337027 -6.2919307 -1.6859473
-0.039120406 -6.2261019 -1.4374373
-0.081759423 -12.660764 -2.4610546
-0.10926091 -16.05154 -2.5423732
-0.14555702 -20.340721 -2.4975905
-0.20852685 -28.446573 -2.4888194
-0.33429781 -43.530975 -2.2814293
-0.059300661 -6.2917619 -1.6859473
-0.06081466 -6.2220302 -1.4365374
-0.12769336 -12.835122 -2.4950185
-0.16524844 -16.047112 -2.5417476
-0.2158405 -20.272598 -2.4893034
-0.31506386 -29.115074 -2.5473878
-0.48682845 -43.581467 -2.2841506
-0.081062466 -6.2760625 -1.6818062
-0.082585096 -6.225677 -1.4374373
-0.17072666 -12.703072 -2.46945
-0.21933091 -15.906198 -2.5195339
-0.28637743 -20.255844 -2.4873536
-0.41663978 -29.109814 -2.5470393
-0.63819313 -43.527584 -2.2814293
-0.10296895 -6.2757411 -1.6818062
-0.1040879 -6.2117119 -1.4342879
-0.2133397 -12.600325 -2.4496059
-0.27457806 -15.889534 -2.5170307
-0.35508785 -20.141588 -2.4734604
-0.52051675 -29.235676 -2.5581954
-0.78918755 -43.473167 -2.2787077
-1.1035823 -59.644707 -1.0412804
-0.12464508 -6.2637553 -1.6787004
-0.12569071 -6.2074142 -1.4333881
-0.25868508 -12.666239 -2.4625809
-0.32962954 -15.868731 -2.5139022
-0.42204002 -19.981455 -2.4539614
-0.61866671 -29.050423 -2.5421586
-0.93850803 -43.35833 -2.272846
-0.14668903 -6.2710075 -1.680771
-0.14749752 -6.2127819 -1.4347378
-0.30477333 -12.743768 -2.4778459
-0.38272199 -15.772693 -2.4988844
-0.4904674 -19.926277 -2.4473803
-0.72292888 -29.16361 -2.5522687
-1.0868409 -43.234993 -2.2665658
-1.5301368 -60.035358 -1.0482614
-0.16837054 -6.2627325 -1.6787004
-0.16912968 -6.2102814 -1.4342879
-0.34925592 -12.742626 -2.4778459
-0.44068012 -15.875914 -2.5154665
-0.56169385 -19.983973 -2.4546924
-0.80681014 -28.527578 -2.4968376
-1.2358103 -43.163052 -2.2630069
-1.7396917 -60.029652 -1.0482614
-0.19046533 -6.2698302 -1.680771
-0.19098555 -6.2154965 -1.4356377
-0.39549273 -12.798236 -2.4889126
-0.49739289 -15.915743 -2.5220368
-0.62969011 -19.926336 -2.4478679
-0.90600961 -28.512642 -2.4957919
-1.3847986 -43.106579 -2.2602856
-1.9557159 -60.223076 -1.0517519
-0.21287258 -6.2845736 -1.6849121
-0.21301469 -6.2245297 -1.4378871
-0.43928748 -12.77127 -2.4839516
-0.54985791 -15.825072 -2.5079577
-0.69910347 -19.920048 -2.4473803
-0.9819324 -27.840279 -2.4372232
-1.5349822 -43.093494 -2.2598667
-0.23480873 -6.283792 -1.6849121
-0.23363876 -6.1945381 -1.4311386
-0.48118904 -12.699033 -2.4702134
-0.59965795 -15.680932 -2.485431
-0.76434702 -19.806404 -2.4337311
-1.081269 -27.892426 -2.4421039
-1.6783677 -42.90826 -2.2504463
-0.25721523 -6.2945151 -1.6880178
-0.25558218 -6.2014732 -1.4329382
-0.5281108 -12.760045 -2.482425
-0.6607362 -15.830714 -2.5095217
-0.83514726 -19.843283 -2.4386058
-1.1708862 -27.705345 -2.4260671
-1.8303421 -42.954021 -2.2531679
-0.27832967 -6.2742796 -1.6828415
-0.27783656 -6.2141709 -1.4360875
-0.57053608 -12.711054 -2.4732664
-0.71429425 -15.790819 -2.5035777
-0.90621895 -19.879908 -2.4434805
-1.2728685 -27.816528 -2.4361773
-1.9668435 -42.656082 -2.2378857
-2.7951114 -60.390144 -1.0552423
-0.29986009 -6.2655511 -1.680771
-0.2988162 -6.2210011 -1.4378871
-0.61936206 -12.80115 -2.4912024
