# .PCD v0.7 - Point Cloud Data file format
VERSION 0.7
FIELDS x y z
SIZE 4 4 4
TYPE F F F
COUNT 1 1 1
WIDTH 1561
HEIGHT 1
VIEWPOINT 0 0 0 1 0 0 0
POINTS 1561
DATA ascii
3.7672334 29.2862 -0.51540446
1.0317222 7.9329896 -2.1435394
1.2068311 9.2541571 -2.1545811
1.4571735 11.158632 -2.1874344
1.7983724 13.734102 -2.1938372
2.3604 17.977539 -2.2263095
3.2996635 25.097326 -2.2146275
7.3874235 56.03759 -2.9622154
3.8387947 29.080158 6.7719269
3.8856936 29.395781 -0.51756859
1.0588938 7.9255104 -2.1425042
1.2406815 9.2614765 -2.1572804
1.4945472 11.141804 -2.1851447
1.8478858 13.739486 -2.1957142
2.426327 17.992798 -2.2292342
3.392055 25.121197 -2.2177651
3.9355755 29.03182 6.7638283
1.0849795 7.9102821 -2.1393983
1.2740626 9.2648115 -2.1590803
1.5353078 11.150132 -2.1878161
1.894751 13.725125 -2.194463
2.4896681 17.98815 -2.2297218
3.479445 25.107231 -2.2175908
7.7553988 55.818474 -2.953423
1.1125834 7.9064465 -2.1393983
1.3058532 9.2564497 -2.1581805
1.5747718 11.148593 -2.1885793
1.9420987 13.714517 -2.1938372
2.5507567 17.96756 -2.2282593
3.6298776 25.536785 -2.2566366
1.1412807 7.910162 -2.1414688
1.3370341 9.2441206 -2.1563809
1.6136756 11.143028 -2.1885793
1.9905176 13.711564 -2.194463
4.2647004 29.341024 3.6404815
2.6146078 17.966404 -2.2292342
3.7635288 25.82955 -2.2836547
7.6223917 52.18589 -2.7639668
8.0337849 54.935219 -0.96909726
1.1703002 7.9156857 -2.144057
1.3685399 9.2454185 -2.1577303
1.6531415 11.141212 -2.1893425
2.0359797 13.704887 -2.194463
2.6735926 17.953705 -2.2287467
3.8642399 25.887199 -2.2899301
8.2461958 55.045284 -0.97154057
1.1950971 7.9022102 -2.1414688
1.4010987 9.2425127 -2.1581805
1.6883084 11.124022 -2.187053
2.0852954 13.707461 -2.1960273
4.4380174 29.138618 3.6190324
2.7320442 17.91679 -2.2253344
3.9482667 25.862423 -2.2888842
8.5997744 56.19981 -2.9795909
8.0223179 52.36499 -0.92469829
1.222672 7.8979912 -2.1414688
1.4341261 9.2532215 -2.1617796
1.7262217 11.112242 -2.1859078
2.1286118 13.686809 -2.1938372
4.5279093 29.080589 3.6136701
2.7871683 17.880173 -2.2219219
4.0412941 25.866199 -2.2904527
8.1076651 51.833752 -2.7495222
8.125783 51.830917 -0.91576272
1.2502358 7.8936744 -2.1414688
1.4674182 9.2440538 -2.1608799
1.7680843 11.125537 -2.1897242
2.178144 13.675012 -2.1932113
2.8520625 17.865917 -2.2214346
4.1340694 25.867676 -2.2918475
1.2774718 7.8873558 -2.1409512
1.500304 9.2427216 -2.1617796
1.805647 11.111546 -2.1881976
2.2277679 13.679024 -2.1950886
4.7569575 29.176754 3.6297569
2.9092886 17.824507 -2.2175348
4.226583 25.866854 -2.2930675
12.637833 77.005981 -1.3621254
1.3053137 7.8847537 -2.1414688
1.5335128 9.2431965 -2.1631293
1.8447472 11.107112 -2.1885793
2.2745271 13.665319 -2.1941502
4.8626971 29.183466 3.6326816
2.9718213 17.816198 -2.2177784
4.3181562 25.859802 -2.2937648
8.724988 52.138462 -2.7704563
12.939612 77.158607 -1.3656158
1.332827 7.8801498 -2.1414688
1.5651194 9.2339439 -2.1622295
1.8818625 11.090928 -2.1866713
2.3238735 13.667032 -2.1957142
3.0326557 17.79789 -2.2168036
4.4090743 25.848497 -2.2941134
13.229784 77.235184 -1.36778
1.3573648 7.8583174 -2.1368101
1.5990065 9.2380247 -2.164479
1.9222392 11.093964 -2.1885793
2.3695424 13.64716 -2.1938372
3.0920467 17.771551 -2.2148538
4.5033851 25.856504 -2.296205
1.386802 7.8649454 -2.1399159
1.6305635 9.228549 -2.1635792
1.9626652 11.096851 -2.1904874
2.4192305 13.650476 -2.1957142
3.1540582 17.760651 -2.2148538
4.5943055 25.844549 -2.2965536
9.3888693 52.708855 -2.8058355
1.4139035 7.8581562 -2.1393983
1.6600035 9.2074585 -2.1599801
2.0017347 11.091866 -2.1908689
2.4658141 13.636116 -2.1947758
3.2163854 17.751484 -2.2150974
4.6908989 25.863642 -2.2996914
9.5913601 52.777946 -2.8112786
11.886301 65.27652 -1.1581416
1.4434196 7.864573 -2.1425042
1.6945944 9.2150249 -2.1631293
2.0397327 11.080949 -2.1901057
2.513747 13.629369 -2.1950886
3.2740059 17.716724 -2.2121725
4.7833076 25.858868 -2.3007371
9.8155813 52.960159 -2.8227923
1.4694438 7.8518906 -2.1404335
1.7271121 9.210968 -2.1635792
2.0758679 11.060253 -2.1874344
2.5635009 13.632159 -2.1969659
3.3380303 17.716894 -2.213635
4.8735499 25.84201 -2.3007371
1.4950278 7.8372264 -2.1378453
1.7599878 9.2087116 -2.164479
2.1170373 11.06644 -2.1901057
2.6088431 13.611486 -2.1950886
3.4050989 17.732424 -2.2170475
4.9629803 25.820929 -2.3003886
9.9433632 51.635159 -2.7558024
14.820863 76.819443 -1.3656158
1.5234836 7.8376489 -2.1393983
1.7913747 9.1986856 -2.1635792
2.1534028 11.04742 -2.1878161
2.6559587 13.600359 -2.1947758
3.4665995 17.718481 -2.2168036
5.0538421 25.807358 -2.3007371
10.322736 52.615356 -2.8100224
1.5512064 7.8341784 -2.1399159
1.8219589 9.1847315 -2.1617796
2.1942441 11.051391 -2.1901057
2.7053471 13.600692 -2.1963401
3.5253122 17.690702 -2.2148538
5.1470208 25.805189 -2.3021317
10.51491 52.622101 -2.8123252
1.5800726 7.8362894 -2.1419864
21.52401 106.65115 1.8991361
1.8532349 9.1744957 -2.1608799
2.23281 11.043663 -2.1901057
2.7520187 13.587294 -2.1957142
3.5874419 17.680233 -2.2150974
5.2418199 25.810501 -2.3042235
1.6058651 7.8231573 -2.1399159
1.8868165 9.1756058 -2.1626794
2.2709534 11.033877 -2.1897242
2.8002253 13.581474 -2.1963401
3.6515412 17.679268 -2.2165599
5.3278437 25.772532 -2.3024805
1.6300012 7.8023763 -2.1357749
1.9196347 9.1727781 -2.1635792
2.3110623 11.03357 -2.1912506
2.8476202 13.571617 -2.1963401
3.7109683 17.670946 -2.2170475
5.4009647 25.67384 -2.2953336
10.90066 51.727364 -2.7704563
1.6570684 7.8025975 -2.1373277
1.9472018 9.153019 -2.16043
2.3472273 11.023927 -2.1908689
2.8926134 13.562099 -2.1963401
3.7703724 17.662426 -2.2175348
5.4685817 25.573956 -2.2880125
11.101432 51.827641 -2.7777836
1.6853812 7.8083892 -2.1404335
1.9771302 9.1446075 -2.1599801
2.3856966 11.015665 -2.1908689
2.9392357 13.560156 -2.1975915
3.8311648 17.645275 -2.2170475
5.5383353 25.465157 -2.2799942
1.7135729 7.8002729 -2.1399159
2.0110588 9.1392012 -2.16043
2.4247847 11.001096 -2.1897242
2.9897773 13.553148 -2.1982174
3.8932385 17.619486 -2.2155848
5.6122522 25.357149 -2.2721503
1.7425742 7.795825 -2.1404335
2.0458176 9.137475 -2.1617796
2.4640326 10.996396 -2.1904874
3.0394292 13.542099 -2.1982174
3.9573333 17.617409 -2.2170475
5.664001 25.174122 -2.257508
11.742994 52.107891 -2.799346
1.7649972 7.7749314 -2.1362925
18.297554 80.537025 1.4416037
2.0761056 9.130641 -2.1617796
2.5013585 10.991992 -2.1912506
3.0851948 13.535798 -2.198843
4.0139718 17.596445 -2.2160723
5.7505512 25.168798 -2.258728
1.7933685 7.7803326 -2.1393983
2.1072516 9.1275024 -2.1626794
2.5369041 10.979813 -2.1904874
3.1291771 13.521643 -2.1982174
4.0789442 17.597801 -2.2180221
5.8411937 25.180645 -2.2615173
1.8209585 7.7759051 -2.1399159
2.1359787 9.1068134 -2.1595302
2.5783587 10.984268 -2.1931586
3.1758959 13.508717 -2.1979043
4.1403522 17.583454 -2.2180221
5.937263 25.195011 -2.2646549
16.573009 70.10881 -1.2574807
1.8480923 7.7695007 -2.1399159
2.1691115 9.1049871 -2.1608799
2.6148672 10.967563 -2.1916323
3.2262464 13.510998 -2.2000947
4.1970835 17.549589 -2.2155848
6.0381665 25.228386 -2.2695355
12.880522 53.73394 -2.8958533
1.874289 7.7592478 -2.1388805
2.2017994 9.1011486 -2.1617796
2.6512799 10.950738 -2.1901057
3.2724612 13.495812 -2.1994689
4.262538 17.552193 -2.2177784
6.1365509 25.249746 -2.2733703
12.407681 50.975693 -2.7495222
1.8995241 7.745153 -2.1368101
2.2340178 9.0952997 -2.1622295
2.6908975 10.947134 -2.1912506
3.3195477 13.484308 -2.1994689
4.325211 17.542986 -2.2185097
6.2409892 25.275442 -2.2777281
1.9278971 7.7381396 -2.1368101
2.2633979 9.0779915 -2.1599801
2.732908 10.944817 -2.1927772
3.366076 13.460551 -2.1975915
4.3844905 17.520082 -2.2175348
6.3369355 25.284424 -2.2805171
18.651247 74.253738 -1.3363657
1.9548986 7.7313623 -2.1368101
2.2952182 9.0639677 -2.1586304
2.772058 10.939017 -2.1935403
3.4135246 13.450635 -2.1979043
4.4506269 17.511589 -2.2185097
6.4413576 25.325872 -2.2862694
13.270135 52.098751 -2.8175588
18.840172 73.913017 -1.3314092
1.984273 7.7338476 -2.1393983
2.3247807 9.0544186 -2.1581805
2.8077788 10.919768 -2.1916323
3.4576211 13.437328 -2.1975915
4.5032206 17.47559 -2.2158287
6.5461574 25.366894 -2.2920215
19.038 73.614479 -1.3272207
2.0074792 7.7178764 -2.1368101
2.3573527 9.0500202 -2.1590803
2.8429873 10.906597 -2.1908689
3.5079949 13.438557 -2.1997817
4.566709 17.469366 -2.2170475
6.6423378 25.39131 -2.296205
13.814738 52.733677 -2.8569155
2.0329306 7.7052169 -2.135257
2.3899226 9.0455055 -2.1599801
2.8820477 10.900402 -2.1916323
3.5538688 13.422411 -2.199156
4.6246128 17.441805 -2.2155848
6.7396107 25.400707 -2.2991683
13.952583 52.511406 -2.8474948
19.422916 72.996666 -1.3184944
2.0613074 7.7036743 -2.1368101
2.4194679 9.0295782 -2.1581805
2.9221058 10.897861 -2.1931586
3.5986545 13.402292 -2.1979043
4.690619 17.444727 -2.2180221
6.8554754 25.46048 -2.306838
14.083825 52.269539 -2.8370278
2.0890284 7.6942015 -2.1362925
2.4484158 9.0116758 -2.155931
2.9599755 10.8795 -2.1916323
3.6482685 13.39092 -2.1982174
4.7494001 17.420586 -2.2170475
6.961081 25.497906 -2.3124161
14.169985 51.832253 -2.8160934
2.1153555 7.6850014 -2.1357749
2.4819486 9.0045185 -2.1563809
2.9989705 10.872889 -2.1923954
3.694993 13.378102 -2.1982174
4.8079224 17.383928 -2.2146099
7.0659928 25.531055 -2.3176455
2.1421702 7.6775699 -2.1357749
2.5165095 9.007062 -2.1590803
3.0342653 10.852899 -2.1904874
3.7427306 13.368927 -2.198843
4.8707223 17.374683 -2.2155848
7.1728234 25.569542 -2.3233976
14.649242 52.151241 -2.838912
20.156162 71.659904 -1.2993666
2.1663303 7.6607509 -2.1331868
2.5511229 9.0094719 -2.1617796
3.0737391 10.847907 -2.1916323
3.7872212 13.348179 -2.1975915
4.9266825 17.352711 -2.2148538
7.2827439 25.617172 -2.3300216
15.019269 52.760605 -2.8749189
20.338923 71.400352 -1.2958761
2.1933165 7.6590962 -2.1347394
2.5756116 8.9822302 -2.1572804
3.1107759 10.84143 -2.1923954
3.8314621 13.335547 -2.1975915
4.9847517 17.338182 -2.2150974
7.3896952 25.669468 -2.3369939
15.241737 52.875549 -2.8839209
2.2197773 7.6554928 -2.1357749
2.6042998 8.9698973 -2.1563809
3.1499944 10.842366 -2.1946852
3.8789775 13.334147 -2.1994689
5.0435648 17.314962 -2.214366
7.499332 25.712376 -2.3432693
15.368862 52.659832 -2.8749189
2.2478232 7.647305 -2.1357749
2.6355929 8.9607525 -2.1563809
3.1863875 10.819448 -2.1923954
3.930614 13.329316 -2.2010331
5.1067886 17.30677 -2.2155848
7.5980783 25.71661 -2.3460581
15.541384 52.534199 -2.871151
20.874397 70.516022 -1.2836593
2.2756047 7.643115 -2.1368101
2.6700904 8.9566336 -2.1577303
3.2230105 10.804498 -2.1916323
3.9754257 13.309834 -2.2000947
5.1684856 17.282232 -2.2148538
7.6866641 25.686111 -2.3457096
21.03429 70.155411 -1.2784238
2.2983682 7.6221776 -2.1331868
2.7037156 8.9607906 -2.1608799
3.2612762 10.79506 -2.192014
4.0195379 13.29658 -2.2000947
5.2269139 17.268797 -2.2153411
7.7520027 25.579042 -2.3383887
2.3247576 7.6182098 -2.1342218
2.7321291 8.9419804 -2.1586304
8.2697296 27.065981 1.4832011
3.2982018 10.787941 -2.1927772
4.0659246 13.282469 -2.2000947
5.2848382 17.242851 -2.214366
7.7725182 25.343664 -2.3192141
2.3496237 7.6045122 -2.1326692
8.3961926 27.174114 0.49645114
2.7588911 8.9235611 -2.1563809
8.3547192 27.006418 1.4815264
3.3387389 10.78574 -2.1946852
4.1058612 13.255702 -2.1979043
5.3437414 17.230925 -2.2150974
7.8638973 25.325891 -2.3200858
8.4623604 27.236519 -1.4947151
8.4513273 27.16749 -0.49662569
2.3754067 7.5985212 -2.1331868
2.7941005 8.9268942 -2.1595302
8.4441576 26.961843 1.480689
3.3721433 10.767114 -2.1931586
4.1574302 13.258253 -2.2007203
5.4002934 17.200804 -2.213635
7.9414935 25.264076 -2.3169482
11.182136 35.551758 -1.9531782
21.778507 69.15683 -1.2655787
2.4055753 7.5971298 -2.135257
2.8264151 8.9208031 -2.16043
8.578064 27.057858 1.4875973
3.4092128 10.747196 -2.1916323
4.2059932 13.242928 -2.2007203
5.4591041 17.178061 -2.2131476
8.0181627 25.200127 -2.3136363
11.400867 35.78838 -1.9684602
21.939631 68.828888 -1.2609713
2.4426906 7.6218014 -2.1445746
2.8573129 8.9048157 -2.1590803
3.4527054 10.753923 -2.1954484
4.24857 13.21688 -2.198843
5.5281053 17.176834 -2.2155848
8.0975351 25.145432 -2.3111959
11.531858 35.767368 -1.9695069
2.473455 7.626091 -2.1481981
2.8868206 8.8952932 -2.1590803
3.4908323 10.743672 -2.1958301
4.2917557 13.200842 -2.1985302
5.5874987 17.165958 -2.2165599
8.1957378 25.149221 -2.3141594
11.698711 35.877041 -1.9776713
22.283047 68.255836 -1.2532922
2.4890952 7.5884781 -2.1399159
2.9148157 8.8759041 -2.1568308
3.5258253 10.730172 -2.1954484
4.3371954 13.183904 -2.1982174
5.6461306 17.14258 -2.2160723
8.2890749 25.15218 -2.3169482
11.853906 35.927032 -1.9826956
22.450357 68.003059 -1.2500111
2.5149586 7.5779099 -2.1393983
2.946074 8.8717394 -2.1581805
3.5632567 10.7178 -2.1954484
4.3821354 13.173197 -2.198843
5.6960516 17.103045 -2.2133911
8.3705263 25.104189 -2.3152051
12.032387 36.065617 -1.9925348
22.606524 67.681496 -1.2455434
2.5408723 7.5631466 -2.1378453
2.9776344 8.852972 -2.1563809
3.6000135 10.697224 -2.1939218
4.4314265 13.15253 -2.1982174
5.7623196 17.08293 -2.213635
8.4439993 25.018597 -2.3101499
12.200199 36.106186 -1.9973496
22.781635 67.34417 -1.2409359
2.5629044 7.5414281 -2.1342218
3.0122874 8.8535929 -2.1590803
3.6379626 10.686453 -2.1943038
4.4734902 13.125762 -2.1963401
5.8296041 17.085257 -2.2165599
8.5184116 24.951258 -2.3066638
12.368785 36.188118 -2.0042579
2.5910993 7.5379167 -2.1357749
3.041904 8.8393402 -2.1581805
3.6739676 10.669974 -2.1935403
4.520565 13.113802 -2.1969659
5.8879156 17.061047 -2.2160723
8.613904 24.945854 -2.3089299
12.523751 36.227776 -2.0088637
23.10354 66.794449 -1.2336757
2.6199317 7.5361252 -2.1378453
3.0673561 8.818161 -2.1554811
3.7169988 10.673773 -2.196975
4.5614247 13.091278 -2.1957142
5.9418411 17.033932 -2.2150974
8.7186584 24.966423 -2.3136363
12.687293 36.31049 -2.0157719
2.6455467 7.5292187 -2.1383629
3.1020007 8.8184299 -2.1581805
3.75172 10.659537 -2.1965933
4.6077547 13.077139 -2.1960273
5.9999485 17.009342 -2.2146099
8.8027363 24.94113 -2.3139849
12.849902 36.367668 -2.0214241
2.6698744 7.5144768 -2.1368101
3.1366804 8.8185644 -2.1608799
3.7875922 10.642675 -2.1958301
4.656023 13.068419 -2.1972787
6.0592818 16.988295 -2.2146099
8.8977737 24.932768 -2.3160768
12.994251 36.37149 -2.0241456
21.97403 61.43869 -1.138944
2.6947806 7.5014753 -2.1357749
3.1687653 8.8112288 -2.1617796
3.8267159 10.634932 -2.196975
4.6996069 13.04651 -2.1963401
6.119216 16.968912 -2.2148538
8.9712334 24.864073 -2.3125904
13.129249 36.348457 -2.0254016
2.7222703 7.4956541 -2.1368101
3.1994967 8.8001156 -2.1617796
3.8638134 10.62151 -2.196975
4.7397027 13.015181 -2.1938372
6.1784158 16.947447 -2.2148538
9.0634394 24.847578 -2.3139849
13.245099 36.272388 -2.0237269
23.930696 65.464531 -1.2166423
2.7484202 7.4861054 -2.1368101
3.2261641 8.7779179 -2.1590803
3.9029016 10.613484 -2.1981196
4.785109 12.998555 -2.1938372
6.2368445 16.923914 -2.2146099
9.1501017 24.815796 -2.3139849
13.368858 36.218445 -2.0233083
24.076981 65.193489 -1.2130818
2.7758739 7.4800901 -2.1378453
3.256614 8.7708244 -2.1599801
3.9364979 10.590597 -2.1962116
4.8288794 12.984466 -2.1941502
6.2956996 16.910582 -2.2155848
9.2380667 24.787436 -2.3143334
13.515397 36.245022 -2.0272858
24.242874 64.944168 -1.2100102
2.7999878 7.4690342 -2.1373277
3.2899516 8.7667007 -2.1617796
3.9736695 10.582998 -2.1973565
4.8748727 12.969378 -2.194463
6.3539958 16.886644 -2.2153411
9.3174133 24.749205 -2.3136363
13.64607 36.208836 -2.0279138
24.397413 64.66832 -1.20645
2.8287821 7.4664407 -2.1393983
3.3191447 8.7515211 -2.1608799
4.0091968 10.565391 -2.1965933
4.9215083 12.955978 -2.1950886
6.4150229 16.869925 -2.2160723
9.400897 24.709087 -2.3129392
13.76528 36.142311 -2.0268672
2.8486092 7.4402833 -2.1347394
3.3503728 8.7417011 -2.1613297
4.0502677 10.562331 -2.1988828
4.9610434 12.923966 -2.1925857
6.4781404 16.858551 -2.2175348
9.4942465 24.694714 -2.314682
13.904262 36.127598 -2.0287511
24.710289 64.138138 -1.1997483
2.878047 7.4393039 -2.1373277
3.380161 8.7281361 -2.1608799
4.0899472 10.555451 -2.2004094
5.0096955 12.91578 -2.1941502
6.5412631 16.846935 -2.218997
9.5919275 24.691141 -2.3174713
14.030294 36.078838 -2.0287511
24.844057 63.820427 -1.19542
2.9047027 7.4310107 -2.1378453
3.4106097 8.7162828 -2.1608799
4.1246238 10.535625 -2.1992648
5.0561943 12.901891 -2.1947758
6.5942273 16.809216 -2.2170475
9.670784 24.63896 -2.3157282
14.189739 36.115158 -2.0335662
25.003723 63.573277 -1.1924182
2.9292035 7.4172335 -2.1368101
3.443882 8.7115717 -2.1626794
4.158484 10.513862 -2.1977382
5.1004758 12.882325 -2.194463
6.6601806 16.804548 -2.2194848
9.7435179 24.571711 -2.3125904
14.340782 36.128525 -2.0371251
25.145723 63.284912 -1.1886485
2.9514992 7.3979907 -2.1342218
3.4764369 8.7049284 -2.1640291
4.1958904 10.501104 -2.1981196
5.1424751 12.857107 -2.1932113
6.7232223 16.792255 -2.220947
9.8351517 24.552349 -2.3139849
14.481666 36.115322 -2.0392184
25.309881 63.055706 -1.1859957
2.9816363 7.3983951 -2.1373277
3.5082622 8.6963539 -2.1649289
4.2376618 10.499138 -2.2007911
5.1865869 12.837245 -2.1928985
6.7892365 16.78709 -2.2233846
9.9178133 24.510479 -2.3132877
14.648125 36.164516 -2.0448706
25.471241 62.822422 -1.1832732
3.0081735 7.38973 -2.1378453
3.5290306 8.6605959 -2.1590803
4.2742877 10.484281 -2.2007911
5.2276249 12.809921 -2.1913342
6.8402901 16.744909 -2.220947
10.001786 24.472029 -2.3129392
14.781846 36.131649 -2.0459175
25.626705 62.577686 -1.1803411
3.0383599 7.3899045 -2.1409512
3.5659177 8.664443 -2.1631293
4.308619 10.463849 -2.1996462
5.2738171 12.795247 -2.1919601
6.9047532 16.735615 -2.2228971
10.090196 24.444328 -2.3136363
14.929226 36.131516 -2.0488482
25.777746 62.325233 -1.1772695
3.0604274 7.3703346 -2.1383629
3.5983868 8.65734 -2.164479
4.3436031 10.445124 -2.1988828
5.3199701 12.780406 -2.1925857
6.9638968 16.71324 -2.2231407
10.167801 24.390566 -2.3118932
15.072188 36.119732 -2.051151
3.0861382 7.3596058 -2.1383629
3.6293371 8.6465244 -2.1649289
4.3815603 10.433517 -2.1996462
5.3630161 12.758117 -2.1919601
7.0221992 16.688828 -2.2231407
10.251327 24.351255 -2.3115447
15.238517 36.162598 -2.0565939
3.1125607 7.3505678 -2.1388805
3.6587386 8.6320076 -2.164479
4.4217834 10.427197 -2.2015543
5.4059772 12.73568 -2.1913342
7.0873852 16.68066 -2.2253344
10.333155 24.307987 -2.3108473
15.374017 36.131256 -2.0578501
26.195467 61.50362 -1.1668679
3.1412401 7.3467627 -2.1409512
3.6850078 8.6102285 -2.1622295
4.4573841 10.409892 -2.2011726
5.4457283 12.705839 -2.1894569
7.1440082 16.65217 -2.2248468
10.421081 24.279095 -2.3115447
15.528436 36.143429 -2.0616181
26.361004 61.29792 -1.1647037
3.166599 7.3421807 -2.1425042
3.7151356 8.6057634 -2.1640291
4.4908423 10.397641 -2.2015543
5.490325 12.699546 -2.1913342
7.1962843 16.629646 -2.2248468
10.504699 24.251719 -2.3122418
15.651428 36.116455 -2.0628741
26.467491 61.016678 -1.1609341
3.1888609 7.3198981 -2.1393983
3.7451508 8.5927429 -2.1640291
4.5273542 10.377511 -2.2007911
5.5360413 12.677529 -2.1910214
7.2622404 16.622614 -2.2272844
10.574926 24.182041 -2.3091042
15.796521 36.08812 -2.064549
26.598511 60.737072 -1.1573738
3.2105024 7.299881 -2.1368101
3.7813289 8.5896616 -2.1667287
4.5651312 10.365239 -2.2015543
5.5754824 12.647281 -2.1891441
7.3311276 16.614048 -2.2297218
10.648015 24.119461 -2.3066638
15.967593 36.135063 -2.0704105
26.772402 60.529461 -1.1552795
3.2398856 7.2974572 -2.1393983
3.8081262 8.5692854 -2.1649289
4.6004896 10.347445 -2.2011726
5.6211996 12.631352 -2.18977
7.4060354 16.626438 -2.2348402
10.72727 24.071228 -2.3056178
16.106661 36.108292 -2.0720854
26.923214 60.300507 -1.1526966
3.2669172 7.2896299 -2.1404335
3.8356204 8.5506067 -2.1635792
4.6389909 10.336699 -2.2023175
5.6684918 12.618863 -2.1910214
7.4770565 16.62945 -2.23874
10.811225 24.033638 -2.3056178
16.226036 36.037281 -2.0712478
27.044786 60.00927 -1.1489267
3.2947333 7.2834606 -2.1419864
3.8678541 8.5424929 -2.1649289
4.6718063 10.313288 -2.2007911
5.715766 12.606197 -2.1922729
7.547368 16.630362 -2.2423961
10.903283 24.013897 -2.3073611
16.37653 36.034966 -2.0743883
27.197807 59.790722 -1.1465534
3.3169265 7.2648873 -2.1399159
3.9008918 8.5360279 -2.1667287
4.705327 10.291562 -2.1996462
5.7613821 12.589759 -2.1928985
7.5764356 16.540749 -2.233865
10.982068 23.964823 -2.3063152
16.487221 35.944908 -2.072504
17.13899 37.33144 -0.71701467
3.33903 7.2462473 -2.1378453
3.9339271 8.529438 -2.1685281
4.7412205 10.275076 -2.1996462
5.8003268 12.558809 -2.1910214
7.2318091 15.643892 -2.1161394
11.058969 23.911871 -2.3049207
16.64784 35.963257 -2.0769002
27.473297 59.294571 -1.1406893
3.3659348 7.23805 -2.1388805
3.965323 8.519186 -2.1694279
4.7787185 10.262021 -2.2004094
5.8357825 12.520583 -2.1878927
7.2200613 15.476441 -2.0968843
11.142365 23.873125 -2.3049207
16.915298 36.208923 -2.094485
27.610523 59.076324 -1.1382459
3.3944612 7.233253 -2.1409512
3.9885817 8.4954081 -2.1667287
4.8153434 10.247056 -2.2007911
5.8797889 12.506526 -2.1888313
7.2282419 15.360806 -2.0844533
11.218844 23.81966 -2.3035262
13.357479 28.347574 -1.6423024
27.761993 58.863827 -1.1360121
3.4184272 7.2219572 -2.1409512
4.0190482 8.4831924 -2.1671786
4.8467727 10.22571 -2.1996462
5.9284925 12.496633 -2.1907084
7.2724547 15.315755 -2.0817723
11.317301 23.812756 -2.3066638
13.345722 28.06809 -1.6287998
27.896793 58.618519 -1.1331499
3.4423811 7.2041483 -2.1393983
29.881308 62.535023 1.2097659
4.0511551 8.4743872 -2.1685281
4.8816848 10.20256 -2.1985013
5.9759588 12.478384 -2.1913342
7.3327389 15.304598 -2.0837224
11.386576 23.74436 -2.303875
28.01989 58.35133 -1.1298689
3.4641461 7.1851301 -2.1373277
4.080492 8.4559727 -2.1676283
4.9181151 10.187229 -2.1988828
6.0237803 12.466339 -2.1928985
7.38273 15.265111 -2.0820162
11.474603 23.715225 -2.3049207
28.172531 58.122276 -1.1274256
3.4908977 7.1764669 -2.1383629
4.1082807 8.4381733 -2.1667287
4.9553676 10.173529 -2.1996462
6.0672569 12.445237 -2.1928985
7.4168158 15.199999 -2.0766537
11.56605 23.692934 -2.3066638
28.296165 57.861908 -1.124284
3.517628 7.1677074 -2.1393983
4.1368527 8.4220295 -2.1662786
4.991713 10.157932 -2.2000279
6.1097932 12.422209 -2.1925857
7.4487906 15.131271 -2.0708041
11.639887 23.634539 -2.3049207
13.663472 27.718971 -1.6195886
28.451946 57.669533 -1.1224689
3.5469136 7.1640401 -2.1419864
18.304384 36.954891 0.71984196
4.1705513 8.4162703 -2.1685281
5.0288873 10.143963 -2.2007911
6.154871 12.404346 -2.1932113
7.479486 15.060732 -2.0647106
11.715218 23.579491 -2.3035262
19.538065 39.25592 -0.76539278
3.5667222 7.1412449 -2.1388805
18.41181 36.847843 0.71900427
4.1999059 8.40166 -2.1685281
5.0625124 10.122834 -2.2000279
6.2043252 12.395149 -2.1954014
7.5284519 15.027432 -2.0637355
11.788533 23.520639 -2.3017831
13.82261 27.555075 -1.6156111
19.598181 39.051498 -0.76267016
3.5890193 7.1235762 -2.1373277
18.499722 36.718716 0.71767783
4.2303734 8.3929081 -2.169878
5.0995827 10.108607 -2.2007911
6.2525129 12.388617 -2.1979043
7.5594525 14.965176 -2.0586171
11.872356 23.482904 -2.3021317
13.905806 27.493042 -1.6146691
28.841986 56.973846 -1.1146504
3.6152453 7.1168032 -2.1388805
18.602425 36.604 0.71670055
4.2605262 8.3798285 -2.1703279
5.1312943 10.088141 -2.2000279
6.2957168 12.366717 -2.1979043
7.5999327 14.9157 -2.0554485
11.948349 23.439857 -2.3017831
14.001697 27.44433 -1.6146691
28.973377 56.741039 -1.1120673
3.6418295 7.1075783 -2.1399159
18.68992 36.460552 0.71516472
4.2826395 8.3510323 -2.1667287
5.1709604 10.078902 -2.201936
6.3469706 12.36048 -2.2007203
7.6501279 14.885556 -2.0549612
12.048324 23.433443 -2.3052692
14.099218 27.398849 -1.6148784
29.013796 56.333775 -1.1060637
3.6701634 7.1016874 -2.1419864
18.77668 36.316933 0.71362895
4.3171372 8.3464146 -2.1694279
5.1997933 10.048586 -2.1992648
6.3946233 12.347018 -2.2022848
7.694736 14.844659 -2.0530112
12.126386 23.384167 -2.3045721
14.20674 27.372509 -1.6162392
3.691361 7.0819802 -2.1399159
18.881155 36.208611 0.7127912
4.34624 8.3312969 -2.1694279
5.2330232 10.026891 -2.1985013
6.4422474 12.333379 -2.2038488
7.7327161 14.791319 -2.049355
12.196841 23.320515 -2.3024805
14.317028 27.351059 -1.617914
3.7133574 7.0639243 -2.1383629
18.972054 36.07523 0.71146482
4.3789268 8.3229733 -2.1712275
5.2716427 10.015517 -2.2000279
6.4907875 12.321301 -2.2057261
7.7926292 14.780043 -2.0515487
12.268881 23.260172 -2.3007371
14.427327 27.32918 -1.6195886
29.407831 55.659092 -1.0988035
3.7388992 7.0526252 -2.1388805
19.097874 36.008778 0.71146482
4.4061246 8.3041964 -2.1703279
5.3111763 10.005723 -2.201936
6.5356088 12.302061 -2.206352
7.8152881 14.698416 -2.0439928
12.340639 23.199619 -2.2989943
14.532029 27.29628 -1.6206354
3.7677312 7.0504093 -2.1419864
19.368019 36.227413 0.7170496
4.4299636 8.2826643 -2.1685281
5.3443303 9.9880543 -2.201936
6.5782361 12.2838 -2.2069776
7.8517919 14.649673 -2.0408242
12.423435 23.159906 -2.2993429
14.627184 27.256742 -1.6211587
3.793545 7.0365534 -2.1419864
19.636692 36.423618 0.72228527
4.4625478 8.2740116 -2.1703279
5.3808999 9.968401 -2.201936
6.6307292 12.27351 -2.2094805
7.891552 14.601221 -2.0378993
12.500416 23.109386 -2.2986455
14.744096 27.234566 -1.6230428
29.806076 55.033302 -1.0924509
3.8143957 7.016479 -2.1399159
19.961149 36.702736 0.72926629
4.4900508 8.2524633 -2.168978
5.4081573 9.9357605 -2.1988828
6.6773086 12.25723 -2.2107322
7.9659247 14.61054 -2.0432615
12.561921 23.030634 -2.2951593
14.863006 27.226757 -1.6256597
18.882008 34.560268 -0.68741536
3.8370056 6.9997339 -2.1388805
4.5225778 8.2435751 -2.1707778
5.448472 9.9271488 -2.2011726
6.723855 12.240773 -2.2119834
8.0235672 14.594824 -2.0449677
12.655674 23.011087 -2.2975996
14.984915 27.223703 -1.6285905
30.081404 54.604919 -1.0881925
3.8614178 6.9862962 -2.1388805
30.173906 54.569851 1.0884367
4.5494375 8.224328 -2.169878
5.4802423 9.902915 -2.2000279
6.7646255 12.213774 -2.2113578
8.0773554 14.571935 -2.0456991
12.724321 22.945864 -2.2955079
15.077922 27.167734 -1.6283811
30.277641 54.510075 -1.0884019
3.8914218 6.9829006 -2.1419864
4.5781198 8.2083969 -2.169878
5.5243402 9.9008713 -2.2038438
6.8197422 12.212505 -2.2154253
8.1165476 14.522859 -2.0427742
12.802401 22.897825 -2.2951593
15.170705 27.111452 -1.6281717
30.307505 54.117912 -1.0826775
3.9176645 6.9726448 -2.1430218
4.6067472 8.1923647 -2.169878
5.5511642 9.8678398 -2.2007911
6.8613644 12.186903 -2.2151122
8.1749907 14.50827 -2.044724
12.88617 22.859936 -2.2958565
15.272126 27.070503 -1.6289045
10.061994 17.828047 4.7262216
30.500549 54.0415 -1.0831661
3.9400768 6.9555631 -2.1419864
30.5371 53.908268 1.0814558
4.6406126 8.1889124 -2.1730273
5.5875149 9.8518162 -2.2015543
6.9114914 12.181261 -2.218241
8.2152138 14.467275 -2.0427742
12.967853 22.818283 -2.296205
15.37464 27.042286 -1.6302652
30.540649 53.674007 -1.0779305
3.9564185 6.9307141 -2.1383629
30.62591 53.627708 1.0779654
4.6653004 8.1658955 -2.1712275
5.6201572 9.8332319 -2.2015543
6.9519997 12.153637 -2.2176151
8.2597504 14.42817 -2.0413115
13.00978 22.716373 -2.2902787
15.481859 27.010975 -1.6316259
10.183104 17.759148 4.7262216
30.678083 53.480331 -1.0761852
3.9854004 6.9252362 -2.1409512
30.812933 53.520466 1.0779654
4.6966958 8.1546259 -2.1725771
5.6564012 9.8169594 -2.2023175
7.0003057 12.139561 -2.2194924
8.3100605 14.399253 -2.0413115
13.108925 22.705328 -2.2937648
15.579043 26.961962 -1.6319399
4.0085821 6.9096103 -2.1404335
4.7153459 8.1213303 -2.1680782
5.7004972 9.8141298 -2.2061336
7.044621 12.118468 -2.220118
8.3742504 14.394176 -2.044724
13.178074 22.642216 -2.2920215
15.685132 26.928123 -1.633196
21.269793 36.48658 -0.73718965
4.0375547 6.9039135 -2.1430218
4.74859 8.1132298 -2.1703279
5.7228189 9.77384 -2.2015543
7.0908775 12.100619 -2.2213697
8.4143934 14.34774 -2.0422866
13.257035 22.596071 -2.2920215
15.788118 26.888718 -1.634138
31.056093 52.84927 -1.0699722
4.0596657 6.8864493 -2.1419864
4.77985 8.1016397 -2.1716774
5.7549033 9.7504244 -2.2007911
7.1391044 12.085998 -2.2232468
8.4523067 14.297772 -2.0393617
13.325695 22.532509 -2.2902787
15.902233 26.867815 -1.6362315
31.166992 52.616673 -1.067459
4.0787468 6.8639321 -2.1393983
4.8100915 8.0882559 -2.1725771
5.796937 9.7437725 -2.2038438
7.1832619 12.064403 -2.2238727
8.5265484 14.30911 -2.0452116
13.39202 22.465322 -2.2881868
16.006163 26.829288 -1.6372783
31.299229 52.421703 -1.0657138
4.1086364 6.8595977 -2.1425042
4.8362937 8.0680723 -2.1716774
5.8339405 9.7285309 -2.204989
7.2233014 12.035867 -2.2232468
8.2166681 13.680246 -1.9594156
13.47856 22.432102 -2.2895813
16.115149 26.798933 -1.6388483
31.40691 52.207966 -1.0634799
4.1355495 6.8501763 -2.144057
4.860002 8.0469856 -2.1703279
5.8709126 9.7131453 -2.2061336
7.2672648 12.018605 -2.2244983
8.6278677 14.257529 -2.0461864
13.556776 22.384918 -2.2895813
16.21739 26.767548 -1.6402091
31.551624 52.036465 -1.0622233
4.1602526 6.8397241 -2.1450922
4.8880601 8.029973 -2.1703279
5.8969617 9.6835651 -2.2038438
7.3153386 12.003287 -2.2263756
8.6755133 14.223938 -2.0456991
13.624714 22.329634 -2.2885354
16.324255 26.732939 -1.6415697
31.658009 51.80315 -1.0597101
4.1750135 6.8103385 -2.1404335
4.9150429 8.011199 -2.169878
5.9286723 9.6595755 -2.2030807
7.3675361 11.99451 -2.2295043
8.6939211 14.142837 -2.0383868
13.683795 22.251385 -2.285398
16.454103 26.735327 -1.6452333
4.1977472 6.7940793 -2.1399159
4.9521956 8.008914 -2.1739271
5.9654551 9.6438303 -2.2042258
7.4124708 11.973763 -2.2304428
8.7087383 14.056712 -2.0303433
13.757169 22.196718 -2.2847006
16.590496 26.747314 -1.6495248
4.2265449 6.7875829 -2.1425042
4.9729099 7.9800005 -2.1707778
6.0011616 9.6262779 -2.204989
7.4646811 11.964573 -2.2335715
8.8344994 14.149151 -2.0481365
13.838795 22.155317 -2.285398
16.748337 26.792553 -1.6559098
25.347511 40.517262 -0.83422506
4.2522612 6.7760644 -2.1435394
4.9986639 7.959291 -2.169878
6.0378532 9.6102619 -2.2061336
7.5232263 11.965197 -2.2385774
8.8880663 14.124943 -2.0491114
13.90756 22.093384 -2.2840033
22.232834 35.291477 -2.1859684
25.443968 40.357502 -0.83275908
4.274858 6.7595463 -2.1430218
5.0326681 7.9516749 -2.1725771
6.065064 9.579174 -2.2038438
7.5607162 11.932192 -2.2373261
8.8979883 14.031803 -2.0400932
13.986726 22.048069 -2.2843521
22.415842 35.308079 -2.1918299
25.541801 40.200916 -0.83136284
4.2984252 6.7445836 -2.1430218
5.0603957 7.9340577 -2.1725771
6.0974064 9.5562906 -2.2034624
7.6097655 11.917379 -2.239516
8.9565248 14.015717 -2.0422866
14.039999 21.962177 -2.2805171
22.547543 35.243092 -2.1926675
25.636698 40.040779 -0.82989681
4.3146362 6.7181587 -2.1393983
5.088058 7.9163461 -2.1725771
6.1360393 9.5432043 -2.2053704
7.6459713 11.882439 -2.2379518
8.5647469 13.300084 -1.9423537
14.112256 21.90634 -2.27982
22.687752 35.191025 -2.1943421
25.763292 39.930893 -0.82947803
4.3443604 6.7127862 -2.1425042
5.1156588 7.8985386 -2.1725771
6.1682487 9.5200777 -2.204989
7.6831012 11.849049 -2.2367003
9.12115 14.056089 -2.0573983
14.195142 21.866974 -2.2808659
22.860497 35.18866 -2.199157
25.976196 39.969318 -0.83206093
4.3688197 6.6992002 -2.1430218
5.1354365 7.871737 -2.169878
6.2057328 9.505065 -2.2065153
7.725596 11.828465 -2.237639
9.1340466 13.974255 -2.0498426
14.264848 21.807283 -2.27982
23.018627 35.176159 -2.2031345
26.334675 40.212971 -0.83904195
4.3931308 6.6879058 -2.144057
26.818403 40.811615 0.85241044
5.1650262 7.8570185 -2.1707778
6.2296662 9.4729528 -2.2038438
7.7635827 11.796473 -2.2367003
9.1882267 13.950576 -2.0510612
14.330514 21.749872 -2.278774
23.189646 35.168968 -2.2077403
26.69515 40.45462 -0.84602284
4.4132524 6.667696 -2.1425042
27.117458 40.954517 0.85736692
5.1924191 7.8389425 -2.1707778
6.2616129 9.4495115 -2.2034624
7.8189025 11.790706 -2.2407675
9.259923 13.95315 -2.0561798
14.395322 21.683123 -2.2770309
23.360909 35.160995 -2.2123458
27.30345 41.063896 -0.8607527
4.431139 6.6442156 -2.1399159
27.475565 41.182316 0.86413848
5.2219124 7.8240123 -2.1716774
6.2978287 9.432497 -2.2046072
7.8435483 11.738705 -2.2360744
9.2776718 13.874538 -2.049355
14.466488 21.62612 -2.2763338
23.525713 35.142315 -2.2163234
27.662556 41.290634 -0.86752427
4.456461 6.6319132 -2.1409512
27.802122 41.358318 0.86986285
5.2481022 7.804121 -2.1712275
6.3351011 9.4169683 -2.2061336
7.8778548 11.701424 -2.2341974
9.3637629 13.898041 -2.0576422
14.530749 21.558973 -2.2745905
23.750999 35.212307 -2.2259531
28.012367 41.498791 -0.87394673
4.4860811 6.6259155 -2.144057
28.168346 41.588848 0.87677401
5.2709408 7.7792993 -2.1694279
6.3679318 9.3947992 -2.2061336
7.9219818 11.678756 -2.235136
14.599204 21.498224 -2.2735445
24.017456 35.340633 -2.239351
28.338699 41.683498 -0.87981075
4.5134697 6.6189847 -2.1466453
28.506683 41.789265 0.88298702
5.2978101 7.7633862 -2.169878
6.3968401 9.3703871 -2.2053704
7.9584403 11.649158 -2.2345102
14.661424 21.436535 -2.2721503
24.305983 35.511318 -2.2552612
28.68692 41.896187 -0.88630307
4.528831 6.5944266 -2.1435394
28.871588 42.024136 0.88996804
5.323524 7.7457767 -2.169878
6.4278722 9.3491278 -2.2053704
7.997025 11.622704 -2.2345102
14.727904 21.381237 -2.2714529
24.598185 35.683754 -2.2713807
29.062372 42.128281 -0.89335382
4.5452285 6.5690451 -2.1404335
29.23435 42.235493 0.89659989
5.3549647 7.7335558 -2.1716774
6.4638238 9.3314724 -2.2065153
8.0352936 11.591473 -2.2338843
8.9716358 12.932555 -1.9326042
14.793357 21.316607 -2.2700584
24.90489 35.860134 -2.2881281
29.410082 42.315594 -0.89949703
4.5692368 6.5547223 -2.1409512
29.58289 42.421894 0.90274316
5.3830447 7.7164135 -2.1721272
6.4974833 9.310461 -2.206897
8.068924 11.553636 -2.2320073
9.1008663 13.021569 -1.9506408
13.441692 19.218138 -2.0518205
25.199352 36.015198 -2.3036196
4.597672 6.5442557 -2.1430218
29.946915 42.62598 0.90930527
5.4054675 7.6911979 -2.1703279
6.5315623 9.2865858 -2.206897
8.1157608 11.530446 -2.2332587
9.7256947 13.812634 -2.0742164
13.451309 19.08967 -2.0431049
25.50386 36.167416 -2.3193204
30.161249 42.756329 -0.91331929
4.6216025 6.5297451 -2.1435394
30.32711 42.832554 0.91607678
5.433619 7.6713352 -2.1703279
6.5639415 9.2637272 -2.206897
8.1525354 11.497211 -2.2323201
9.8199072 13.838415 -2.0834785
13.344871 18.798895 -2.016958
25.808075 36.328918 -2.3354399
30.535051 42.966995 -0.92009085
4.6421256 6.5104256 -2.1425042
30.703503 43.060635 0.92312759
5.4601583 7.6548615 -2.1707778
6.5939541 9.2375641 -2.2061336
8.1986504 11.481367 -2.2345102
9.9049892 13.860688 -2.0917656
13.408096 18.748955 -2.0166094
26.091091 36.470558 -2.3500941
30.913019 43.178829 -0.92693222
4.6614342 6.491858 -2.1414688
31.096294 43.291004 0.93038779
5.4902554 7.6405044 -2.1721272
6.6268411 9.2188368 -2.206897
8.2317533 11.443059 -2.2326329
9.979991 13.863079 -2.0973716
13.446672 18.66486 -2.0126004
26.299988 36.492676 -2.3574212
31.297489 43.395039 -0.93391317
4.6919932 6.484118 -2.1445746
31.505112 43.538612 0.9380669
5.5111804 7.613399 -2.169878
6.665194 9.2008438 -2.2084234
8.2724829 11.41121 -2.2323201
10.027152 13.826553 -2.0971277
13.597168 18.735523 -2.0253251
31.70265 43.634975 -0.94145262
4.7146006 6.4676995 -2.1445746
31.895422 43.739525 0.9449082
5.5390463 7.5931497 -2.169878
6.6926441 9.1711769 -2.206897
8.3227472 11.396623 -2.235136
10.0777 13.794669 -2.0976152
13.663655 18.689558 -2.0254996
26.293928 35.939251 -2.3337653
32.098057 43.856472 -0.94864303
4.7348781 6.4504738 -2.144057
32.276974 43.955898 0.95188916
5.5584292 7.5668855 -2.1676283
6.7253432 9.1520987 -2.2076602
8.3710299 11.383281 -2.2379518
10.123386 13.761177 -2.0976152
13.71375 18.628096 -2.0237563
26.384523 35.813271 -2.3312531
32.528057 44.13612 -0.95702016
4.7585406 6.4378424 -2.1450922
32.719799 44.250587 0.9606154
5.5939198 7.5625124 -2.1716774
6.7498193 9.1218529 -2.2057521
8.4052038 11.350698 -2.2370131
10.161903 13.713 -2.0956655
13.552381 18.281614 -1.9909858
26.503149 35.725571 -2.3312531
32.9394 44.36911 -0.96455961
4.7729034 6.4103494 -2.1414688
5.6226149 7.5460639 -2.1725771
6.7851334 9.1029634 -2.206897
8.4447765 11.321288 -2.2370131
10.254835 13.737891 -2.1049275
13.600618 18.21344 -1.9887197
26.627684 35.632847 -2.3312531
30.138409 40.301556 -0.87841451
4.7964115 6.3951941 -2.1419864
5.6489191 7.5263925 -2.1725771
6.822763 9.0870714 -2.2088051
8.4866142 11.294901 -2.237639
10.303924 13.703595 -2.1051712
13.72519 18.247061 -1.9976096
26.811968 35.619457 -2.3364866
30.240414 40.144981 -0.87729758
4.8198724 6.3799529 -2.1425042
5.6681075 7.4973001 -2.169878
6.8508911 9.0585003 -2.2076602
8.5319538 11.273083 -2.2392032
10.272583 13.56311 -2.0890844
13.744286 18.140278 -1.99116
26.875782 35.446095 -2.3312531
30.32719 39.969082 -0.87576181
4.8526402 6.3769264 -2.1471629
5.6977806 7.4821239 -2.1712275
6.8800879 9.0314093 -2.206897
8.5700569 11.241658 -2.2388902
10.369233 13.591874 -2.0990777
13.900603 18.214144 -2.0045822
30.468943 39.866158 -0.87583154
4.8678207 6.3507481 -2.144057
5.7226791 7.4606419 -2.1707778
6.9103789 9.0057783 -2.2065153
8.6200647 11.22578 -2.2417061
10.414193 13.552452 -2.0985904
13.92037 18.108654 -1.9983069
27.183495 35.336742 -2.3364866
4.8852324 6.3276038 -2.1419864
5.7534542 7.4467869 -2.1725771
6.941771 8.9816036 -2.2065153
8.6543665 11.18937 -2.2404547
10.49789 13.563107 -2.1059024
13.906657 17.960701 -1.9873253
4.9096646 6.3135619 -2.1430218
5.7734284 7.4189711 -2.1703279
6.9754906 8.9604177 -2.2072787
8.6957979 11.16221 -2.2410803
10.584231 13.576476 -2.1137023
13.901873 17.82564 -1.9777381
50.320015 64.429909 -1.4269786
4.9328656 6.297905 -2.1435394
5.7944832 7.3926358 -2.1685281
7.009151 8.9391022 -2.2080419
8.7334919 11.130233 -2.2407675
11.486051 14.627663 -2.2835879
13.999124 17.815294 -1.9822702
50.47044 64.159546 -1.4248843
4.9607005 6.2858491 -2.1456099
5.8226657 7.3754239 -2.1694279
7.0333462 8.9025707 -2.2053704
8.7901516 11.118295 -2.2448349
11.549352 14.603052 -2.2860253
14.14654 17.874123 -1.9942977
4.9790049 6.2639594 -2.144057
5.8569403 7.3631825 -2.1721272
7.0692668 8.8841114 -2.206897
8.8301411 11.089087 -2.2451477
11.607673 14.571967 -2.2874877
14.192705 17.804375 -1.9920316
4.9949226 6.2413793 -2.1419864
35.014244 43.73621 0.97792816
5.876451 7.3376374 -2.1703279
7.0962358 8.8575535 -2.2061336
8.8693352 11.062828 -2.2457736
11.673323 14.555072 -2.2909
14.274119 17.785177 -1.9951692
5.0168037 6.2262869 -2.1425042
5.9056463 7.3241758 -2.1721272
7.1255674 8.8339739 -2.2061336
8.9010115 11.027205 -2.2445219
11.729054 14.520411 -2.2918751
14.347376 17.749197 -1.9967381
33.674141 41.613834 -0.93440181
5.0383739 6.206356 -2.1419864
5.9274893 7.2989798 -2.1707778
7.1579046 8.8077936 -2.2061336
8.948844 11.003704 -2.2463992
11.788441 14.490155 -2.2935812
14.399186 17.686644 -1.9953436
5.0722346 6.2036881 -2.1471629
5.9504972 7.2726812 -2.1694279
7.1885996 8.7827587 -2.2061336
8.9821959 10.966284 -2.2451477
11.847759 14.454531 -2.2948
14.501816 17.679966 -2.0005729
5.086339 6.1746197 -2.1435394
5.9808068 7.2578802 -2.1712275
7.2107482 8.7442369 -2.2030807
9.0374136 10.951574 -2.2489021
11.909507 14.426872 -2.2969937
14.543145 17.604656 -1.9977839
28.08802 33.976734 -2.3103187
5.1053963 6.153852 -2.1425042
6.0148358 7.2449093 -2.1739271
7.2475014 8.7265625 -2.204989
9.0717974 10.915406 -2.2479637
11.980084 14.404482 -2.300406
51.659206 62.003353 -1.4086884
5.1318021 6.1419215 -2.1445746
6.0325899 7.2148972 -2.1712275
7.2754016 8.6981974 -2.2042258
9.1123829 10.8867 -2.2485893
12.049402 14.38541 -2.3040619
14.692565 17.534767 -2.0014443
51.924183 61.880844 -1.4100149
5.1519651 6.1224942 -2.144057
6.0514636 7.1863408 -2.168978
45.145233 53.611664 3.6731472
7.3183661 8.6877651 -2.2080419
9.1554251 10.860865 -2.2498407
12.086806 14.333231 -2.3021121
14.744695 17.472712 -2.0002241
52.033623 61.595264 -1.4074318
5.1784825 6.1127477 -2.1466453
6.0777769 7.1692109 -2.169878
45.322735 53.461693 3.6731472
7.3382449 8.6529694 -2.2053704
9.1926661 10.831952 -2.2501535
12.141983 14.302148 -2.3035746
14.859312 17.490534 -2.007894
52.133938 61.300518 -1.4046395
5.1937108 6.0896597 -2.1445746
6.1091094 7.1579084 -2.1725771
7.3643517 8.6255989 -2.2046072
9.2400818 10.814927 -2.2529695
12.21247 14.283821 -2.3074741
15.010939 17.544533 -2.0200958
5.2109594 6.0647235 -2.1425042
6.1302495 7.1321049 -2.1712275
47.663723 55.433746 3.8314109
7.4010353 8.6045046 -2.2061336
9.282239 10.78398 -2.2535954
12.308882 14.29526 -2.3162489
15.15663 17.590134 -2.031426
52.437859 60.792728 -1.4013585
5.2333632 6.0479569 -2.1430218
6.1563468 7.1095901 -2.1712275
7.4387407 8.5875187 -2.2084234
9.3198233 10.751515 -2.2535954
12.395017 14.289035 -2.3225861
15.229687 17.550665 -2.0329947
52.565804 60.512711 -1.3991246
5.2582512 6.0340195 -2.1445746
6.1734858 7.0817924 -2.168978
7.4738359 8.5674162 -2.20995
9.355423 10.720552 -2.2535954
12.431891 14.235888 -2.3206363
15.428523 17.654919 -2.0512974
52.779362 60.331852 -1.3991944
5.2833242 6.0223627 -2.1466453
6.2033129 7.0660563 -2.1707778
7.4879494 8.5263634 -2.2057521
9.4058304 10.702666 -2.2567239
12.486749 14.198371 -2.3216112
15.544022 17.662283 -2.0584443
52.905022 60.051228 -1.3969605
5.2989697 5.9957151 -2.144057
6.2266483 7.0429015 -2.1703279
7.5152535 8.4944458 -2.2046072
9.4554672 10.679954 -2.2592268
12.546768 14.166582 -2.323561
15.628041 17.633266 -2.0614076
28.985882 32.682026 -2.2893844
5.314724 5.9714131 -2.1419864
6.256309 7.0243955 -2.1716774
51.299267 57.597271 4.0422201
7.5474648 8.471097 -2.2053704
9.4848051 10.638034 -2.2573495
12.619749 14.144205 -2.327461
15.729303 17.623198 -2.066637
5.3394065 5.95714 -2.1435394
6.276969 7.0007071 -2.1707778
7.5796123 8.4476204 -2.2061336
9.5226717 10.609461 -2.2579753
12.682499 14.120003 -2.3303859
15.765415 17.540033 -2.0633252
53.300896 59.238255 -1.3909569
5.3656039 5.9465709 -2.1461277
6.301363 6.9787579 -2.1707778
7.6207466 8.437006 -2.20995
9.5622902 10.579093 -2.2586012
12.762341 14.109503 -2.3359919
15.842204 17.508345 -2.0657654
53.459446 59.019684 -1.3899795
5.3837256 5.9249487 -2.1450922
6.3244729 6.9578218 -2.1707778
7.6369381 8.3958311 -2.2061336
9.6079569 10.55901 -2.2611041
12.827775 14.087649 -2.3394041
16.029369 17.591366 -2.0821507
53.624722 58.78838 -1.3889323
5.4028015 5.9023232 -2.144057
6.3537722 6.9363608 -2.1716774
7.6689878 8.3692303 -2.2065153
9.6537676 10.527867 -2.2623556
12.849549 14.003196 -2.3335543
16.233854 17.68515 -2.1002791
5.4168234 5.8763261 -2.1414688
6.3820262 6.9209824 -2.1734772
7.6968217 8.3409681 -2.2061336
9.6859503 10.49289 -2.26173
12.912084 13.978002 -2.3364792
16.313074 17.647388 -2.102545
5.4415355 5.8639975 -2.1435394
6.4008431 6.8929486 -2.1716774
7.7271104 8.3182774 -2.206897
9.7198305 10.45612 -2.2611041
12.96485 13.93721 -2.3372104
16.442089 17.669037 -2.1116092
5.4632921 5.8463769 -2.144057
6.4143496 6.8617215 -2.1685281
7.761466 8.2969866 -2.2084234
9.7598476 10.429602 -2.2623556
13.016428 13.899933 -2.3381853
16.629 17.745291 -2.127646
5.4852948 5.8310432 -2.1450922
6.4422679 6.8435473 -2.169878
7.78759 8.2697754 -2.2080419
9.8016109 10.401222 -2.263607
13.070318 13.860184 -2.3391602
16.933842 17.950926 -2.1590221
5.4989719 5.8048491 -2.1425042
6.4741626 6.8295016 -2.1725771
7.812355 8.2382689 -2.206897
9.8324223 10.361211 -2.2623556
13.132288 13.828874 -2.3415978
17.025221 17.922037 -2.1626825
5.5165353 5.7828212 -2.1414688
6.4966159 6.8054528 -2.1721272
7.8356438 8.2052679 -2.2053704
9.8712568 10.329684 -2.2629812
13.185971 13.788684 -2.3425727
17.162045 17.940245 -2.1720953
5.5340128 5.7607422 -2.1404335
6.5203333 6.7827325 -2.1721272
7.8669605 8.1806936 -2.2061336
9.9045172 10.292315 -2.2623556
13.222999 13.731144 -2.3406229
17.498259 18.164333 -2.206609
5.5608029 5.7483335 -2.1430218
6.543972 6.7599287 -2.1721272
7.9022956 8.1602364 -2.2080419
9.9431353 10.260513 -2.2629812
13.279142 13.69345 -2.3420851
17.894508 18.446352 -2.2484438
5.5821838 5.7302699 -2.1435394
6.5729656 6.7426314 -2.1739271
7.9266229 8.1283836 -2.206897
9.9788847 10.22575 -2.2629812
13.321318 13.641329 -2.3411102
18.306843 18.740091 -2.2920215
5.6007957 5.7093744 -2.1430218
6.5937328 6.7168632 -2.1730273
7.9480643 8.093667 -2.204989
10.01729 10.19367 -2.263607
13.38277 13.608903 -2.3435478
18.570557 18.87776 -2.3167739
5.6098309 5.6787925 -2.1388805
6.6267276 6.7035089 -2.1761765
7.9804106 8.0700588 -2.2061336
10.052809 10.158644 -2.263607
13.444163 13.576205 -2.3459849
18.650356 18.826979 -2.318517
5.6364331 5.6660223 -2.1414688
6.6349654 6.6651425 -2.1712275
38.682865 38.845242 2.873035
8.0126915 8.0463257 -2.2072787
10.085422 10.120689 -2.2629812
13.497075 13.534821 -2.3469601
18.713154 18.758936 -2.3181684
26.846491 26.893393 -1.991488
5.6575427 5.6476789 -2.1419864
6.6623306 6.6460686 -2.1725771
8.0448971 8.0224667 -2.2084234
10.120691 10.08542 -2.2629812
13.538608 13.482023 -2.3459849
18.798292 18.713173 -2.3206089
27.172415 27.030527 -2.0086541
5.678596 5.6292553 -2.1425042
6.6827159 6.6200333 -2.1716774
8.0658789 7.9874263 -2.2065153
10.161448 10.055592 -2.2642329
13.597358 13.45101 -2.3484223
18.90317 18.686666 -2.3254895
5.6972308 5.6103945 -2.1425042
6.7074122 6.6005683 -2.1725771
8.0923204 7.9606366 -2.2065153
10.20178 10.028766 -2.2657971
13.653214 13.41698 -2.3503723
18.868362 18.528955 -2.3136363
27.740669 27.222649 -2.0369155
5.7144246 5.5901179 -2.1419864
6.7348394 6.5837369 -2.174377
8.1172724 7.9323835 -2.2061336
10.239223 9.9990177 -2.2667358
13.708485 13.377561 -2.3518348
18.909742 18.446802 -2.3111959
27.905153 27.203012 -2.0423586
5.7297449 5.5661001 -2.1404335
6.7493887 6.5520444 -2.1716774
8.1533642 7.9122057 -2.2084234
10.265553 9.9549665 -2.2648585
13.766505 13.340675 -2.3537848
18.971153 18.377913 -2.3108473
13.016038 12.604615 3.5219524
28.022911 27.127659 -2.0440333
12.988597 12.569259 4.172842
5.7505312 5.5474052 -2.1409512
6.7637997 6.5203314 -2.168978
8.1752806 7.8782458 -2.206897
10.303083 9.921814 -2.2654841
13.815854 13.29529 -2.3542721
19.069645 18.344734 -2.3150308
12.975056 12.477451 3.4990556
28.005129 26.921705 -2.0358689
12.970566 12.464435 4.1530466
5.772646 5.5299749 -2.1419864
6.7879276 6.4980273 -2.1694279
8.2027254 7.8496666 -2.206897
10.346222 9.8939781 -2.2673614
13.859305 13.244242 -2.3537848
19.145094 18.289059 -2.3164253
13.024207 12.43751 3.500582
28.185604 26.906532 -2.0421491
12.994261 12.400244 4.1467476
5.7835178 5.5018005 -2.1388805
6.8162169 6.4796658 -2.1712275
8.2201166 7.8115172 -2.2042258
10.386424 9.8632469 -2.2686129
13.914096 13.203979 -2.355247
19.231939 18.244062 -2.3192141
13.087484 12.410888 3.5059247
28.128614 26.665075 -2.0312634
13.03322 12.350792 4.1453981
5.7998805 5.4789243 -2.1378453
6.8433332 6.4623804 -2.1730273
8.253047 7.7881632 -2.2057521
10.421947 9.8314629 -2.2692387
13.96647 13.165939 -2.3567097
19.315815 18.195942 -2.3216546
13.02854 12.273183 3.4792116
28.967159 27.278187 -2.085274
13.069847 12.303499 4.1440482
5.8250623 5.466269 -2.1404335
6.8587437 6.4317865 -2.1707778
8.280262 7.7620921 -2.2061336
10.447554 9.7869177 -2.2673614
14.018135 13.122534 -2.3576844
19.410961 18.164465 -2.3258381
13.141557 12.293345 3.4979107
29.336451 27.433376 -2.1049523
13.098482 12.244491 4.1395493
5.8441038 5.4459066 -2.1404335
6.8729067 6.4023628 -2.1685281
8.3116131 7.7371612 -2.2072787
10.484292 9.7562532 -2.2683001
14.061571 13.07598 -2.3576844
19.494686 18.11558 -2.3282783
13.177935 12.245691 3.4967656
30.106236 27.966677 -2.1535201
13.216127 12.272589 4.1638441
5.8616619 5.42416 -2.1399159
6.9049091 6.3850689 -2.1712275
8.3342457 7.7040997 -2.2061336
10.518527 9.7164221 -2.2679873
14.112324 13.027043 -2.3581719
19.601727 18.087959 -2.3335078
31.204056 28.774097 -2.2244878
5.8876715 5.410203 -2.1425042
6.9257221 6.3596082 -2.1707778
8.3480692 7.6630144 -2.2026992
10.566938 9.692996 -2.2711158
14.163563 12.983072 -2.3591471
19.661812 18.016727 -2.3331592
31.584156 28.921297 -2.2443755
5.8993864 5.3831058 -2.1399159
6.9550772 6.3419609 -2.1730273
8.3762217 7.6351485 -2.2030807
10.586104 9.6427517 -2.2679873
14.205861 12.930875 -2.3586593
19.730473 17.953354 -2.3338566
5.9210057 5.3650727 -2.1409512
6.9713926 6.3124132 -2.1712275
40.128304 36.32235 2.8366091
8.4144678 7.6164002 -2.2061336
10.625556 9.611043 -2.2692387
14.262691 12.891862 -2.3606093
19.819628 17.908419 -2.3369939
31.871275 28.777727 -2.2504463
5.9396958 5.3443732 -2.1409512
6.9890361 6.2841334 -2.169878
8.4380808 7.5843592 -2.2053704
10.661983 9.5765314 -2.2698643
14.313517 12.847296 -2.3615842
19.887955 17.844444 -2.3376913
31.929903 28.628958 -2.2475154
5.9583139 5.3236084 -2.1409512
7.0080233 6.2571011 -2.168978
8.4601078 7.5509386 -2.2042258
