# .PCD v0.7 - Point Cloud Data file format
VERSION 0.7
FIELDS x y z
SIZE 4 4 4
TYPE F F F
COUNT 1 1 1
WIDTH 1460
HEIGHT 1
VIEWPOINT 0 0 0 1 0 0 0
POINTS 1460
DATA ascii
1.1693151 -6.7908082 -1.5908539
2.4218874 -14.079825 -2.7770343
2.7754433 -16.169027 -2.5983768
3.2539706 -18.996586 -2.3664591
3.995506 -23.350136 -2.0725634
5.5260181 -32.362545 -1.7205971
1.1570158 -6.8479514 -1.8609091
1.1459274 -6.7967696 -1.5913037
2.372726 -14.088193 -2.7770343
2.7058897 -16.100695 -2.5858619
3.1896119 -19.019575 -2.3679214
3.9156227 -23.373766 -2.0734351
5.4169722 -32.40527 -1.7218531
1.1286912 -6.8252645 -1.853662
1.1225123 -6.8026514 -1.5917536
2.317785 -14.061522 -2.7701652
2.6682653 -16.223097 -2.6040082
3.110342 -18.952238 -2.3581719
3.8365874 -23.403023 -2.0748296
5.2993088 -32.396389 -1.7203877
1.1067116 -6.8406053 -1.8567679
1.0941013 -6.7776709 -1.5850052
2.2774394 -14.123796 -2.7808504
2.612247 -16.236214 -2.6046343
3.0460551 -18.974739 -2.3596344
3.7431993 -23.343481 -2.0683799
5.1880846 -32.426525 -1.7210158
1.0822235 -6.840611 -1.8557327
1.0716522 -6.7891479 -1.5868047
2.2201722 -14.081239 -2.7709284
2.5561714 -16.249134 -2.6052599
2.9871888 -19.032324 -2.3654842
3.6579914 -23.332785 -2.0662882
5.0723934 -32.42865 -1.7201782
1.0577474 -6.8405285 -1.8546973
1.0485411 -6.7966995 -1.5877045
2.1728013 -14.100545 -2.7732179
2.5018365 -16.273579 -2.6077628
2.9225426 -19.054405 -2.3669467
3.5876827 -23.41828 -2.0727379
4.9591641 -32.446156 -1.7201782
1.0292468 -6.8136158 -1.8464152
1.0253904 -6.804172 -1.5886043
2.1305826 -14.154636 -2.782377
2.4403219 -16.250956 -2.602757
2.8510122 -19.031116 -2.362803
3.5003159 -23.393223 -2.0694258
4.8446994 -32.455368 -1.7197596
1.0077106 -6.8324571 -1.8505563
1.0007827 -6.8019257 -1.5872546
2.0774479 -14.136737 -2.777416
2.3726943 -16.185104 -2.5908678
2.7825527 -19.027205 -2.3610969
3.4197884 -23.413183 -2.0701232
4.7342577 -32.491844 -1.7208064
0.98275453 -6.8282843 -1.8484857
0.9748171 -6.7899466 -1.5836555
2.0227954 -14.106977 -2.7701652
2.3228936 -16.240219 -2.5983768
2.7049024 -18.958195 -2.3513472
3.3332615 -23.391447 -2.0671599
4.6151891 -32.468628 -1.7187129
0.95891398 -6.8316727 -1.8484857
0.95219117 -6.8010278 -1.5854551
1.9632089 -14.040067 -2.7556636
2.2705576 -16.27953 -2.6033826
2.6460946 -19.020607 -2.3579283
3.2529626 -23.412806 -2.0680313
4.5001783 -32.472668 -1.7180851
0.93348902 -6.823494 -1.8453798
0.92765558 -6.7985168 -1.5841054
1.9173687 -14.070178 -2.7602429
2.2078667 -16.244295 -2.5964997
2.5855522 -19.073004 -2.3632903
3.1642637 -23.372686 -2.0634992
4.3969593 -32.563396 -1.7220626
0.90864491 -6.8190513 -1.8433093
0.90468788 -6.8075094 -1.5854551
1.8728936 -14.111816 -2.7671123
2.1480372 -16.228405 -2.5927453
2.5122039 -19.030745 -2.3569531
3.0865667 -23.413218 -2.0661139
4.2770157 -32.531017 -1.7195504
0.88409084 -6.8164344 -1.8417563
0.87892056 -6.7951646 -1.5818559
1.8190937 -14.083221 -2.7602429
2.0863304 -16.196621 -2.5864878
2.448035 -19.057119 -2.3591471
2.9951897 -23.348755 -2.0594902
3.0128381 -23.551489 -1.2443398
2.9915814 -23.45035 -0.41264471
0.85932434 -6.8118119 -1.8396858
0.85373527 -6.7865906 -1.5791564
1.7704136 -14.09338 -2.7610061
2.0395997 -16.282206 -2.5990024
2.3874049 -19.112822 -2.3649967
2.9038012 -23.279984 -2.0525177
2.9256818 -23.522224 -1.2422464
2.9101977 -23.464621 -0.41271451
0.83648241 -6.8224406 -1.8417563
0.8302775 -6.7914629 -1.5796063
1.7231107 -14.115066 -2.7640593
1.9846628 -16.304914 -2.6015055
2.3235414 -19.144686 -2.3679214
2.8239615 -23.301844 -2.0535636
2.8413959 -23.514446 -1.2413043
2.8256414 -23.452797 -0.41233057
0.81037754 -6.8061357 -1.83658
0.80656642 -6.7943196 -1.5796063
1.6729045 -14.113196 -2.7625327
1.9293604 -16.325476 -2.6036956
2.2571661 -19.156624 -2.3684089
2.7549407 -23.416435 -2.0628021
2.7565079 -23.500416 -1.2400482
2.7409708 -23.438684 -0.4119117
0.78617197 -6.8050852 -1.8355448
0.78284395 -6.7970939 -1.5796063
1.6254257 -14.134552 -2.7655857
1.8559353 -16.188847 -2.5808561
2.1853261 -19.120995 -2.3630469
2.6709285 -23.406115 -2.061059
2.6710727 -23.480131 -1.2384782
2.6595905 -23.452082 -0.41198149
0.76047778 -6.7905087 -1.830886
0.75911349 -6.7997851 -1.5796063
1.5832534 -14.204528 -2.7781792
1.802906 -16.226637 -2.5858619
2.1135392 -19.083128 -2.3574409
2.5797954 -23.330139 -2.0535636
2.5860312 -23.461517 -1.2370129
2.5753083 -23.439358 -0.41159755
0.73801941 -6.8046455 -1.8339919
0.73453516 -6.7946439 -1.5778067
1.5315536 -14.19045 -2.774363
1.7407578 -16.181768 -2.5777273
2.0481853 -19.102232 -2.3589032
2.5023685 -23.376644 -2.0568755
2.5045455 -23.474373 -1.2372222
2.4928389 -23.442238 -0.41149285
0.7142629 -6.8071799 -1.8339919
0.71081281 -6.7971663 -1.5778067
1.4777291 -14.154704 -2.7663491
1.6969384 -16.309563 -2.5971253
1.9849714 -19.142832 -2.3630469
2.42014 -23.379292 -2.0563526
2.4221759 -23.479 -1.2370129
2.4093611 -23.434885 -0.41121358
0.68932754 -6.7981 -1.830886
0.68688667 -6.7976675 -1.5773568
1.4310708 -14.187123 -2.7716916
1.6415787 -16.331108 -2.5996282
1.9151726 -19.120016 -2.3593907
2.3365333 -23.367771 -2.0546095
2.3372359 -23.457499 -1.2354426
2.3253667 -23.421263 -0.41082963
0.66371155 -6.7812381 -1.8257096
0.66315401 -6.800024 -1.5773568
1.3786861 -14.162721 -2.7659674
1.5834161 -16.324944 -2.5977511
1.8497579 -19.140415 -2.3610969
2.2591586 -23.419416 -2.0584443
2.2547686 -23.459551 -1.2351286
2.2430272 -23.423265 -0.41072494
0.64076221 -6.7912064 -1.8277801
0.63923079 -6.8003564 -1.5769069
1.3231882 -14.102943 -2.7533739
1.5247687 -16.31267 -2.5949352
1.7829313 -19.146755 -2.3610969
2.1750007 -23.401367 -2.0561783
2.1717575 -23.455345 -1.2345006
2.1601512 -23.419004 -0.41051552
0.61775225 -6.8010979 -1.8298507
0.61373305 -6.7831388 -1.5724078
1.2901956 -14.287364 -2.7884827
1.4667553 -16.306087 -2.5930579
1.7226423 -19.226019 -2.3701153
2.0934784 -23.410801 -2.0563526
2.0902264 -23.466761 -1.23471
2.0775037 -23.416445 -0.41034099
0.59299976 -6.7916656 -1.8267449
0.59123331 -6.7988296 -1.5755571
1.2493116 -14.395443 -2.8087084
1.4086362 -16.297333 -2.5908678
1.6519445 -19.19038 -2.3649967
2.0124283 -23.425909 -2.0570498
2.0074449 -23.463966 -1.2341866
1.9947361 -23.411598 -0.41013157
0.56912732 -6.791769 -1.8262272
0.56733596 -6.7989097 -1.5751073
1.1884664 -14.272546 -2.7839034
1.349782 -16.278526 -2.5871134
1.5846204 -19.192074 -2.3645091
1.9201733 -23.305708 -2.0458939
1.9240603 -23.452915 -1.2332445
1.9139754 -23.430376 -0.41034099
0.5447976 -6.7860117 -1.8241568
0.54406554 -6.8066769 -1.576457
1.1386383 -14.276608 -2.7839034
1.2932636 -16.287077 -2.5877395
1.516681 -19.185614 -2.3630469
1.8422556 -23.355965 -2.0497289
1.8756449 -23.88559 -1.2556443
0.52184588 -6.7975035 -1.8267449
0.52000529 -6.8046479 -1.5755571
1.086259 -14.247215 -2.777416
1.2365521 -16.293461 -2.588052
1.4479043 -19.167038 -2.360122
1.7587723 -23.336424 -2.0474627
1.8391668 -24.517374 -1.2885114
1.8304627 -24.516018 -0.42911977
0.49783328 -6.7954302 -1.8257096
0.4951157 -6.7908735 -1.5719579
1.0360943 -14.245047 -2.7762711
1.182664 -16.339054 -2.5946224
1.380564 -19.166037 -2.3593907
1.6831563 -23.423901 -2.0546095
2.3347776 -32.651707 -1.7155728
0.47437841 -6.8009806 -1.8267449
0.470869 -6.7847838 -1.5701584
0.99056441 -14.309292 -2.7881012
1.1252172 -16.33717 -2.5936837
1.3084961 -19.095482 -2.3501287
1.6002939 -23.413731 -2.0532148
2.2232256 -32.695526 -1.7174569
0.45050779 -6.8006673 -1.8262272
0.44846398 -6.8058314 -1.5746574
0.93867975 -14.283277 -2.782377
1.0714039 -16.390278 -2.6015055
1.24312 -19.119743 -2.352566
1.5103034 -23.291929 -2.0420589
2.1070259 -32.6712 -1.715782
0.42579922 -6.7867737 -1.8220862
0.42409754 -6.7976298 -1.5724078
0.88394123 -14.208087 -2.7671123
1.0074757 -16.285479 -2.5842977
1.1757643 -19.114059 -2.3513472
1.4294803 -23.305014 -2.0427563
1.9956472 -32.722214 -1.7180851
0.40199107 -6.7862902 -1.8215685
0.40082562 -6.8068504 -1.5742074
0.8296206 -14.130732 -2.751466
0.95303905 -16.330309 -2.5908678
1.1094958 -19.125971 -2.3523221
1.353758 -23.407324 -2.0512974
1.8807243 -32.717014 -1.7174569
0.37840819 -6.7895813 -1.8220862
0.37695408 -6.8062625 -1.5737575
0.78061604 -14.139422 -2.7526107
0.89602935 -16.333536 -2.5908678
1.0459678 -19.189194 -2.3596344
1.2700967 -23.376099 -2.0481601
1.7660778 -32.715405 -1.7170383
0.35450491 -6.7870021 -1.8210509
0.35238639 -6.7919683 -1.5701584
0.73044235 -14.126376 -2.7495577
0.83880812 -16.332621 -2.5902421
0.97827035 -19.178852 -2.3579283
1.1881899 -23.37442 -2.047637
1.6544862 -32.773232 -1.7197596
0.33062264 -6.7843394 -1.8200157
0.32905233 -6.8009429 -1.5719579
0.67857647 -14.075893 -2.7392542
0.77905256 -16.278227 -2.5811689
0.91131943 -19.18215 -2.3579283
1.1070582 -23.388376 -2.0485086
1.5378256 -32.730927 -1.7172475
0.30641571 -6.7738733 -1.8169098
0.30504826 -6.7962093 -1.5706083
0.63163185 -14.127209 -2.7487946
0.71986216 -16.227566 -2.5727215
0.84662437 -19.236774 -2.3642654
1.0246276 -23.374184 -2.0469398
1.425476 -32.779995 -1.7195504
0.28325096 -6.7864823 -1.8200157
0.28267196 -6.8010778 -1.5715082
0.5839296 -14.168559 -2.756427
0.6633721 -16.16473 -2.562397
0.78226268 -19.225592 -2.3625593
0.9436748 -23.393543 -2.0483341
1.3174056 -32.800503 -1.7203877
0.26089349 -6.791245 -1.8210509
0.25855923 -6.7922869 -1.5692586
0.5379076 -14.195922 -2.7613881
0.61087167 -16.271566 -2.5789788
0.71360046 -19.186548 -2.3574409
0.86667973 -23.412474 -2.0497289
1.199535 -32.713093 -1.7155728
0.23745553 -6.7998371 -1.8231214
0.23525193 -6.8048329 -1.5719579
0.48922998 -14.22322 -2.7663491
0.55467421 -16.29137 -2.5817947
0.64133817 -19.032188 -2.3381853
0.78688484 -23.473101 -2.0547836
1.0863962 -32.749016 -1.7172475
0.21347609 -6.7929006 -1.8210509
0.21173914 -6.8134041 -1.5737575
0.43679059 -14.134575 -2.7487946
0.49738061 -16.279387 -2.5796049
0.57795763 -19.135504 -2.350616
0.70321155 -23.417953 -2.0497289
0.97172171 -32.740635 -1.7166196
0.18987003 -6.7974668 -1.8220862
0.18817016 -6.8218932 -1.5755571
0.38981369 -14.222364 -2.7655857
0.44028425 -16.271149 -2.5780404
0.51264232 -19.192968 -2.3574409
0.61961299 -23.350557 -2.043628
0.85826528 -32.775772 -1.7182943
0.16604751 -6.7942257 -1.8210509
0.16407438 -6.8108196 -1.5728577
0.33753869 -14.113727 -2.7442153
0.38474077 -16.325907 -2.5864878
0.44596523 -19.208534 -2.3591471
0.53338945 -23.324785 -2.0411875
0.74439412 -32.802528 -1.7195504
0.14122444 -6.7986517 -1.8220862
0.14013848 -6.8035574 -1.5710582
0.28684017 -14.165903 -2.7541373
0.32411447 -16.287708 -2.5802305
0.37797439 -19.16234 -2.3532972
0.4535079 -23.406185 -2.0481601
0.62348121 -32.769089 -1.7176661
0.11752585 -6.8010345 -1.8226038
0.1153001 -6.8098707 -1.5724078
0.23679774 -14.131485 -2.747268
0.26699996 -16.27294 -2.5777273
0.30802491 -19.181459 -2.3554909
0.37183607 -23.409616 -2.0483341
0.50964558 -32.807014 -1.7195504
0.09365093 -6.7917452 -1.8200157
0.091529138 -6.8102317 -1.5724078
0.18626991 -14.041924 -2.7297137
0.2095844 -16.226368 -2.5702186
0.24126627 -19.198298 -2.3574409
0.29006898 -23.406788 -2.0479856
0.39498332 -32.796608 -1.7189224
0.07000304 -6.7978253 -1.8215685
0.067774817 -6.8124585 -1.5728577
0.13715866 -14.032672 -2.7278056
0.15327527 -16.262556 -2.5758502
0.17421593 -19.195051 -2.3569531
0.20868084 -23.443518 -2.0511231
0.28039598 -32.785805 -1.7182943
0.046247281 -6.7941651 -1.8205333
0.045274541 -6.8262868 -1.5760071
0.088532008 -14.09 -2.7388725
0.09938141 -16.2689 -2.5767887
0.1106069 -19.203466 -2.3579283
0.12674075 -23.424181 -2.0493801
0.17183883 -32.818512 -1.719969
0.023751032 -6.8039403 -1.8231214
0.02140303 -6.8127618 -1.5728577
0.041837662 -14.100031 -2.7407806
0.04251565 -16.239517 -2.5720959
0.043289315 -19.078672 -2.3425727
0.049111854 -23.448381 -2.0514719
0.057251006 -32.802937 -1.7191317
-2.9732703e-07 -6.8020496 -1.8226038
-0.0011884711 -6.8127956 -1.5728577
-0.0073428713 -14.023524 -2.7258973
-0.011336006 -16.237593 -2.5717828
-0.020018315 -19.11643 -2.3472037
-0.032736436 -23.44841 -2.0514719
-0.051525116 -32.802944 -1.7191317
-0.023763491 -6.8078041 -1.8241568
-0.026159538 -6.8127451 -1.5728577
-0.056182452 -13.995928 -2.7205548
-0.070936158 -16.257196 -2.5749116
-0.09037371 -19.177765 -2.3547597
-0.1144828 -23.426237 -2.0495543
-0.17164956 -32.782562 -1.7180851
-0.047513723 -6.805748 -1.8236392
-0.049939677 -6.8126125 -1.5728577
-0.10531735 -14.032948 -2.7278056
-0.12758936 -16.244999 -2.5730343
-0.15718633 -19.161453 -2.3528099
-0.19603582 -23.399794 -2.0472884
-0.28625622 -32.801735 -1.7191317
-0.071290344 -6.8074722 -1.8241568
-0.073719203 -6.812397 -1.5728577
-0.15447392 -14.0482 -2.7308583
-0.18413973 -16.230625 -2.5708442
-0.22339641 -19.103222 -2.3457413
-0.27788413 -23.412912 -2.0485086
-0.40040928 -32.772575 -1.7176661
-0.095105752 -6.8110456 -1.825192
-0.097360015 -6.8023553 -1.5706083
-0.20336686 -14.03776 -2.7289505
-0.24158382 -16.283216 -2.5792918
-0.29025912 -19.114237 -2.3472037
-0.36015737 -23.447659 -2.0516462
-0.5152486 -32.798939 -1.7191317
-0.11888035 -6.8106723 -1.825192
-0.12124222 -6.8097677 -1.5724078
-0.25321561 -14.084074 -2.7381091
-0.29726157 -16.219072 -2.5692801
-0.35686782 -19.107153 -2.3464727
-0.44200063 -23.446259 -2.0516462
-0.62942529 -32.780964 -1.7182943
-0.14297715 -6.8256669 -1.8293331
-0.14526196 -6.8209929 -1.5751073
-0.30279678 -14.102733 -2.7419255
-0.35400647 -16.223858 -2.5702186
-0.42347229 -19.10182 -2.3459849
-0.52286494 -23.400751 -2.0478113
-0.74502355 -32.830482 -1.7210158
-0.16670808 -6.8212633 -1.8282977
-0.16911843 -6.8223925 -1.5755571
-0.35104319 -14.062337 -2.734293
-0.40963498 -16.183029 -2.5639613
-0.48979381 -19.086334 -2.3442788
-0.60413182 -23.382851 -2.0464168
-0.86025089 -32.851639 -1.7222718
-0.19030215 -6.8129153 -1.8262272
-0.19260083 -6.8100724 -1.5728577
-0.40012816 -14.061026 -2.734293
-0.4668048 -16.205196 -2.5677156
-0.55664426 -19.092447 -2.3452539
-0.68586981 -23.384581 -2.0467653
-0.97384977 -32.812504 -1.7203877
-0.2146887 -6.8315187 -1.8314036
-0.21624848 -6.8054633 -1.5719579
-0.45033509 -14.094864 -2.7411623
-0.52375174 -16.215313 -2.5695927
-0.62237728 -19.062611 -2.3418415
-0.76657581 -23.354166 -2.0443251
-1.0874586 -32.780956 -1.7189224
-0.23920824 -6.8500347 -1.83658
-0.24062024 -6.8221946 -1.5760071
-0.49744666 -14.034346 -2.7297137
-0.58034909 -16.213387 -2.5695927
-0.68540376 -18.963114 -2.3298981
-0.84772873 -23.341394 -2.0434535
-1.2020224 -32.780956 -1.7191317
-0.26282141 -6.8414359 -1.8345095
-0.26420644 -6.8154716 -1.5746574
-0.5461275 -14.024676 -2.7281871
-0.63608825 -16.18955 -2.5661514
-0.75434357 -19.030031 -2.3384292
-0.9340387 -23.45973 -2.0540864
-1.3151563 -32.744625 -1.7174569
-0.28653926 -6.8366165 -1.8334742
-0.28848913 -6.82619 -1.5773568
-0.5967446 -14.061914 -2.7358193
-0.69352567 -16.208941 -2.5695927
-0.81957126 -18.999517 -2.335017
-1.0060925 -23.229408 -2.034215
-1.4304987 -32.763783 -1.7187129
-0.31110224 -6.8510137 -1.8376153
-0.3123146 -6.8251414 -1.5773568
-0.64438349 -14.028366 -2.7297137
-0.74754441 -16.151169 -2.5608325
-0.88385081 -18.952915 -2.3296547
-1.0661187 -22.775967 -1.9948206
-1.5456066 -32.774548 -1.7195504
-0.33482629 -6.8460269 -1.83658
-0.33556184 -6.8123312 -1.5746574
-0.69334811 -14.026031 -2.7297137
-0.8018558 -16.107029 -2.5542624
-0.95099562 -18.969542 -2.332092
-1.1426126 -22.712412 -1.9895912
-1.6595986 -32.760975 -1.7191317
-0.35973257 -6.8641086 -1.8417563
-0.36005813 -6.8247404 -1.5778067
-0.74157786 -14.009803 -2.7270424
-0.85933471 -16.127804 -2.5580168
-1.0158266 -18.940336 -2.3289232
-1.22242 -22.718233 -1.9904628
-1.7720022 -32.719082 -1.7172475
-0.38433701 -6.8743839 -1.8448622
-0.38398838 -6.8253875 -1.5782566
-0.78926033 -13.985567 -2.7228444
-0.91842628 -16.174011 -2.5658383
-1.0861224 -19.010004 -2.3379416
-1.3036525 -22.747643 -1.9934262
-1.8868891 -32.724659 -1.7178756
-0.40741518 -6.8575726 -1.8407211
-0.40885755 -6.8415132 -1.5823058
-0.83830959 -13.986648 -2.7236078
-0.97012395 -16.091833 -2.5533235
-1.1492296 -18.952599 -2.3313608
-1.3822027 -22.729033 -1.992206
-1.3985355 -22.865833 -1.2005869
-0.43207729 -6.8676777 -1.843827
-0.43199751 -6.8283749 -1.5796063
-0.88787138 -13.995391 -2.7258973
-1.030188 -16.149462 -2.5630226
-1.2147447 -18.938566 -2.330142
-1.4625571 -22.739975 -1.9936004
-1.4832065 -22.812351 -0.39903182
-0.45707175 -6.8815484 -1.8479681
-1.7051952 -25.605375 0.44793347
-0.45609021 -6.8307147 -1.5805061
-0.93724406 -14.000042 -2.7274239
-1.0807164 -16.059048 -2.5492566
-1.2801735 -18.924307 -2.3289232
-1.5427324 -22.746658 -1.9946463
-1.7711362 -25.979965 -1.3647126
-1.5640559 -22.824991 -0.39934599
-0.48189881 -6.8914738 -1.8510739
-1.7856122 -25.471601 0.44569957
-0.47952145 -6.8232493 -1.5791564
-0.98500425 -13.981019 -2.724371
-1.1383014 -16.076853 -2.5526979
-1.3445361 -18.895962 -2.3259985
-1.6239671 -22.766968 -1.9969124
-1.6367617 -22.833996 -1.1997496
-0.47722051 -6.6090441 1.7754986
-0.50623393 -6.8936028 -1.8521091
-1.8645349 -25.329601 0.44332603
-0.50477034 -6.8409681 -1.5836555
-1.034379 -13.985326 -2.7258973
-1.1920713 -16.041262 -2.5476921
-1.4101896 -18.887194 -2.325511
-0.49932352 -6.6719432 1.0596871
-1.7600815 -23.518147 -2.0633252
-0.49257097 -6.5663066 1.2799468
-0.49354684 -6.5486827 1.5161701
-0.49766147 -6.5726643 1.7661812
-0.5308879 -6.899498 -1.8541797
-0.52834564 -6.8352785 -1.5827556
-1.0825861 -13.973801 -2.724371
-0.50868613 -6.5511808 0.57487923
-1.2518888 -16.086239 -2.5555136
-0.511572 -6.5586753 0.80775005
-0.51335216 -6.5519986 1.040915
-0.51487327 -6.5567179 1.2784203
-0.51962739 -6.6024952 -0.34709209
-0.51701605 -6.5546908 1.5179697
-0.51784086 -6.5505629 -0.11469722
-0.51816022 -6.5400739 1.757899
-0.8168034 -10.151916 -2.7289882
-0.52925503 -6.5636945 0.11494155
-0.55188829 -6.8295083 -1.5818559
-0.53138208 -6.5614843 0.34499866
-0.53219658 -6.5573087 0.57557648
-0.53413981 -6.5528922 0.8072626
-0.53496093 -6.548842 -0.80677515
-0.53718698 -6.5619798 1.0427923
-0.5366115 -6.5549498 -0.5754022
-0.53807777 -6.5587945 1.2791836
-0.53841639 -6.5488868 -0.34437063
-0.54085332 -6.5644994 1.5206691
-0.54070365 -6.5487156 -0.11469722
-0.54321659 -6.5651789 1.7651459
-0.55091327 -6.5606608 -1.7641107
-0.55182821 -6.5578213 0.11487174
-0.55198163 -6.5459714 -1.5166199
-0.55327308 -6.5476484 0.34437063
-0.5531103 -6.545722 -1.2768939
-0.55609065 -6.5673232 0.57662237
-0.5548169 -6.5387058 -1.0393507
-0.55684322 -6.5490103 0.80701888
-0.55815387 -6.5508909 -0.8072626
-0.56109697 -6.5718741 1.0446695
-0.55948871 -6.5530372 -0.5754022
-0.56180662 -6.5666561 1.2810917
-0.5605908 -6.5390077 -0.34395194
-0.56376386 -6.562571 1.5206691
-0.56458879 -6.5587416 -0.11490664
-0.56613022 -6.5632429 1.7651459
-0.57364345 -6.5567727 -1.763593
-0.57523918 -6.561831 0.11497645
-0.57516837 -6.5478873 -1.5175198
-0.5764764 -6.5496564 0.34457996
-0.57698953 -6.5554862 -1.2791836
-0.57866168 -6.5613728 0.5762738
-0.57850742 -6.5465674 -1.040915
-0.58004969 -6.550981 0.80750632
-0.58049124 -6.5429707 -0.80653143
-0.58298439 -6.5580697 1.0427923
-0.5835948 -6.5649362 -0.57662237
-0.58472455 -6.5646548 1.2810917
-0.58429992 -6.546958 -0.3444753
-0.58562762 -6.5489173 1.5179697
-0.5873006 -6.55474 -0.11487174
-0.59007335 -6.5727715 1.7682518
-0.59705204 -6.5605021 -1.7651459
-0.59868574 -6.5657578 0.11508117
-0.59784502 -6.5438995 -1.5170699
-0.60079134 -6.5635157 0.34541735
-0.59897351 -6.5436559 -1.2772754
-0.60265356 -6.5712175 0.57731962
-0.60244036 -6.5563107 -1.0427923
-0.60382265 -6.5588002 0.808725
-0.60442108 -6.5527649 -0.80799377
-0.60660005 -6.5638623 1.0440438
-0.60595727 -6.5569072 -0.57609946
-0.60836011 -6.5703936 1.282618
-0.60788763 -6.5528331 -0.34489399
-0.61786133 -6.6477327 1.5413646
-0.60906583 -6.5407028 -0.11466231
-0.61940438 -6.552608 -1.763593
-0.62160105 -6.5636277 0.11508117
-0.62141949 -6.5495329 -1.5188695
-0.62445557 -6.5693316 0.34583604
-0.62218404 -6.5454345 -1.2780387
-0.62520933 -6.5651069 0.57697099
-0.62532187 -6.5541682 -1.0427923
-0.63162535 -6.6080308 0.81506222
-0.62766945 -6.5545669 -0.80848128
-0.62807977 -6.5468187 -0.5754022
-0.63133204 -6.5566354 -0.34520799
-0.63343179 -6.554461 -0.11494155
-0.64227289 -6.550406 -1.763593
-2.2779679 -23.190842 0.40674579
-0.64446878 -6.549263 -1.5193194
-0.64618307 -6.5549455 -1.2803285
-0.64761394 -6.5460482 -1.0418537
-0.65093708 -6.5562873 -0.80896878
-0.65290153 -6.5644126 -0.57714534
-2.4609444 -24.655483 -1.2985598
-5.5936599 -55.844009 -0.97963852
-0.66650021 -6.5615788 -1.7672166
-2.3589058 -23.182749 0.40674579
-0.67503303 -6.6225829 -1.5368656
-1.4346393 -14.0506 -2.7453599
-1.644538 -16.05085 -2.5555136
-1.9303014 -18.775291 -2.3174677
-2.4356549 -23.650095 -2.0800588
-2.5383711 -24.563301 -1.2941636
-2.4408593 -23.184317 0.40692031
-0.72246611 -6.8508072 -1.5904039
-1.4756349 -13.969362 -2.7304769
-1.6972233 -16.01358 -2.5505078
-1.9872218 -18.687508 -2.3074741
-2.5152376 -23.613712 -2.0776186
-2.6249442 -24.562237 -1.2945824
-1.1130872 -10.246146 -2.7615993
-2.5237203 -23.193548 0.40723446
-0.74743217 -6.8579302 -1.5926535
-1.5260912 -13.97974 -2.7335298
-1.7477371 -15.958469 -2.5426862
-2.0585124 -18.735706 -2.3142991
-2.5919864 -23.553295 -2.0730865
-2.7093523 -24.541012 -1.2939543
-1.125805 -10.036778 -2.706212
-2.6044426 -23.182608 0.40719953
-0.77310884 -6.8707714 -1.5962527
-1.5737816 -13.964575 -2.7316217
-1.8016549 -15.936567 -2.5401831
-2.1245708 -18.734324 -2.3150301
-2.6856523 -23.645069 -2.0819762
-2.7954526 -24.535374 -1.2941636
-1.1632758 -10.053897 -2.7119062
-2.68558 -23.175364 0.40723446
-0.79641294 -6.8622236 -1.594903
-1.6173043 -13.914143 -2.7228444
-1.8593342 -15.94784 -2.542999
-2.1892598 -18.720879 -2.3142991
-2.7827775 -23.76022 -2.092958
-2.88201 -24.533401 -1.2945824
-1.1933302 -10.007574 -2.7005181
-2.7678814 -23.177761 0.40744388
-0.82036275 -6.8594012 -1.594903
-1.6560565 -13.826541 -2.7068167
-1.9109845 -15.907911 -2.5376801
-2.2500834 -18.675676 -2.3096681
-2.8625939 -23.724644 -2.0906918
-2.9683535 -24.529139 -1.2948964
-1.2343773 -10.053201 -2.7139766
-2.8487706 -23.167957 0.40744388
-0.84596813 -6.8700361 -1.5980524
-1.7148845 -13.906409 -2.7236078
-1.9611665 -15.858015 -2.5307972
-2.3184369 -18.693319 -2.3128366
-2.9340928 -23.623558 -2.0826735
-3.0556836 -24.532501 -1.295629
-1.2462183 -9.8648357 -2.6642835
-2.9293745 -23.15589 0.40740898
-0.86921012 -6.8612404 -1.5967026
-1.7683568 -13.939291 -2.7312403
-2.0274806 -15.937294 -2.5445633
-2.3773928 -18.635883 -2.3067431
-3.0130053 -23.585503 -2.0802333
-3.1438353 -24.5415 -1.2966758
-1.2803968 -9.8585091 -2.6637659
-3.0104413 -23.147505 0.40744388
-0.89541942 -6.8755565 -1.6007516
-1.8170037 -13.933034 -2.7312403
-2.0733652 -15.855688 -2.5326743
-2.4491425 -18.678646 -2.3130803
-3.0992041 -23.604473 -2.0828478
-3.2323532 -24.552156 -1.2978271
-1.3086699 -9.8080225 -2.6513424
-3.0850725 -23.121538 0.40716466
-0.91666651 -6.8609605 -1.5980524
-1.8651068 -13.922714 -2.7304769
-2.1277723 -15.862431 -2.5348644
-2.5004838 -18.591726 -2.3033309
-3.1823795 -23.599436 -2.0833709
-3.313484 -24.539322 -1.2977225
-7.0336995 -51.95406 -0.91513437
-1.3380455 -9.7806606 -2.6451306
-3.1690176 -23.134403 0.4075835
-0.94087422 -6.8596492 -1.5985022
-1.9174106 -13.961188 -2.7392542
-2.190942 -15.911656 -2.5439377
-2.5821974 -18.704803 -2.3184426
-3.2589819 -23.57691 -2.082325
-3.3996708 -24.531565 -1.2979318
-1.3600935 -9.6898403 -2.6218369
-3.2462733 -23.127728 0.40765333
-0.96660018 -6.8777189 -1.6034511
-1.9644877 -13.942745 -2.7369645
-2.2439713 -15.906259 -2.5442502
-2.6311436 -18.603758 -2.3069868
-3.4832461 -24.535976 -1.2987692
-1.3985412 -9.7292585 -2.6337428
-3.3264127 -23.112297 0.4075835
-0.99254769 -6.8878045 -1.6066004
-2.0111804 -13.922202 -2.734293
-2.3006129 -15.906151 -2.5455019
-2.7086005 -18.680901 -2.3177114
-3.4240735 -23.557528 -2.0826735
-3.5794899 -24.566523 -1.301072
-1.4085407 -9.5501499 -2.5866377
-3.4131491 -23.113798 0.40782785
-1.0175005 -6.8821931 -1.6061505
-2.0593164 -13.895316 -2.7304769
-2.3533859 -15.860486 -2.5395575
-2.7770514 -18.670847 -2.3177114
-3.5030484 -23.495554 -2.0783157
-4.8426867 -32.403164 -1.7170383
-1.109877 -7.3387227 -1.9887657
-3.4969449 -23.0952 0.40772313
-1.045347 -6.8957577 -1.6101997
-2.1013253 -13.845342 -2.7220812
-2.4210107 -15.914247 -2.5495691
-2.851151 -18.69783 -2.3223424
-3.5976708 -23.565903 -2.0856369
-4.9569707 -32.393959 -1.7174569
-7.0064616 -45.680767 -0.80668515
-1.1378516 -7.3500762 -1.9929067
-3.5775387 -23.082853 0.40772313
-1.0691127 -6.890141 -1.6097497
-2.150245 -13.841802 -2.7228444
-2.4792829 -15.923265 -2.5523849
-2.9115019 -18.656382 -2.3184426
-3.6599193 -23.425251 -2.0743067
-5.0675459 -32.360676 -1.7166196
-6.8554969 -43.678543 -0.77174538
-1.1592704 -7.3193464 -1.9856598
-3.6568363 -23.062325 0.4075835
-1.0956016 -6.9017644 -1.613349
-2.2059443 -13.880746 -2.7320035
-2.5401311 -15.947677 -2.5577037
-2.96085 -18.568209 -2.3086929
-3.7438653 -23.426104 -2.0755267
-5.1899519 -32.401955 -1.7197596
-6.9999876 -43.653595 -0.77171052
-1.1647148 -7.1991315 -1.9540838
-3.7355325 -23.06389 0.40782785
-1.1206661 -6.9115582 -1.6164982
-2.2481883 -13.8501 -2.7274239
-2.5952225 -15.952815 -2.5598938
-3.0287907 -18.597475 -2.3135679
-3.808691 -23.334904 -2.0685544
-5.2954392 -32.372738 -1.7191317
-6.8234868 -41.668575 -0.73701513
-3.8110168 -23.045456 0.40772313
-1.1458079 -6.9212623 -1.6196476
-2.2953873 -13.850315 -2.7289505
-2.6503756 -15.957762 -2.562084
-3.0950022 -18.614746 -2.3169801
-3.8821228 -23.298563 -2.0664625
-5.4040751 -32.362881 -1.7195504
-6.9477816 -41.562878 -0.73554915
-3.8847528 -23.016918 0.40744388
-0.92688578 -5.4859018 -1.2844704
-2.3521092 -13.906508 -2.7415438
-2.7085593 -15.980045 -2.5670898
-3.1510692 -18.571108 -2.3128366
-3.9553556 -23.26199 -2.0643709
-5.510694 -32.340839 -1.719341
-7.0899429 -41.565235 -0.73600286
-3.9684112 -22.998581 0.40737408
-2.4003873 -13.882317 -2.7384908
-2.770484 -15.989475 -2.5702186
-3.224731 -18.572563 -2.3145428
-4.0436182 -23.240742 -2.0638478
-4.5531111 -26.142042 -1.3906711
-7.2694306 -41.651962 -0.73802739
-4.0486674 -22.984591 0.40737408
-2.4574013 -13.908225 -2.7453599
-2.8115065 -15.880013 -2.5542624
-3.2954311 -18.594421 -2.3186862
-4.1309905 -23.261797 -2.0669856
-4.5803146 -25.739771 -1.3701555
-0.94533432 -5.2592158 -1.431787
-4.1314645 -22.961725 0.40723446
-0.98377591 -5.4621258 -1.2813212
-2.5003622 -13.868649 -2.7392542
-2.8679752 -15.875935 -2.5552011
-3.3370409 -18.435717 -2.300406
-4.2025743 -23.194302 -2.0622792
-4.6737061 -25.743275 -1.3712021
-0.95846075 -5.2273817 -1.4240224
-4.2119551 -22.949129 0.40726936
-1.003188 -5.4605751 -1.2817712
-2.5537276 -13.886869 -2.7445967
-2.9255211 -15.877481 -2.5570781
-3.4082239 -18.461048 -2.305037
-4.2806158 -23.16382 -2.0608847
-4.7624459 -25.720915 -1.3708882
-4.773231 -25.728996 -0.45676437
-0.97599196 -5.2202063 -1.4229871
-4.2865167 -22.904804 0.40674579
-1.0179372 -5.4340553 -1.2763723
-2.6025481 -13.8798 -2.7449784
-2.9714437 -15.816696 -2.5489435
-3.4686029 -18.427578 -2.3023558
-4.3562827 -23.121326 -2.0584443
-4.8610883 -25.751236 -1.3734002
-7.4151373 -39.243507 -0.69711888
-0.99348485 -5.2129726 -1.4219519
-1.0341253 -5.4210787 -1.2741227
-2.6097047 -13.654655 -2.7022371
-3.0179372 -15.775713 -2.5439377
-3.5390344 -18.464714 -2.3084493
-4.4268179 -23.053148 -2.0537379
-4.9494729 -25.750666 -1.3742377
-7.5278778 -39.091713 -0.69488502
-1.0115017 -5.2134418 -1.4229871
-1.0578768 -5.4423037 -1.2799715
-2.7059619 -13.908014 -2.7541373
-3.0828154 -15.815494 -2.5520723
-3.5871067 -18.368471 -2.2979686
-4.5003762 -23.002359 -2.0506003
-5.0458555 -25.766552 -1.3760171
-7.6604342 -39.045578 -0.69453597
-1.0253545 -5.1831679 -1.4157403
-1.0851943 -5.4806337 -1.2898693
-2.7275069 -13.749722 -2.7247527
-3.1357558 -15.7789 -2.5480049
-3.6546888 -18.37336 -2.3001621
-4.5821996 -22.994326 -2.0512974
-1.041152 -5.1681943 -1.4126344
-1.1083589 -5.4919014 -1.2934686
-2.7712083 -13.718948 -2.7205548
-3.2021761 -15.824005 -2.5570781
-3.7322607 -18.410425 -2.3064992
-4.6505523 -22.919613 -2.0460682
-4.6118369 -22.647686 -0.40342984
-1.0591855 -5.1645284 -1.4126344
-1.1345818 -5.5223589 -1.3015668
-2.818289 -13.705346 -2.7197917
-3.2681544 -15.864972 -2.5655258
-3.7860699 -18.346739 -2.3001621
-4.6962705 -22.737387 -2.0312517
-7.4247036 -35.821053 -0.63854867
-1.0779969 -5.1645818 -1.4136697
-1.1534529 -5.5164576 -1.3011169
-2.8677216 -13.703112 -2.721318
-3.2874415 -15.681397 -2.5376801
-3.8602893 -18.381981 -2.3062558
-4.7874947 -22.777397 -2.0363066
-1.0972216 -5.1664572 -1.4152226
-1.1751344 -5.5238342 -1.3038163
-2.9237125 -13.731421 -2.7289505
-3.3722396 -15.810856 -2.5605195
-3.9277487 -18.383923 -2.3082056
-4.8619752 -22.737169 -2.034215
-6.8788805 -32.114464 -1.721225
-1.1160651 -5.1663718 -1.4162579
-1.196882 -5.531126 -1.3065157
-2.9691353 -13.70962 -2.7266607
-3.427408 -15.798989 -2.5605195
-3.9851506 -18.339064 -2.3043058
-4.91887 -22.616875 -2.0249765
-6.9900904 -32.086357 -1.7210158
-1.1332636 -5.1586709 -1.4152226
-1.2178575 -5.5345278 -1.3083154
-3.0414619 -13.810376 -2.7487946
-3.4931748 -15.835155 -2.5683415
-4.0345821 -18.259136 -2.2960186
-5.0094066 -22.652092 -2.0296829
-7.1089616 -32.092957 -1.7226905
-1.1529477 -5.1622252 -1.4172932
-1.19888 -5.3590865 -1.2678242
-3.0999436 -13.845654 -2.7579534
-3.541945 -15.793951 -2.5636482
-4.1270065 -18.372772 -2.3121052
-5.080142 -22.597536 -2.026371
-7.2191854 -32.060158 -1.7222718
-1.1743822 -5.1732407 -1.4214342
-1.2049872 -5.3037729 -1.2556767
-3.1513064 -13.848149 -2.7606246
-3.5925446 -15.774416 -2.562397
-4.1667194 -18.266088 -2.300406
-5.1758547 -22.653471 -2.0329947
-7.3361478 -32.082767 -1.7247839
-1.1950017 -5.1843777 -1.4255754
-1.2182331 -5.2767487 -1.2502779
-3.185277 -13.785976 -2.7503209
-3.6489222 -15.767553 -2.5633357
-4.2286596 -18.243696 -2.2994308
-5.2517452 -22.621681 -2.0317745
-7.4363384 -32.006386 -1.7220626
-1.2175214 -5.1950102 -1.4297165
-1.2370902 -5.2743621 -1.2507279
-3.2330918 -13.762741 -2.7480311
-3.7139275 -15.784838 -2.5683415
-4.2955041 -18.24235 -2.301137
-5.3114681 -22.521767 -2.0244534
-7.5581932 -31.998352 -1.7231091
-1.2374382 -5.1982455 -1.431787
-1.2591245 -5.2811656 -1.2534273
-3.2628858 -13.674986 -2.7327666
-3.7699232 -15.775622 -2.5689671
-4.3461628 -18.158915 -2.2926061
-5.397944 -22.536026 -2.0274169
-7.6707706 -31.975657 -1.7233186
-1.2596608 -5.2107944 -1.4364457
-1.3018335 -5.3811364 -1.2781719
-3.3166094 -13.688318 -2.7377276
-3.8431642 -15.849422 -2.5830462
-4.4115081 -18.165623 -2.2952874
-5.4803419 -22.532536 -2.0288115
-7.7833781 -31.977213 -1.7247839
-1.2801548 -5.2197227 -1.4400692
-1.7487267 -7.1195416 -1.6925317
-3.3512051 -13.633395 -2.7289505
-3.8842983 -15.778367 -2.5736601
-4.4896245 -18.209862 -2.3028433
-5.5392828 -22.450405 -2.0230591
-7.9054928 -31.992502 -1.7270867
-1.3077008 -5.2527146 -1.4504219
-1.7801684 -7.1398659 -1.6988304
-3.3883183 -13.579707 -2.7205548
-3.9398305 -15.766627 -2.5739729
-4.5555692 -18.203707 -2.3040619
-5.630682 -22.483114 -2.0277655
-8.0307217 -32.018955 -1.7300174
-1.3302883 -5.2649751 -1.4550807
-1.8055584 -7.1354976 -1.6992803
-3.4299169 -13.544959 -2.7159753
-3.9948428 -15.752779 -2.5739729
-4.5897665 -18.072254 -2.2894378
-5.7091293 -22.463324 -2.0277655
-7.1896687 -28.247383 -1.527582
-1.8343313 -7.1442513 -1.7028794
-3.5103984 -13.662206 -2.7419255
-4.0468526 -15.72726 -2.5720959
-4.6756086 -18.144547 -2.3006496
-5.7894964 -22.450974 -2.0284626
-7.2952151 -28.249187 -1.5290475
-2.2954535 -8.8186932 -2.4416988
-1.8654205 -7.1563373 -1.7073785
-3.5688734 -13.681541 -2.7484128
-4.1029711 -15.706588 -2.5711572
-4.7440886 -18.134972 -2.3016248
-5.8616538 -22.391054 -2.0249765
-2.3153734 -8.7695351 -2.430311
-1.8901365 -7.1538806 -1.7082783
-3.5940125 -13.583593 -2.7312403
-4.1616049 -15.717719 -2.5752244
-4.7980981 -18.096115 -2.2986999
-5.9402871 -22.372385 -2.0251508
-8.4698162 -31.876684 -1.7285521
-2.3464382 -8.7692728 -2.4323816
-1.9211494 -7.169827 -1.7136772
-3.6466632 -13.600045 -2.7369645
-4.2000527 -15.642048 -2.5652127
-4.8622651 -18.083088 -2.2991872
-5.9978781 -22.290993 -2.0195727
-8.5872688 -31.870071 -1.7298082
-2.3719771 -8.742384 -2.4272051
-1.949741 -7.1762419 -1.7168264
-3.6925709 -13.581549 -2.7358193
-4.2520323 -15.617762 -2.5636482
-4.9180484 -18.039194 -2.2957749
-6.0572991 -22.202646 -2.0134718
-8.6953058 -31.828341 -1.7291801
-2.3942804 -8.7042494 -2.4189229
-1.979954 -7.18818 -1.7213255
-3.7347386 -13.54965 -2.7320035
-4.293386 -15.555222 -2.5558267
-4.969882 -17.981737 -2.2906563
-6.1487327 -22.216782 -2.016784
-7.4171686 -26.78175 -1.4564052
-2.3924201 -8.5744648 -2.3852766
-2.0060816 -7.1849785 -1.7222252
-3.7896616 -13.554778 -2.7358193
-4.3636832 -15.586936 -2.5636482
-5.0277982 -17.947075 -2.2884629
-6.1977248 -22.09351 -2.0075452
-2.4496717 -8.6627264 -2.4121935
-2.0361192 -7.1907029 -1.7253746
-3.8241091 -13.496135 -2.7266607
-4.4202204 -15.579208 -2.5648997
-5.0962586 -17.938072 -2.2896814
-6.2688136 -22.050661 -2.0056279
-9.0413256 -31.760857 -1.7306455
-2.5405624 -8.8658333 -2.4712043
-2.0595939 -7.1779323 -1.7240249
-3.8798652 -13.512895 -2.7327666
-4.4783964 -15.576974 -2.5670898
-5.1599398 -17.92399 -2.290169
-6.3435407 -22.020988 -2.0049307
-7.0996284 -24.613371 -1.342522
-2.577419 -8.8773193 -2.4768984
-2.0944302 -7.2043815 -1.7321231
-3.8831401 -13.348461 -2.7022371
-4.5227995 -15.527108 -2.5614581
-5.2263641 -17.919212 -2.2918751
-6.410881 -21.966194 -2.0019674
-7.1933489 -24.615276 -1.3439875
-2.6094813 -8.871974 -2.4779336
-2.1234183 -7.2101121 -1.7352724
-3.9507983 -13.406385 -2.7167387
-4.5635529 -15.465755 -2.5539494
-5.2883224 -17.898952 -2.2916312
-6.4428945 -21.792742 -1.9881967
-7.3030372 -24.670454 -1.3483838
-2.6067879 -8.7498741 -2.4463577
-2.1513591 -7.2119937 -1.737522
-3.9700561 -13.300332 -2.6980393
-4.6141176 -15.438377 -2.5520723
-5.3504901 -17.890827 -2.29285
-6.5132113 -21.751034 -1.9864537
-7.4097557 -24.713682 -1.3521519
-2.6725993 -8.8632555 -2.4805219
-2.1775155 -7.2122827 -1.7393216
-4.0152764 -13.290853 -2.6988027
-4.6710062 -15.4419 -2.5552011
-5.3994389 -17.838787 -2.2884629
-6.6673613 -22.000072 -2.0112059
-2.6991572 -8.8451042 -2.4779336
-2.2025595 -7.2087493 -1.7402214
-4.0903606 -13.370625 -2.7178833
-4.7314386 -15.456547 -2.5602069
-5.4657474 -17.833117 -2.290169
-6.8189311 -22.220469 -2.0335178
-2.7235682 -8.8093128 -2.4706867
-2.2381864 -7.2304134 -1.7474198
-4.1306229 -13.327414 -2.7121592
-4.7868886 -15.435328 -2.559581
-5.5016389 -17.718174 -2.277982
-6.9068341 -22.216255 -2.0354352
-2.7396715 -8.747653 -2.456193
-2.2658384 -7.2258801 -1.7483196
-4.1724157 -13.297929 -2.7091062
-4.8475738 -15.43087 -2.5617712
-5.5760722 -17.728188 -2.2818818
-6.9777617 -22.171106 -2.0335178
-7.1586409 -22.718134 -1.2483174
-2.7661021 -8.7251453 -2.4525695
-2.2963538 -7.2346435 -1.7523687
-4.2152419 -13.272057 -2.7068167
-4.9223604 -15.479743 -2.5727215
-5.6318974 -17.689699 -2.2794445
-7.0424094 -22.106747 -2.0298572
-7.2476058 -22.723452 -1.2499921
-2.8059866 -8.7448683 -2.4608517
-2.3192096 -7.2191625 -1.7505691
-4.9878626 -15.498193 -2.578666
-5.6552572 -17.5509 -2.2640889
-7.0950789 -22.006182 -2.0228848
-2.8210924 -8.734272 2.1190388
-2.8293872 -8.7495079 2.4639573
-2.8382845 -8.7405338 -2.4624047
-2.8258395 -8.6970387 0.15961972
-2.3516245 -7.2332616 -1.7559679
-2.8309882 -8.7025509 0.47960675
-2.8095112 -8.6365299 -1.765365
-2.8231349 -8.6732607 0.79799795
-2.8396804 -8.7189217 -1.4523377
-2.8225763 -8.661274 1.1185169
-2.8265505 -8.6683311 -1.1194919
-2.8240252 -8.6554613 1.442013
-2.831661 -8.6788645 -0.79869521
-2.8228185 -8.6466475 1.7680362
-2.8304553 -8.6649103 -0.47772264
-2.8273466 -8.650279 2.1010427
-2.8332074 -8.6630869 -0.15909614
-2.8328738 -8.6569567 2.4406636
-2.8072639 -8.5433702 -2.4096055
-2.8449378 -8.6529284 0.15899143
-2.3841667 -7.2472229 -1.7613667
-2.8423555 -8.6399927 0.47667596
-2.839057 -8.6198292 0.79398882
-2.8515484 -8.6526728 -1.4429516
-2.8453341 -8.6287451 1.115592
-2.8447125 -8.6268606 -1.1153483
-2.842809 -8.6160355 1.4370072
-2.8525689 -8.6405487 -0.79608059
-2.8474422 -8.6199627 1.7646016
-2.8562973 -8.6417046 -0.47698995
-2.8456204 -8.6094017 2.0933945
-2.8493617 -8.615674 -0.15839803
-2.8482141 -8.6071653 2.4292758
-2.8288798 -8.5138474 -2.4039114
-2.8622608 -8.6092901 0.15836313
-2.4118767 -7.2503715 -1.7640662
-2.8640556 -8.6096725 0.47552454
-2.8645129 -8.6060286 -1.7630752
-2.8625896 -8.5952444 0.79259431
-2.8714833 -8.6169329 -1.4385715
-2.8682806 -8.6023149 1.1133984
-2.8670244 -8.5985479 -1.1129109
-2.8644886 -8.5859489 1.4335656
-2.8774216 -8.6197023 -0.79503471
-2.8691704 -8.5899897 1.760404
-2.881772 -8.6227131 -0.47646657
-2.8698297 -8.5869808 2.0902452
-2.8741117 -8.594799 -0.15818861
-2.8736763 -8.5885124 2.4266875
-2.8515606 -8.4879389 -2.3992527
-2.8825104 -8.5751095 0.15790938
-2.4408767 -7.2571101 -1.7676654
-2.8909075 -8.5901575 0.47500119
-2.886148 -8.5760145 -1.7588774
-2.8828115 -8.5611582 0.79032826
-2.8943653 -8.5905151 -1.4357557
-2.8929863 -8.5814686 1.111936
-2.8925803 -8.5753202 -1.1112047
-2.898231 -8.5871277 1.4354428
-2.8996174 -8.5912352 -0.79329151
-2.8926139 -8.565547 1.7573509
-2.9013996 -8.5866194 -0.47500119
-2.8985393 -8.5732174 2.0893452
-2.9047353 -8.586607 -0.15822351
-2.9030182 -8.5766001 2.4261699
-2.9464402 -8.6699905 -2.4536047
-2.9130697 -8.5668888 0.15794428
-2.4680779 -7.2540798 -1.7690151
-2.9183002 -8.5724525 0.47458252
-2.9185963 -8.5733223 -1.760404
-2.9113922 -8.5472708 0.78997964
-2.9217861 -8.5728798 -1.4345042
-2.9210005 -8.5656815 1.1112047
-2.9218545 -8.5632935 -1.110961
-2.9256363 -8.5694799 1.4341913
-2.9257278 -8.5697479 -0.79224569
-2.9269383 -8.5684032 1.7600222
-2.9268334 -8.5632095 -0.47426847
-2.9316001 -8.5722675 2.0915949
-2.934691 -8.576416 -0.15822351
-2.9285583 -8.5536203 2.4225464
-2.9716625 -8.6450367 -2.4494636
-2.9475088 -8.5699053 0.15818861
-2.5009933 -7.2675333 -1.7744139
-2.9508066 -8.569766 0.47500119
-2.9453094 -8.5538015 -1.7584958
-2.9554882 -8.5784979 0.79381454
-2.9497614 -8.5570269 -1.4335656
-2.9534719 -8.5629406 1.1121798
-2.9530249 -8.5567951 -1.1114485
-2.9548862 -8.5573483 1.4338784
-2.956924 -8.5632496 -0.79259431
-2.9574714 -8.5599899 1.760404
-2.9573593 -8.5548277 -0.47437313
-2.9653261 -8.5730314 2.0942943
-2.9587245 -8.5491123 -0.15790938
-2.9647195 -8.5615997 2.4277227
-2.9973807 -8.6218376 -2.4458401
-2.9833188 -8.5765629 0.15850276
-2.533392 -7.2790036 -1.7793628
-2.9833305 -8.5669584 0.47541988
-2.9745042 -8.5416126 -1.7581142
-2.983448 -8.5624847 0.79329151
-2.9841664 -8.5597343 -1.4357557
-2.9892285 -8.5694475 1.1143733
-2.9887619 -8.563303 -1.1136422
-2.991904 -8.5674953 1.4373201
-2.9835141 -8.5434704 -0.79172277
-2.9756761 -8.5162535 1.7535348
-2.9931352 -8.5614223 -0.47531521
-2.9984524 -8.571826 2.0965438
-2.9931731 -8.5519447 -0.15815371
-2.9945862 -8.551199 2.4277227
-3.0308833 -8.6162605 -2.4473929
-3.0180528 -8.5750017 0.15867728
-2.5691161 -7.2954025 -1.7856615
-3.0253289 -8.5861063 0.47709462
-3.011662 -8.5473194 -1.7615488
-3.0207734 -8.5684032 0.79486042
-3.0109186 -8.5356998 -1.4335656
-3.0298672 -8.5846405 1.1177858
-3.0227721 -8.5597782 -1.1146171
-3.0357881 -8.5918608 1.4432646
-3.0194528 -8.5456285 -0.79294294
-3.0324869 -8.5729895 -0.47657129
-3.0467532 -8.6085434 2.1082413
-3.0338423 -8.5673056 -0.15864237
-3.0323601 -8.5583763 2.4328992
-3.0622361 -8.6092682 -2.4484282
-3.0540001 -8.5813704 0.15899143
-2.6011031 -7.3047485 -1.7901604
-3.061986 -8.5943079 0.47814137
-3.0493875 -8.5589466 -1.7661282
-3.0680578 -8.6066017 0.79939252
-3.0519774 -8.5567675 -1.4388845
-3.0646474 -8.5828257 -1.1190044
-3.1149409 -8.7188683 1.4664168
-3.065352 -8.5800657 -0.79712647
-3.0765188 -8.6018448 -0.47876939
-3.0832775 -8.6112614 -0.15965462
-2.8131158 -7.8222961 -2.2273967
-2.6318669 -7.3102927 -1.7937597
-2.7558837 -7.6505733 -1.5806618
-3.0992491 -8.5943756 -1.4470189
-6.1444149 -17.029463 -2.2228971
-7.507061 -20.78335 -1.9332887
-2.9660807 -8.2071342 1.696292
-2.8568547 -7.861949 -2.2413731
-2.6734154 -7.3491397 -1.8054571
-2.7033482 -7.4273887 -1.536394
-5.0774088 -13.934931 -2.3490202
-6.1831756 -16.960503 -2.2165599
-7.5520306 -20.692835 -1.9271878
-2.9798126 -8.1603708 1.6886597
-11.422798 -31.264977 -1.7444623
-3.0876503 -8.4419689 2.4085703
-2.8649323 -7.8034673 -2.2273967
-2.7213008 -7.404253 -1.8212038
-2.7225423 -7.4036431 -1.5333412
-5.1119905 -13.886503 -2.3437014
-6.2128253 -16.858721 -2.206079
-7.594564 -20.58597 -1.9196924
-2.9844332 -8.0896606 1.6760663
-11.525029 -31.223179 -1.744253
-3.1171007 -8.4311399 2.4085703
-2.8565302 -7.6933069 -2.1989267
-2.7674882 -7.4495111 -1.8347007
-2.7565031 -7.4120159 -1.5371574
-5.1635423 -13.869525 -2.3440144
-6.3215256 -16.970865 -2.223628
-7.6461883 -20.505194 -1.9146372
-2.9893582 -8.0124512 1.6623281
-11.637997 -31.176985 -1.7440436
-3.102556 -8.3025818 2.3749237
-2.8915129 -7.7049937 -2.2051384
-2.8619361 -7.6180954 -1.8787912
-2.7885764 -7.4188881 -1.540592
-5.2174883 -13.866208 -2.3465173
-6.375288 -16.925291 -2.2207034
-7.7332416 -20.508728 -1.9176006
-2.98683 -7.9211388 1.6455369
-11.739701 -31.117485 -1.7429968
-3.1404774 -8.3110332 2.3806179
-2.9272733 -7.7142124 -2.2108324
-2.9189456 -7.688221 -1.898587
-2.8283041 -7.4416513 -1.547461
-5.2738953 -13.861761 -2.3490202
-6.4470401 -16.936329 -2.2250907
-7.7835021 -20.425753 -1.9123713
-3.0004556 -7.869781 1.6371413
-11.865065 -31.104107 -1.7446717
-3.1784272 -8.3234816 2.3873467
-3.2944906 -8.5914068 -2.4655101
-3.9206269 -10.213583 -2.5257504
-2.8535585 -7.4299011 -1.5470794
-5.3321743 -13.869081 -2.3534005
-6.5132489 -16.932249 -2.2275281
-3.009558 -7.8116264 1.6272193
-11.960631 -31.028955 -1.7427876
-3.2137229 -8.328557 2.3920057
-3.3187773 -8.5696268 -2.4624047
-4.0009642 -10.320446 -2.555444
-2.8824413 -7.4313788 -1.5493692
-5.3874316 -13.87526 -2.3574677
-6.5815783 -16.942013 -2.2316716
-7.356936 -18.918331 -1.7758855
-12.076505 -31.022625 -1.7446717
-3.3415477 -8.544179 -2.4582634
-3.9534683 -10.098438 -2.503705
-2.9119456 -7.4304113 -1.5512772
-5.4413452 -13.877549 -2.3609092
-6.6000643 -16.815456 -2.2180221
-7.4331284 -18.918495 -1.7783258
-12.196417 -31.010015 -1.7463462
-3.3714211 -8.5282822 -2.4572282
-3.961055 -10.009588 -2.4852593
-2.957237 -7.4653201 -1.5608176
-5.4965396 -13.868531 -2.3627865
-6.7004514 -16.888948 -2.2309406
-8.0201283 -20.194727 -1.9010409
-12.298189 -30.935413 -1.7446717
-3.4055235 -8.5230436 -2.4592988
-3.9948199 -9.9877663 -2.4834597
-2.9825478 -7.4531293 -1.560436
-5.5554132 -13.868463 -2.3662279
-6.7445917 -16.828604 -2.2260656
-8.0846415 -20.151815 -1.8996465
-12.413538 -30.910828 -1.7457184
-3.4359367 -8.5170774 -2.4608517
-3.9483814 -9.777503 -2.4344203
-3.0182788 -7.4705019 -1.5661603
-5.6110005 -13.87377 -2.3702953
-6.8040843 -16.815346 -2.2272844
-8.1895666 -20.219074 -1.9085364
-12.505469 -30.84358 -1.744253
-3.4736338 -8.5288963 -2.4675808
-3.9256091 -9.6290159 -2.4006777
-3.0489666 -7.4749947 -1.5692132
-5.6666851 -13.878861 -2.3743625
-6.8477173 -16.75474 -2.2224095
-8.2563229 -20.181143 -1.9076648
-12.622809 -30.838909 -1.7463462
-3.452668 -8.3892689 -2.4308286
-3.9488075 -9.5900259 -2.3943789
-3.0875657 -7.4909968 -1.5749376
-5.7258015 -13.878086 -2.3778043
-6.8948026 -16.703215 -2.2187536
-8.3122606 -20.117214 -1.9043529
-12.71286 -30.73707 -1.7432063
-3.4708102 -8.3504066 -2.423064
-6.8920336 -16.573357 0.31330562
-3.9307816 -9.4477434 -2.3624361
-3.1265213 -7.5109854 -1.581425
-5.778769 -13.868956 -2.3796813
-6.9246445 -16.602713 -2.20876
-8.3486719 -20.007172 -1.8966832
-12.829312 -30.714621 -1.7444623
-3.5006843 -8.3400221 -2.4235816
-6.9622331 -16.578695 0.31386408
-3.8656058 -9.200407 -2.3039486
-3.1595671 -7.5163155 -1.5848596
-5.8363395 -13.870548 -2.3834357
-6.9563594 -16.516241 -2.2004731
-8.3929291 -19.917318 -1.890931
-12.950417 -30.702774 -1.7463462
-3.5840573 -8.4558153 -2.4608517
-7.0263052 -16.569017 0.3141433
-3.8893244 -9.1671238 -2.2989998
-3.2026622 -7.5449986 -1.5932552
-5.895535 -13.875545 -2.387816
-6.9968777 -16.45167 -2.1951108
-8.4265165 -19.803568 -1.8829125
-13.057512 -30.657383 -1.7463462
-3.6051896 -8.4237165 -2.4551575
-7.0974808 -16.575642 0.31473669
-3.9366477 -9.1893177 -2.3079977
-3.2436738 -7.568059 -1.6005059
-5.9563961 -13.883925 -2.3928218
-7.0432963 -16.401608 -2.1916986
-7.3237348 -17.046453 -1.6231885
-13.175493 -30.637302 -1.7478117
-3.6062181 -8.3454676 -2.4360051
-7.1695809 -16.583805 0.31536499
-3.9795313 -9.2005606 -2.3142962
-3.2981393 -7.6215539 -1.6142441
-6.0134592 -13.882989 -2.3962634
-7.0736561 -16.314999 -2.1834114
-7.1659455 -16.519958 -1.5754272
-7.1781054 -16.532179 -0.9445594
-7.1910448 -16.546167 -0.31491122
-3.6384182 -8.3399096 -2.4380753
-7.2370234 -16.580671 0.31578386
-3.9679501 -9.0866041 -2.2891018
-3.3530204 -7.6747603 -1.6279825
-5.9851093 -13.686356 -2.3659151
-7.1106634 -16.244745 -2.1773179
-7.4473567 -17.005861 -1.6242344
-13.417925 -30.610428 -1.75158
-3.6675072 -8.3271589 -2.4380753
-7.3077593 -16.584587 0.31634232
-3.9776349 -9.022769 -2.2765048
-3.4035568 -7.7168984 -1.6394309
-5.9953532 -13.580444 -2.3512104
-7.1207895 -16.114513 -2.1631808
-8.6876965 -19.651184 -1.879775
-13.521461 -30.556099 -1.7511613
-3.7130342 -8.3513775 -2.448946
-7.3842978 -16.601 0.31714514
-4.0851669 -9.1797485 -2.3196952
-3.4416542 -7.7300806 -1.6447737
-6.0210104 -13.510718 -2.3427629
-7.1155376 -15.951779 -2.1446569
-8.7546129 -19.6171 -1.8794264
-13.606862 -30.4613 -1.7484398
-3.7310891 -8.3136892 -2.4416988
-7.4544888 -16.602488 0.31766871
-4.1339536 -9.2027626 -2.329143
-3.483906 -7.7520432 -1.6520243
-6.0746193 -13.504029 -2.3452659
-7.1345 -15.84539 -2.1336887
-8.826314 -19.593689 -1.8801236
-13.713105 -30.41362 -1.7484398
-3.7473319 -8.27246 -2.4334168
-7.5276542 -16.617748 0.31843659
-4.1153798 -9.0807314 -2.3016992
-3.5239205 -7.7684417 -1.6581303
-6.1267133 -13.500002 -2.3480816
-7.1484199 -15.736699 -2.1222329
-8.8913536 -19.555504 -1.8794264
-13.843657 -30.433428 -1.7522081
-3.7779562 -8.2670164 -2.4354875
-4.18434 -9.1478281 -2.3223946
-3.5676355 -7.7959881 -1.6665258
-6.1779127 -13.487512 -2.3496459
-7.1726975 -15.644883 -2.1132145
-8.9678717 -19.542458 -1.8811696
-13.961473 -30.41033 -1.7536734
-3.8009453 -8.2373276 -2.4308286
-4.2284994 -9.1597052 -2.329143
-3.6159484 -7.8256326 -1.6756847
-5.9130387 -12.785264 -2.2310686
-7.1889195 -15.536877 -2.1020026
-9.0418949 -19.523689 -1.8823898
-14.081239 -30.377071 -1.75472
-3.8337553 -8.2327642 -2.4334168
-4.211822 -9.0364027 -2.3016992
-3.6556902 -7.8396516 -1.6814089
-6.3093586 -13.518139 -2.3627865
-7.2231317 -15.461863 -2.0954216
-9.0973358 -19.464931 -1.879775
-3.8550737 -8.203598 -2.4287581
-4.2574401 -9.0516233 -2.3093476
-3.693063 -7.8481612 -1.6859884
-6.3640828 -13.512116 -2.3656023
-7.2550526 -15.389872 -2.0890844
-7.7238111 -16.376822 -1.5841427
-3.8828583 -8.188344 -2.4282403
-4.326611 -9.1159306 -2.3295932
-3.7364361 -7.8689184 -1.6932391
-6.3925533 -13.45057 -2.3587191
-7.2933764 -15.332187 -2.0846972
-7.7278433 -16.23822 -1.5733354
-14.152926 -29.71225 -1.7247839
-3.9147527 -8.1817112 -2.430311
-4.3491464 -9.0814381 -2.3246443
-3.7732124 -7.8753037 -1.697437
-6.4514236 -13.45311 -2.3630993
-7.334826 -15.28158 -2.0812848
-7.7586055 -16.157265 -1.5681061
-14.256557 -29.662666 -1.7247839
-3.939929 -8.1610374 -2.4282403
-4.393538 -9.0925207 -2.3313928
-3.8152056 -7.8921328 -1.7039244
-6.4389791 -13.307814 -2.3415112
-7.3595724 -15.196926 -2.0732415
-7.7628355 -16.022501 -1.5576475
-14.360005 -29.612722 -1.7247839
-3.9675465 -8.1454973 -2.4277227
-4.4433007 -9.1181927 -2.3417406
-3.8539193 -7.9017062 -1.7088854
-6.5359168 -13.394683 -2.3605964
-7.3707333 -15.078835 -1.4684
-14.458126 -29.564939 -1.7247839
-3.9919817 -8.1270952 -2.4261699
-4.5241089 -9.2023096 -2.3673849
-3.8887665 -7.9064999 -1.7127017
-6.0757399 -12.342095 -2.1788194
-7.4277492 -15.075251 -2.0634918
-7.4462352 -15.099473 -1.4729321
-14.582449 -29.55728 -1.7272961
-3.9942825 -8.057023 -2.4096055
-4.5518746 -9.1777334 -2.3651354
-3.9264464 -7.9097786 -1.7165178
-6.0919309 -12.261366 -2.1684947
-7.462656 -15.01368 -2.0586171
-7.5033345 -15.082308 -1.4738036
-14.713829 -29.550116 -1.7300174
-4.0076942 -8.0136566 -2.4008055
-4.5915861 -9.1731882 -2.3682847
-3.9795282 -7.9469323 -1.7275848
-6.085125 -12.141132 -2.1509743
