# .PCD v0.7 - Point Cloud Data file format
VERSION 0.7
FIELDS x y z
SIZE 4 4 4
TYPE F F F
COUNT 1 1 1
WIDTH 1480
HEIGHT 1
VIEWPOINT 0 0 0 1 0 0 0
POINTS 1480
DATA ascii
-24.897768 -7.0078273 -2.2629116
-32.494392 -9.1337557 -1.7689556
-7.7888374 -2.174684 -2.1668332
-9.0609369 -2.5264497 -2.1716774
-11.574202 -3.2250462 -2.3355021
-17.574869 -4.8904629 -2.8893449
-21.122948 -5.8698244 -2.6918504
-25.085258 -6.9661894 -2.2777281
-32.587662 -9.0373602 -1.772305
-7.7870679 -2.1449172 -2.1642449
-9.0715799 -2.4953246 -2.1721272
-11.494522 -3.159647 -2.3171847
-17.492777 -4.801898 -2.8730757
-21.166283 -5.8023529 -2.6947751
-25.157461 -6.8917484 -2.2820859
-32.634418 -8.9277678 -1.7731423
-7.7833228 -2.114681 -2.161139
-9.0651894 -2.4595611 -2.1685281
-11.461901 -3.1076849 -2.3084073
-17.559008 -4.7542295 -2.8812103
-21.274551 -5.7522717 -2.705987
-25.196751 -6.8080468 -2.2834804
-32.765659 -8.8408527 -1.7785853
-7.7794595 -2.0845006 -2.1580334
-38.076641 -10.195488 0.68804371
-9.0868959 -2.4314284 -2.1716774
-11.419573 -3.0534592 -2.2977221
-17.651836 -4.7132874 -2.8937252
-21.323275 -5.6856461 -2.7096431
-25.127956 -6.6954231 -2.2751136
-32.865799 -8.7449198 -1.7823534
-7.7810864 -2.0558524 -2.1564806
-37.961189 -10.022695 0.68532109
-9.0727167 -2.3937285 -2.1662786
-11.29158 -2.9770412 -2.2698641
-17.59177 -4.6315246 -2.8812103
-21.36603 -5.6172347 -2.712568
-25.17815 -6.6147566 -2.2775538
-32.996582 -8.6564894 -1.7877964
-7.8218651 -2.0374436 -2.1657977
-37.872089 -9.8578844 0.68308723
-9.0829048 -2.3625348 -2.1667287
-11.201197 -2.9114323 -2.2496383
-17.600182 -4.5681081 -2.8799589
-21.397039 -5.5456023 -2.7140305
-25.183725 -6.5223374 -2.275985
-32.856441 -8.4972506 -1.7785853
-7.8158307 -2.0067663 -2.1621742
-37.793926 -9.6968012 0.6810627
-9.0929842 -2.3312988 -2.1671786
-11.190371 -2.8669574 -2.2454405
-17.547125 -4.4890184 -2.8686957
-21.450886 -5.4797273 -2.7184179
-25.343405 -6.4693775 -2.2883611
-33.021374 -8.4170465 -1.7859123
-7.8115516 -1.9766264 -2.1590683
-37.703472 -9.5334435 0.67882884
-9.0991774 -2.2990687 -2.1667287
-11.194599 -2.8264332 -2.2442954
-17.44776 -4.3987699 -2.8499234
-21.446783 -5.3990006 -2.715493
-25.387089 -6.3862195 -2.2902787
-33.178402 -8.3338423 -1.7928207
-7.8184037 -1.9493467 -2.1590683
-37.627853 -9.374711 0.6768741
-9.0976906 -2.2649384 -2.164479
-11.189157 -2.7835479 -2.2412426
-17.493683 -4.3454533 -2.8549292
-21.477057 -5.3269706 -2.7169554
-25.424696 -6.3013964 -2.2916729
-33.234436 -8.2246933 -1.794286
-7.8251605 -1.9220451 -2.1590683
-37.555481 -9.2175674 0.67498928
-9.0922947 -2.2299161 -2.1613297
-11.17783 -2.7393329 -2.2370448
-17.416645 -4.2618256 -2.8399117
-21.429956 -5.2359548 -2.7086682
-25.504602 -6.2267852 -2.2969024
-33.325039 -8.1237698 -1.7976357
-7.8412099 -1.8969895 -2.1616566
-37.457558 -9.0619431 0.67268556
-9.097744 -2.1992943 -2.1608799
-11.130069 -2.686481 -2.2255962
-17.200245 -4.1484675 -2.8023674
-21.47422 -5.1713676 -2.7120807
-25.572674 -6.1488976 -2.3010857
-33.421703 -8.0300188 -1.8014038
-7.8230281 -1.865152 -2.1549275
-37.380032 -8.9051847 0.67073089
-9.1072626 -2.1679752 -2.1613297
-11.093078 -2.6386538 -2.2164373
-17.360685 -4.1230912 -2.8261452
-21.530773 -5.1055317 -2.7169554
-25.645271 -6.0764642 -2.3057923
-33.476742 -7.919735 -1.8028692
-7.8257298 -1.8369501 -2.1538923
-37.308125 -8.7574139 0.66891587
-9.1181946 -2.1386518 -2.1622295
-11.090751 -2.5972292 -2.2141476
-17.189615 -4.0222912 -2.7961099
-21.582378 -5.0422382 -2.7213428
-25.677965 -5.9896293 -2.306838
-33.495037 -7.8068719 -1.8024505
-7.8411903 -1.8131648 -2.1564806
-37.260529 -8.6091318 0.66751963
-9.114212 -2.1041822 -2.1595302
-11.110781 -2.5630841 -2.2164373
-17.17275 -3.9551737 -2.7911041
-21.506989 -4.9455118 -2.7096431
-25.75206 -5.9169364 -2.3117189
-33.533772 -7.6925759 -1.8030787
-7.8380527 -1.7836394 -2.1538923
-37.274757 -8.4754601 0.66724044
-9.1043978 -2.0684688 -2.1554811
-11.113917 -2.5229809 -2.2152925
-17.105539 -3.8768666 -2.7779636
-21.675138 -4.9045854 -2.7286549
-25.679274 -5.8059177 -2.3033519
-33.622761 -7.5895538 -1.8064281
-7.8385749 -1.755004 -2.1523392
-37.155804 -8.3121147 0.66458762
-9.1172686 -2.037951 -2.1568308
-11.092 -2.4773233 -2.2091868
-16.849041 -3.7569458 -2.7341619
-21.604933 -4.8094835 -2.7176867
-25.735392 -5.7195401 -2.3064895
-33.754333 -7.4955211 -1.8120803
-44.258522 -9.8118839 -0.79129213
-7.8430681 -1.7258452 -2.1518216
-37.094753 -8.1625967 0.66298205
-9.1319399 -2.0077891 -2.1586304
-11.033889 -2.4219203 -2.1958301
-16.824108 -3.6867092 -2.7279046
-21.734058 -4.7586641 -2.7318234
-25.801914 -5.6398821 -2.310673
-33.886951 -7.3947482 -1.8177327
-40.982777 -8.9356937 -0.73216337
-7.84338 -1.6972331 -2.1502688
-36.999332 -7.999537 0.66074806
-9.1373329 -1.9738917 -2.1581805
-11.044193 -2.3838065 -2.1962116
-16.805977 -3.6213012 -2.7228985
-21.764938 -4.6818943 -2.7335296
-25.756182 -5.5310583 -2.3047464
-33.893028 -7.2722249 -1.8166859
-36.572716 -7.833828 -0.65285963
-7.8476596 -1.6680708 -2.1497512
-36.92141 -7.8478847 0.65886325
-9.1308241 -1.9391525 -2.1550312
-11.033653 -2.3392372 -2.1923954
-16.598825 -3.513052 -2.6872315
-21.796688 -4.6091771 -2.7354796
-25.827965 -5.4522228 -2.3094528
-34.013264 -7.1677284 -1.8217102
-36.615494 -7.7094221 -0.65313888
-7.8471875 -1.6422226 -2.1481981
-36.947231 -7.7254043 0.65886325
-9.1257591 -1.9064716 -2.1523318
-11.050556 -2.3065701 -2.1943038
-16.617514 -3.4625027 -2.688483
-21.811853 -4.5368705 -2.7354796
-25.931736 -5.3843718 -2.3171225
-34.059078 -7.0656953 -1.8229662
-7.860723 -1.6150053 -2.1502688
-37.107162 -7.6237597 0.66123676
-9.1361752 -1.8753885 -2.1532316
-11.03778 -2.2617171 -2.1901057
-16.29335 -3.3326902 -2.6340439
-21.811995 -4.45753 -2.7335296
-25.985514 -5.3009815 -2.3202603
-34.17086 -6.9583578 -1.8275717
-7.8663125 -1.5875561 -2.1502688
-37.319122 -7.5248575 0.66451782
-9.1525393 -1.8438141 -2.1554811
-11.064852 -2.2270477 -2.1939218
-15.359786 -3.0859203 -2.4813638
-21.855436 -4.3830142 -2.7369418
-26.099585 -5.2294283 -2.3288014
-34.273281 -6.8546958 -1.8317586
-7.8509612 -1.5559565 -2.1445746
-37.498169 -7.4248395 0.66724044
-9.1474504 -1.8095853 -2.1527817
-11.049448 -2.1838424 -2.1893425
-16.401491 -3.2356865 -2.64781
-21.936825 -4.3197427 -2.745229
-25.980835 -5.1113687 -2.3165996
-34.297001 -6.7350168 -1.8317586
-7.8620343 -1.5296507 -2.1461277
-37.657333 -7.3198452 0.6696139
-9.1422329 -1.7754145 -2.1500821
-11.022311 -2.1385307 -2.1824734
-16.389414 -3.1739078 -2.6440556
-21.990751 -4.2506766 -2.750104
-26.172625 -5.0542693 -2.3321133
-34.430126 -6.6364331 -1.8376204
-7.8711209 -1.5029203 -2.1471629
-37.894802 -7.2288198 0.67338371
-9.1407166 -1.7420337 -2.1482825
-10.994995 -2.0934303 -2.1756043
-16.295597 -3.0967672 -2.6271608
-22.079565 -4.1879454 -2.7593658
-26.156828 -4.9565783 -2.32915
-34.500179 -6.525116 -1.8401324
-7.8725219 -1.4747243 -2.1461277
-17.493586 -3.273839 0.31065285
-9.1429119 -1.7093976 -2.1473827
-10.982937 -2.0514328 -2.1717882
-13.599272 -2.5352094 -2.1910214
-22.051115 -4.1028643 -2.7540038
-26.313049 -4.8910885 -2.341526
-34.565948 -6.412662 -1.8424352
-7.8738208 -1.4465384 -2.1450922
-38.15554 -7.0097427 0.67715341
-9.1561966 -1.6804782 -2.1491826
-10.97265 -2.0099013 -2.1683536
-13.572628 -2.483701 -2.1853898
-22.123182 -4.0404158 -2.7613158
-26.367205 -4.8059964 -2.3448381
-34.669552 -6.3130288 -1.8468314
-7.8614635 -1.4173347 -2.1404335
-38.317535 -6.9013228 0.67959672
-9.1562529 -1.6474692 -2.1478326
-10.988915 -1.9752398 -2.1702616
-13.666767 -2.4516516 -2.199156
-22.125427 -3.9610672 -2.7598534
-26.473215 -4.7346678 -2.3528564
-34.648121 -6.184258 -1.8445287
-7.8796802 -1.3922372 -2.144057
-38.451672 -6.7869916 0.6815514
-9.1561899 -1.6144845 -2.1464829
-11.007345 -1.9389125 -2.1725514
-13.601311 -2.3909345 -2.1872668
-22.146942 -3.8851769 -2.7608283
-26.430706 -4.6319113 -2.3476269
-34.756062 -6.0784049 -1.8491341
-7.8787813 -1.3637347 -2.1425042
-38.557892 -6.6670284 0.68301737
-9.1521692 -1.5808549 -2.1442335
-11.002438 -1.8984747 -2.1702616
-13.82566 -2.3806534 -2.2219954
-22.183846 -3.8118794 -2.7637532
-26.514271 -4.5464616 -2.3535538
-34.832188 -5.9664869 -1.852065
-7.8837271 -1.3348484 -2.1425042
-38.726826 -6.557107 0.68560034
-9.1653175 -1.550198 -2.146033
-10.988028 -1.8545415 -2.1660638
-13.781698 -2.3211024 -2.2135479
-17.663258 -2.9716656 -2.1992545
-17.656527 -2.9641917 -1.5663629
-17.612074 -2.9504132 -0.9358716
-17.5611 -2.938719 -0.31079245
-17.604111 -2.9427626 4.7824583
-7.878809 -1.3057413 -2.1399159
-17.526745 -2.9015386 0.31009439
-9.1632471 -1.515323 -2.1442335
-10.990561 -1.8155347 -2.1653006
-13.8248 -2.2787669 -2.2191796
-17.656403 -2.9040027 -2.1970608
-17.653002 -2.9002838 -1.5651428
-17.636061 -2.8911746 -0.93660432
-17.571753 -2.8743384 -0.31079245
-7.8775973 -1.2773052 -2.1383629
-17.61375 -2.8528054 0.31145564
-9.1665573 -1.4830167 -2.1437836
-17.583426 -2.8415956 0.93346417
-11.000707 -1.7777855 -2.1660638
-17.505646 -2.825891 1.5513722
-13.774164 -2.2210612 -2.2097936
-17.438595 -2.8088217 2.168787
-17.586075 -2.829428 -2.1870675
-17.574495 -2.8244185 -1.5572987
-17.561249 -2.8160019 -0.93210351
-17.540213 -2.806345 -0.31005946
-17.319496 -2.7679358 4.6996365
-7.8858247 -1.2504045 -2.1393983
-17.491272 -2.770345 0.30911702
-9.1774521 -1.4519236 -2.1451333
-17.450718 -2.7607999 0.92592788
-10.987453 -1.7363129 -2.1622477
-17.424873 -2.7504771 1.5433538
-13.857933 -2.1849649 -2.2219954
-17.389463 -2.7386672 2.1614747
-17.582117 -2.7658637 -2.1853614
-17.384838 -2.7348294 2.7873497
-17.556694 -2.7587245 -1.5548583
-17.354738 -2.7238874 3.4147177
-17.539402 -2.7497346 -0.93042874
-17.342897 -2.7158267 4.0527182
-17.509912 -2.7419806 -0.30936137
-17.313311 -2.7080979 4.6954951
-7.8786869 -1.2210927 -2.1362925
-17.500362 -2.7123258 0.30911702
-9.1571808 -1.4176059 -2.1392844
-17.479982 -2.702924 0.92697448
-11.001208 -1.6991446 -2.163774
-17.452093 -2.6923702 1.5449227
-13.941242 -2.150744 -2.2341974
-17.573536 -2.7048259 -2.1831677
-17.409897 -2.6765292 2.7898526
-17.550463 -2.6950083 -1.5534639
-17.369497 -2.6672196 3.4158628
-17.544474 -2.6909502 -0.93021935
-17.346027 -2.6574142 4.0513682
-17.531235 -2.6826568 -0.30957079
-17.326475 -2.6482298 4.6965303
-7.8960629 -1.1969879 -2.1399159
-17.527519 -2.6539156 0.30943117
-9.1717081 -1.387092 -2.1415341
-17.488852 -2.644943 0.92697448
-11.008725 -1.6629469 -2.1641557
-17.476685 -2.6368594 1.5463171
-14.013124 -2.1117837 -2.2445219
-17.441072 -2.6252601 2.1656184
-17.626055 -2.6499584 -2.1885297
-17.408911 -2.617312 2.7882884
-17.602648 -2.643302 -1.5572987
-17.386469 -2.6077328 3.4173894
-17.597214 -2.6362014 -0.93252218
-17.364834 -2.5982947 4.053618
-17.565744 -2.6283567 -0.31002453
-17.360003 -2.59447 4.7032599
-7.886816 -1.1674359 -2.1362925
-17.54809 -2.5975337 0.30964059
-9.1839685 -1.3578095 -2.1433337
-17.547373 -2.5911732 0.92959136
-10.989213 -1.620785 -2.1591947
-17.539003 -2.5836816 1.5510236
-14.039593 -2.0681815 -2.2476506
-17.506638 -2.5757926 2.1726868
-17.795795 -2.6151597 -2.2085166
-17.458984 -2.5625556 2.7948585
-17.732021 -2.5994651 -1.5679319
-17.439699 -2.5566115 3.4261665
-17.706646 -2.5925887 -0.93786037
-17.440842 -2.5505652 4.0693645
-17.657919 -2.579159 -0.31149057
-7.8906436 -1.1412792 -2.1362925
-9.1828651 -1.324908 -2.141984
-11.010073 -1.5865742 -2.1622477
-14.105385 -2.0275929 -2.2570367
-22.237841 -3.1886795 -2.7583909
-27.199533 -3.8952911 -2.4039297
-35.328358 -5.0468507 -1.8702779
-7.8907533 -1.1131868 -2.135257
-9.1816454 -1.2920309 -2.1406343
-11.00971 -1.5473148 -2.1611028
-14.043907 -1.968745 -2.2460864
-22.217381 -3.1066363 -2.7544911
-27.214939 -3.8005915 -2.404104
-35.496101 -4.9444418 -1.878233
-7.8984194 -1.0861626 -2.1362925
-9.1803064 -1.2591784 -2.1392844
-11.048111 -1.5134035 -2.1675904
-14.019379 -1.9154316 -2.2410803
-22.318569 -3.0413933 -2.765703
-27.216841 -3.6992142 -2.4030581
-35.552727 -4.8258786 -1.8803264
-7.9023471 -1.0572078 -2.1362925
-17.747156 -2.3742862 0.3125377
-9.1807842 -1.226609 -2.1383848
-11.039962 -1.4710847 -2.1649189
-14.196666 -1.8866752 -2.2683001
-22.301498 -2.9598117 -2.7622907
-27.083426 -3.5848403 -2.3901591
-35.661259 -4.707562 -1.8851413
-7.8983264 -1.0286169 -2.1342218
-9.1910152 -1.1937065 -2.1397343
-11.021667 -1.4295084 -2.1603396
-14.228632 -1.8404052 -2.2723672
-22.174383 -2.8602755 -2.745229
-27.191236 -3.4977512 -2.398526
-35.689362 -4.5845785 -1.8857694
-7.8905439 -0.99820822 -2.1311162
-9.1893263 -1.1608815 -2.1383848
-11.019039 -1.3881233 -2.158813
-14.233323 -1.7879925 -2.2720544
-22.259079 -2.7922487 -2.7544911
-27.262589 -3.410233 -2.4037554
-35.682148 -4.4507728 -1.8845134
-7.8917246 -0.97317582 -2.1305985
-9.1950588 -1.1306418 -2.1388347
-11.03309 -1.3546925 -2.1607211
-14.334945 -1.7550337 -2.287385
-22.230778 -2.7138486 -2.74986
-27.38055 -3.3328073 -2.4131682
-35.608711 -4.3280554 -1.8799077
-7.8971558 -0.94447577 -2.1311162
-9.1892748 -1.0973804 -2.136585
-11.024334 -1.3126225 -2.1580498
-14.327549 -1.7008513 -2.2851949
-22.228287 -2.6348293 -2.7483978
-27.479074 -3.2475054 -2.4208379
-35.719547 -4.2087235 -1.884932
-41.789375 -4.9165177 -0.73446709
-7.9061618 -0.91757178 -2.1326692
-9.1971064 -1.0641427 -2.137485
-11.02885 -1.2741295 -2.1580498
-14.368724 -1.6548966 -2.2908266
-22.334431 -2.5644362 -2.7603409
-27.595154 -3.1635923 -2.4300764
-35.757832 -4.0867333 -1.886188
-7.9112363 -0.89018428 -2.1331868
-9.1930189 -1.0311631 -2.1356852
-11.021523 -1.2343153 -2.15576
-14.419565 -1.6097707 -2.2980225
-22.418215 -2.494801 -2.769603
-27.61989 -3.0687809 -2.4312966
-35.875107 -3.9733307 -1.891631
-7.9066133 -0.86172605 -2.1311162
-9.1907511 -0.99843568 -2.1343358
-11.017958 -1.1949885 -2.1542337
-14.36225 -1.5526294 -2.2880106
-22.51363 -2.4258885 -2.7803273
-27.721558 -2.9821525 -2.4393148
-35.972164 -3.8570211 -1.8960272
-7.8942032 -0.83250046 -2.1269751
-9.1843204 -0.96693408 -2.132086
-11.010346 -1.1552918 -2.1519439
-14.337851 -1.5019131 -2.2833178
-22.553141 -2.3545144 -2.7842271
-27.815029 -2.8940337 -2.446636
-36.127792 -3.7525673 -1.9035636
-7.9026861 -0.8069061 -2.1285279
-9.179884 -0.93407732 -2.1302865
-11.021931 -1.1195669 -2.1534703
-14.211329 -1.4385229 -2.2623556
-22.616522 -2.281358 -2.7910519
-27.927555 -2.8121586 -2.4557002
-36.172462 -3.6296246 -1.9052384
-7.9189119 -0.780644 -2.1321514
-9.1868105 -0.90401417 -2.1311862
-11.014048 -1.0799391 -2.1511807
-14.003695 -1.3706067 -2.2285657
-22.596302 -2.2036426 -2.7876396
-28.028423 -2.7235193 -2.4637184
-36.319477 -3.5227623 -1.912356
-7.9003034 -0.75236475 -2.1264575
-9.1996098 -0.87285864 -2.1334357
-10.998023 -1.0415579 -2.1473646
-13.912028 -1.3126236 -2.2132351
-22.263918 -2.092804 -2.7457166
-28.021889 -2.6241782 -2.4623239
-36.327579 -3.3955896 -1.9121468
-52.715878 -4.9088664 -0.92413986
-7.9030075 -0.72340357 -2.1264575
-9.1928978 -0.83985615 -2.1311862
-11.001767 -1.0012383 -2.1473646
-13.901008 -1.260201 -2.2107322
-22.219688 -2.0104189 -2.7393792
-28.050722 -2.528142 -2.4640672
-36.359676 -3.2642052 -1.9131935
-52.752605 -4.7266192 -0.9244889
-7.9131818 -0.69648784 -2.1285279
-9.1881495 -0.80547595 -2.1293867
-11.007151 -0.96299976 -2.1477461
-13.834476 -1.2054961 -2.1994689
-22.124067 -1.9200462 -2.7267048
-28.122892 -2.4357052 -2.469645
-36.446457 -3.1437957 -1.9171709
-52.968014 -4.5595851 -0.92797935
-7.90979 -0.66837519 -2.1269751
-9.1791182 -0.77401966 -2.1266873
-11.006533 -0.92424554 -2.1469829
-13.82265 -1.1582924 -2.1969659
-22.209442 -1.8532716 -2.7364545
-28.174908 -2.341152 -2.47348
-36.47261 -3.0242369 -1.9180083
-53.135071 -4.3871694 -0.93063211
-7.910038 -0.64198512 -2.1264575
-9.1837072 -0.74213278 -2.1271372
-10.999751 -0.88695198 -2.1450748
-13.755725 -1.1043409 -2.1857026
-22.037685 -1.7614994 -2.7145178
-28.194824 -2.2437432 -2.4745259
-36.459049 -2.8950069 -1.9167522
-53.349411 -4.2174368 -0.93412262
-7.906559 -0.61254317 -2.1249044
-9.1881847 -0.71021891 -2.1275871
-10.981396 -0.84497291 -2.140877
-13.743922 -1.0527123 -2.1831996
-21.972446 -1.679117 -2.7057436
-28.325657 -2.15468 -2.485333
-36.481365 -2.7622626 -1.9173803
-53.810467 -4.0649266 -0.94194132
-7.897089 -0.58408517 -2.1217985
-9.1810093 -0.67582232 -2.1253376
-10.988195 -0.80692285 -2.1416404
-13.779035 -1.0070341 -2.1882055
-21.883417 -1.5916601 -2.6940439
-28.424416 -2.0624235 -2.4933515
-36.486801 -2.634613 -1.9171709
-53.964626 -3.8777056 -0.94438463
-7.9087162 -0.55719239 -2.1243868
-9.1813669 -0.64363605 -2.1248875
-10.981153 -0.76787698 -2.1397321
-13.741083 -0.95605373 -2.1816354
-21.833391 -1.5114239 -2.6872194
-28.467216 -1.9656608 -2.496489
-36.551571 -2.5110664 -1.9201019
-54.09753 -3.6974905 -0.9464789
-7.9029026 -0.52906603 -2.1223164
-9.1718912 -0.61080384 -2.1221881
-10.983767 -0.72954059 -2.1397321
-13.728568 -0.90703708 -2.1791322
-21.759302 -1.4299995 -2.6774697
-28.561386 -1.8720127 -2.5041587
-36.739483 -2.395164 -1.9295222
-7.9104848 -0.50184512 -2.1238692
-9.1738663 -0.58038723 -2.1221881
-10.97253 -0.69033504 -2.1370609
-13.733473 -0.86162978 -2.1794453
-21.720337 -1.3551149 -2.6721075
-28.659218 -1.7779775 -2.512177
-36.85088 -2.2797294 -1.9349651
-7.9063206 -0.47526222 -2.1223164
-9.173892 -0.54824221 -2.1217382
-10.963 -0.65324396 -2.1347711
-13.706818 -0.81193322 -2.1747522
-21.78042 -1.2825552 -2.678932
-28.832029 -1.6927381 -2.5268192
-36.934383 -2.155494 -1.9389427
-7.8847861 -0.44635066 -2.1161046
-9.1796408 -0.51643693 -2.1226382
-10.961294 -0.61475182 -2.1340079
-13.610951 -0.75858921 -2.1591089
-21.796659 -1.2071725 -2.6803946
-28.897444 -1.5953861 -2.5320487
-37.041397 -2.0320249 -1.9441763
-7.8998003 -0.41954184 -2.1197281
-9.1697121 -0.4837746 -2.1199389
-10.969254 -0.57679492 -2.1351528
-13.558281 -0.708188 -2.1503484
-17.526628 -0.90933198 -2.1548939
-28.895138 -1.4890435 -2.5313513
-37.104115 -1.9055901 -1.9471072
-7.8954964 -0.39029852 -2.118175
-9.1616116 -0.45128369 -2.1176891
-10.957568 -0.53591526 -2.1324816
-13.545002 -0.65772301 -2.1478455
-17.47616 -0.84555638 -2.1483128
-28.91608 -1.3889424 -2.5327458
-37.15873 -1.7718663 -1.9496193
-7.9045296 -0.36309007 -2.1202457
-9.1690445 -0.41796774 -2.1190388
-10.951527 -0.49730632 -2.130955
-13.547215 -0.61043769 -2.1478455
-17.445431 -0.77998561 -2.1441696
-28.956806 -1.2845391 -2.5358834
-37.192623 -1.6433718 -1.9510847
-7.8884363 -0.33338183 -2.115587
-9.1626606 -0.38563123 -2.1172395
-10.955237 -0.45724532 -2.1313365
-13.553308 -0.56094688 -2.1484711
-17.43218 -0.71843469 -2.1422195
-28.885464 -1.1803681 -2.5292594
-17.653273 -0.71520257 -0.92592788
-7.8817234 -0.30829743 -2.1135163
-9.1755724 -0.35569721 -2.1199389
-10.952697 -0.42267689 -2.1305733
-13.54711 -0.51805943 -2.1472197
-17.396776 -0.65919471 -2.1375885
-17.651974 -0.66577965 -1.5454456
-17.653435 -0.65966421 -0.92582315
-7.8885427 -0.28098926 -2.1150692
-9.1650724 -0.32325611 -2.1172395
-10.940371 -0.38395995 -2.127902
-13.533042 -0.47022212 -2.1447167
-17.36326 -0.59723586 -2.1332014
-17.628304 -0.60327655 -1.5431796
-17.607725 -0.59641498 -0.923311
-7.8856139 -0.25332713 -2.1140339
-9.1564064 -0.29095235 -2.1149898
-10.949494 -0.34601372 -2.1294286
-13.514855 -0.42236272 -2.141588
-17.335476 -0.53570288 -2.1295452
-17.608397 -0.54106492 -1.541262
-17.547812 -0.53306842 -0.92006618
-7.8903122 -0.22591001 -2.1150692
-9.1534252 -0.26047578 -2.11409
-10.942785 -0.30757239 -2.127902
-17.29747 -0.47711807 -2.1246703
-17.570347 -0.47850737 -1.5377759
-17.531513 -0.47438797 -0.91912413
-7.8929501 -0.19979215 -2.115587
-9.1562271 -0.22857118 -2.1145399
-10.931969 -0.27099079 -2.1256123
-17.275217 -0.41616571 -2.1217456
-17.520048 -0.41900438 -1.5332438
-17.517092 -0.41281599 -0.9182868
-7.8742847 -0.17181772 -2.1104105
-9.1589165 -0.19665235 -2.1149898
-10.928923 -0.23274554 -2.1248491
-13.544164 -0.28370762 -2.1456554
-17.260687 -0.35553387 -2.1197956
-17.495508 -0.3573119 -1.5309777
-17.484478 -0.35098544 -0.91650736
-7.8825636 -0.14447169 -2.1124811
-9.1575994 -0.16464309 -2.1145399
-10.929668 -0.19459476 -2.1248491
-13.558896 -0.23667212 -2.1478455
-17.243959 -0.29497463 -2.1176019
-17.480715 -0.29597288 -1.5295833
-17.427685 -0.28898609 -0.91347188
-7.8810883 -0.11692853 -2.1119635
-9.1425304 -0.13245001 -2.1109407
-10.924392 -0.15635993 -2.1237042
-13.55964 -0.18934092 -2.1478455
-17.280611 -0.2352661 -2.1219893
-17.505547 -0.23527281 -1.531675
-17.530439 -0.22948736 -0.91881019
-7.8853111 -0.089461297 -2.1129987
-9.1429377 -0.10053775 -2.1109407
-10.917019 -0.11814045 -2.1221778
-13.536515 -0.14175919 -2.1440909
-17.382563 -0.17596842 -2.1344197
-17.629812 -0.17231719 -1.5424823
-17.648968 -0.169424 -0.92498583
-7.875927 -0.060483385 -2.1104105
-9.1373854 -0.068578199 -2.109591
-10.905599 -0.078039698 -2.1198881
-13.529042 -0.092090406 -2.1428397
-17.472399 -0.11588284 -2.1453881
-17.698048 -0.11120176 -1.5484089
-17.763309 -0.10541563 -0.93095207
-51.499306 -0.29662016 -0.8989386
-7.8644991 -0.032944005 -2.1073048
-9.1414719 -0.035100169 -2.1104908
-10.903842 -0.039966684 -2.1195064
-13.513479 -0.044811897 -2.1403368
-17.585855 -0.052177947 -2.1592813
-17.817871 -0.049756698 -1.5588677
-17.881407 -0.043692671 -0.93712771
-7.8742256 -0.0054981047 -2.1098928
-9.1376419 -0.0031908264 -2.109591
-10.886246 -0.0019015374 -2.1160717
-13.497749 0.0023536216 -2.1378336
-17.701067 0.0092692468 -2.173418
-17.931501 0.012515089 -1.5688033
-17.993299 0.018842982 -0.94298941
-16.210148 0.025462745 4.3435016
-7.8703337 0.021975661 -2.1088579
-9.1220083 0.028656797 -2.1059918
-10.897964 0.036140524 -2.1183615
-13.493709 0.049455442 -2.137208
-17.812092 0.071499951 -2.1870675
-18.078785 0.07572569 -1.5817024
-18.098974 0.082127735 -0.94853693
-7.8721404 0.049462352 -2.1093752
-9.1238012 0.060511548 -2.1064417
-10.88992 0.074125566 -2.1168351
-13.485552 0.096500807 -2.1359563
-17.934805 0.13459945 -2.2021794
-29.291246 0.22494802 -2.5627275
-37.423435 0.30045512 -1.9613425
-7.864193 0.076865643 -2.1073048
-9.1235342 0.092359439 -2.1064417
-10.877817 0.11201703 -2.1145453
-13.473281 0.14344777 -2.1340792
-18.061264 0.19860017 -2.2177784
-29.31419 0.32745305 -2.5648191
-37.498051 0.43196073 -1.96532
-63.098076 0.7378751 -1.1014563
-16.085396 0.19091186 4.3103728
-7.8464913 0.10408593 -2.1026461
-38.724697 0.51369405 0.67600149
-9.1173325 0.12253328 -2.105092
-20.212385 0.2751793 1.0593845
-10.883247 0.15006852 -2.1156902
-13.449031 0.18779556 -2.1303248
-18.141886 0.25965786 -2.2277718
-28.990137 0.4250457 -2.5365808
-37.57629 0.55749291 -1.9695069
-7.8596244 0.13032977 -2.1062696
-9.1071062 0.15419544 -2.1028426
-20.169367 0.34501526 1.0571864
-10.874839 0.18602395 -2.1141639
-13.432491 0.23446484 -2.1278217
-18.166674 0.32343885 -2.2309406
-29.25152 0.5259068 -2.5595899
-37.741859 0.69173074 -1.9782994
-7.861053 0.1578013 -2.1067872
-9.1026173 0.18590492 -2.1019428
-10.880012 0.22410208 -2.1153085
-13.427641 0.28126922 -2.1271961
-18.070169 0.38482648 -2.2192409
-29.297314 0.62903774 -2.5637734
-20.68668 0.45138425 -1.0844011
-7.8527279 0.1850587 -2.1047165
-9.1019125 0.21767594 -2.1019428
-10.853648 0.26146472 -2.1103475
-13.422628 0.32803938 -2.1265705
-18.001244 0.44622874 -2.2109537
-29.490131 0.73616707 -2.5808558
-7.8462415 0.21231402 -2.1031637
-9.1030445 0.24949984 -2.1023927
-10.860519 0.29956886 -2.1118741
-13.421402 0.37489146 -2.1265705
-17.93211 0.50715023 -2.2026668
-29.332039 0.83468264 -2.5672596
-20.724035 0.60421449 -0.36189309
-7.8377285 0.2394636 -2.1010931
-20.623125 0.63369429 0.36014786
-9.0982218 0.28115371 -2.1014926
-10.837821 0.33680418 -2.1076763
-13.412113 0.42149398 -2.1253188
-17.918325 0.56936413 -2.2012043
-20.652533 0.65985787 -1.8077843
-20.627865 0.67348486 -0.36025256
-7.8349142 0.2667554 -2.1005754
-9.0913429 0.31271005 -2.100143
-10.854239 0.37524399 -2.1111107
-13.394768 0.46775413 -2.1228158
-17.882504 0.63071829 -2.1970608
-20.701874 0.73378026 -1.8123164
-20.646425 0.73903054 -1.0827264
-7.8358655 0.29417542 -2.1010931
-9.0746183 0.34385282 -2.0965438
-10.856788 0.41327974 -2.1118741
-13.385157 0.51420474 -2.1215644
-17.70167 0.68622017 -2.1751244
-29.305761 1.1411779 -2.565865
-15.784201 0.6229198 3.6469064
-62.405483 2.4737258 -1.0901471
-7.8444424 0.32192034 -2.1036813
-9.0694666 0.37536606 -2.095644
-10.835663 0.4503569 -2.108058
-13.379333 0.56075948 -2.1209388
-17.639664 0.74548799 -2.1678119
-29.401131 1.2476918 -2.5745807
-15.742991 0.6763407 3.6379085
-62.268604 2.6860476 -1.0879132
-7.8355517 0.34895891 -2.1016109
-9.0817299 0.40763193 -2.0987935
-10.830102 0.48800385 -2.1072946
-13.377294 0.60745579 -2.1209388
-17.583414 0.80460787 -2.161231
-29.472227 1.3537811 -2.5812044
-15.708978 0.72432929 3.0567603
-20.587677 0.95288312 -1.0801096
-15.742483 0.73138082 3.6383586
-62.063091 2.8942473 -1.0844926
-7.8227077 0.37575203 -2.098505
-9.068572 0.43876579 -2.0960939
-10.812645 0.52504355 -2.1042418
-13.349442 0.6528967 -2.1168714
-17.540844 0.86402768 -2.1563563
-29.375786 1.4521331 -2.5731862
-15.622037 0.77497715 3.0403507
-35.682781 1.7763922 -1.8723713
-15.718423 0.78525871 3.6334093
-62.176437 3.1170795 -1.0866567
-7.8232775 0.40315387 -2.0990226
-9.0630932 0.47021881 -2.0951941
-10.818588 0.56318945 -2.1057682
-13.325382 0.69835413 -2.1134298
-17.490145 0.92273772 -2.1505065
-29.243202 1.5479255 -2.5620303
-15.595711 0.82825458 3.0357714
-35.644451 1.8992383 -1.8706967
-15.698073 0.83918566 3.6293602
-7.8198938 0.43035379 -2.098505
-9.0555601 0.50152689 -2.0938444
-10.812636 0.60073245 -2.105005
-13.322864 0.74486446 -2.1134298
-17.453125 0.9818933 -2.146363
-29.181923 1.6468513 -2.5571494
-15.608406 0.88357311 3.0388241
-35.892841 2.0381434 -1.8840945
-15.681428 0.89320177 3.6262109
-62.205067 3.5540278 -1.0875641
-7.8164148 0.457535 -2.0979872
-9.0634804 0.53370667 -2.0960939
-10.800674 0.6378935 -2.1030967
-13.308352 0.79065973 -2.1115527
-17.417887 1.0409157 -2.1424632
-29.251572 1.7532288 -2.5637734
-15.632662 0.9397046 3.0441668
-36.224426 2.1838536 -1.9018887
-15.672379 0.94757855 3.6248612
-61.941437 3.745084 -1.0831661
-7.8051305 0.48422062 -2.0953991
-9.0577707 0.56351763 -2.0951941
-10.780746 0.67449051 -2.0996623
-13.3096 0.83503532 -2.1121783
-17.378679 1.0964208 -2.1380758
-29.058363 1.8434683 -2.5473878
-15.662768 0.99364913 3.0506544
-36.456173 2.3191838 -1.9144495
-15.533017 0.99086136 3.5933683
-61.927986 3.9612787 -1.0831661
-7.7996259 0.5098452 -2.0943637
-9.0576925 0.59525973 -2.095644
-10.782369 0.71049052 -2.1004255
-13.294778 0.88070643 -2.1103013
-17.261845 1.1495547 -2.1241827
-28.368233 1.8941588 -2.4874249
-36.380104 2.44187 -1.9108906
-15.533351 1.0453377 3.5942678
-61.91378 4.1774402 -1.0831661
-7.7997265 0.53720272 -2.0948815
-9.0438967 0.62606406 -2.0929446
-10.773948 0.74771881 -2.0992808
-13.275858 0.92600924 -2.1077983
-17.230003 1.2078599 -2.1207705
-28.309772 1.98954 -2.4828928
-36.275726 2.5620923 -1.9058663
-15.549047 1.1009334 3.598767
-61.799091 4.3864422 -1.0814209
-7.8055105 0.56498367 -2.096952
-9.0280504 0.65663999 -2.0897954
-10.777145 0.78575087 -2.1004255
-13.264664 0.97176808 -2.1065466
-17.201925 1.266248 -2.1178455
-28.302656 2.0883482 -2.4828928
-36.35022 2.6949055 -1.9102625
-15.587862 1.1583768 3.6086645
-61.88311 4.6095634 -1.0831661
-7.7996383 0.59193438 -2.0959167
-9.0237598 0.68800396 -2.0893452
-10.746932 0.82127142 -2.0950828
-13.257253 1.0177624 -2.105921
-17.189486 1.3256723 -2.1168706
-20.099041 1.5535939 -1.7636836
-36.675125 2.8477519 -1.9278475
-15.574012 1.2120261 3.6064155
-7.7801919 0.61777866 -2.0912578
-9.0271311 0.71996361 -2.0906951
-10.728344 0.85752648 -2.09203
-13.24968 1.0637168 -2.1052952
-17.180794 1.385352 -2.1163833
-20.121302 1.6259906 -1.766124
-36.903843 2.9951437 -1.940408
-7.7799139 0.64509279 -2.0917757
-9.0167942 0.75082105 -2.0888956
-10.725286 0.89497054 -2.09203
-13.226202 1.1083082 -2.1021667
-17.148163 1.4429859 -2.1129708
-20.949345 1.7665256 -1.8393347
-37.127998 3.1438296 -1.9527593
-7.7737651 0.67191511 -2.0907402
-9.0044117 0.78144878 -2.0866458
-10.726007 0.93274629 -2.0927932
-13.202574 1.1527514 -2.0990379
-17.158838 1.5042186 -2.1149206
-27.095768 2.3800983 -2.3797004
-37.455021 3.3032322 -1.9705535
-7.7771449 0.6995641 -2.0922933
-9.00177 0.81130451 -2.0866458
-10.722687 0.97017908 -2.0927932
-13.194743 1.1961702 -2.098412
-17.153757 1.5611117 -2.1149206
-26.912693 2.4587214 -2.364361
-37.873478 3.4667456 -1.9931629
-15.346235 1.4074172 3.5578258
-7.7651649 0.72445321 -2.089705
-8.9988832 0.84272188 -2.0866458
-10.707682 1.0046315 -2.0905035
-13.194421 1.2425921 -2.0990379
-17.144251 1.6206069 -2.1144333
-26.927746 2.5549016 -2.3664527
-15.321143 1.4536684 2.9915035
-38.163364 3.6276562 -2.0090728
-7.7393827 0.75067121 -2.0834932
-8.9997673 0.874506 -2.0875459
-10.703927 1.0438706 -2.0905035
-13.170119 1.2890197 -2.0959091
-17.130587 1.6796672 -2.1134584
-25.455349 2.5048873 -2.2378109
-15.325482 1.5107769 2.9934118
-38.436024 3.7957735 -2.0241456
-15.289228 1.5125916 3.5470283
-7.7444043 0.77845335 -2.0855639
-8.9945621 0.9072904 -2.087096
-10.684592 1.0796466 -2.0874505
-13.173401 1.3357818 -2.0971608
-17.116415 1.7416393 -2.1124835
-26.913219 2.7432346 -2.3668013
-15.27324 1.5594815 2.9842527
-39.884895 4.0794902 -2.1011841
-15.26253 1.5637672 3.5420792
-7.764698 0.80788279 -2.0917757
-8.9816494 0.93766814 -2.0848465
-10.676854 1.1165308 -2.0866873
-13.145082 1.3792809 -2.0934062
-17.102335 1.8005451 -2.1115084
-22.318516 2.353641 -1.9634446
-15.244275 1.6103075 2.9796736
-40.148476 4.2481127 -2.1158383
-15.231787 1.6143681 3.5362306
-7.7560678 0.83436203 -2.0902226
-8.9705715 0.96817803 -2.0830467
-10.680697 1.1546373 -2.0882137
-13.144114 1.4255868 -2.094032
-17.072264 1.8576519 -2.1085835
-22.3062 2.4311068 -1.9630958
-15.211238 1.6605277 2.9743307
-40.502693 4.4286013 -2.1353073
-15.202813 1.6649779 3.5308318
-8.9574528 0.99840832 -2.0807972
-10.657092 1.1897327 -2.0843976
-13.119427 1.4692614 -2.0909033
-17.034113 1.9136884 -2.1046836
-22.301538 2.5094016 -1.9634446
-15.179987 1.7107533 2.9693696
-15.173672 1.715409 3.5254331
-7.7346997 0.88672715 -2.0860815
-8.9597225 1.0303357 -2.0821469
-10.652874 1.2269258 -2.0843976
-13.114219 1.5150452 -2.0909033
-17.019444 1.9722277 -2.1037087
-24.105503 2.7976301 -2.1231139
-15.162223 1.7623714 2.9670801
-15.136621 1.7647541 3.5182345
-7.7258024 0.913041 -2.0845287
-8.9620609 1.0607289 -2.0834966
-10.640728 1.2631783 -2.082871
-13.099315 1.5573596 -2.089339
-17.008865 2.0281858 -2.1032214
-25.195524 3.0133002 -2.220031
-15.117309 1.8079793 2.9594479
-15.107468 1.8121549 3.5128357
-7.7227321 0.93865591 -2.0845287
-8.9466972 1.0905913 -2.0807972
-10.63648 1.2984577 -2.082871
-13.074191 1.6006751 -2.0862103
-16.98592 2.0856106 -2.1012714
-25.276356 3.108021 -2.2280493
-15.081676 1.8571388 2.9537234
-35.505959 4.3784585 -1.8748834
-15.070105 1.8610541 3.5056372
-7.719409 0.96560597 -2.0845287
-8.9333649 1.119043 -2.0785477
-10.627988 1.3350865 -2.0821078
-13.062932 1.6432828 -2.0852716
-16.947399 2.1379519 -2.0973716
-25.289072 3.1992342 -2.2301412
-15.052062 1.9041851 2.9491439
-35.443687 4.4901533 -1.8723713
-15.032919 1.9070946 3.4984388
-7.7253971 0.99512851 -2.0871167
-8.9328661 1.1538355 -2.0794475
-10.626917 1.3745373 -2.082871
-13.046731 1.6921583 -2.0837073
-16.935129 2.2024894 -2.0968843
-25.356205 3.3021946 -2.2371135
-15.032959 1.9604436 2.9468544
-35.33112 4.6138 -1.867347
-15.05447 1.9685929 3.5051873
-7.7123013 1.02082 -2.0845287
-8.9270592 1.1831959 -2.0789976
-10.602592 1.4090353 -2.0790551
-13.041048 1.7354139 -2.0837073
-16.915924 2.2570653 -2.0954216
-24.590153 3.289762 -2.1705265
-15.131455 2.0243423 2.9674616
-35.26812 4.7245655 -1.8648349
-15.167607 2.0345681 3.5330811
-7.7031302 1.0456101 -2.0829759
-8.9209442 1.2140876 -2.0785477
-10.605643 1.4452477 -2.0805814
-13.025125 1.7795885 -2.0821428
-16.900078 2.3150225 -2.0944467
-23.97904 3.2889829 -2.1175358
-35.219757 4.8432927 -1.8631603
-7.6917801 1.0714267 -2.0809052
-8.9050713 1.2436031 -2.0758483
-10.596645 1.481716 -2.0798182
-12.995358 1.8217533 -2.0783885
-16.872234 2.371238 -2.0920093
-23.95163 3.3704448 -2.1161413
-35.135395 4.9567184 -1.8596014
-7.6899061 1.098543 -2.081423
-8.8948889 1.2738494 -2.0744987
-10.587522 1.5181392 -2.0790551
-12.994785 1.8679448 -2.0793271
-16.836348 2.4261553 -2.0885971
-24.610188 3.5507617 -2.1754072
-35.042763 5.0684705 -1.8556238
-7.689847 1.1259409 -2.0824583
-8.8923159 1.3051738 -2.0749483
-10.574387 1.5539484 -2.0775285
-12.968643 1.9104153 -2.0761983
-16.823849 2.4843271 -2.0881095
-24.510921 3.6238248 -2.1677377
-35.016956 5.1895828 -1.8552052
-7.6877804 1.1530615 -2.0829759
-8.8722897 1.3338904 -2.0713491
-10.568899 1.5908482 -2.0775285
-12.963849 1.9559708 -2.0765114
-16.78367 2.5382893 -2.0842097
-24.322796 3.6828218 -2.1522238
-34.978882 5.3087873 -1.8541584
-7.6607952 1.1763716 -2.0767641
-8.8695059 1.365147 -2.071799
-10.555519 1.6265351 -2.0760019
-12.941324 1.9987962 -2.0740085
-16.774708 2.596864 -2.0842097
-24.177879 3.7472515 -2.1405451
-34.912769 5.4235053 -1.8516463
-7.6604595 1.2037055 -2.0777996
-8.856987 1.3948865 -2.0699997
-10.542022 1.6621482 -2.0744755
-12.914758 2.040875 -2.0708797
-16.753777 2.6535358 -2.0827472
-24.060358 3.8150887 -2.1313064
-34.846283 5.5378094 -1.8491341
-7.6600256 1.2310497 -2.0788348
-8.8715515 1.4273454 -2.0744987
-10.547785 1.7008095 -2.0767653
-12.907919 2.0836909 -2.0708797
-16.725288 2.7059093 -2.0803099
-23.946592 3.8827891 -2.1224165
-25.648634 4.1633587 -1.3617817
-7.653995 1.2561318 -2.0783172
-8.8492098 1.4554582 -2.0704496
-10.534337 1.7345023 -2.0752387
-12.884974 2.1261628 -2.0683768
-16.715742 2.7642756 -2.0803099
-23.890339 3.9550195 -2.1185818
-25.633945 4.2528644 -1.3617817
-7.6400371 1.2812442 -2.0757289
-8.8459969 1.4866599 -2.0708995
-10.524347 1.7706151 -2.0744755
-12.883319 2.1721094 -2.0693154
-16.682505 2.8186395 -2.0773852
-23.868532 4.0370541 -2.1178844
-7.6355181 1.3079072 -2.0757289
-8.8349924 1.5165405 -2.0695498
-31.317415 5.3813186 1.6653303
-10.510363 1.8060113 -2.0729489
-12.86787 2.2157266 -2.0680637
-16.664738 2.8755012 -2.0764101
-23.866074 4.1223874 -2.1189303
-31.232843 5.4173059 -0.55331111
-7.6251969 1.3335521 -2.0741758
-31.169142 5.4567008 0.55233377
-8.8258047 1.5467006 -2.0686498
-31.160738 5.4664407 1.6580033
-10.492392 1.8406508 -2.0706592
-31.138758 5.4681869 2.7659745
-12.848383 2.2585819 -2.0661867
-31.14793 5.4810052 3.8832452
-16.642868 2.9315889 -2.0749476
-31.131697 5.4893594 5.0068421
-23.765205 4.1904483 -2.1112607
-31.150436 5.4982624 6.1486297
-14.779806 2.614059 3.4651458
-31.194052 5.5228028 -0.55296206
-7.6204958 1.3601611 -2.0741758
-24.968744 4.4610982 0.44273266
-8.8126793 1.5761248 -2.0668504
-31.231901 5.5913696 1.6628182
-10.4917 1.8783031 -2.0718043
-31.201847 5.5916095 2.7732956
-12.830701 2.3016708 -2.0646224
-31.241932 5.6100483 3.897382
-16.628626 2.9889677 -2.0744603
-23.711216 4.2663174 -2.1077745
-31.150379 5.610445 6.1524458
-14.688129 2.650749 3.4458003
-7.619503 1.3874458 -2.0752113
-24.960888 4.5496631 0.44287229
-8.8032894 1.6061778 -2.0659504
-31.259348 5.7089682 1.6653303
-10.465767 1.9113877 -2.0679879
-12.816758 2.3453777 -2.0636837
-16.582945 3.0405462 -2.0700727
-23.421827 4.2987065 -2.0833709
-24.91152 4.5811048 -1.3274493
-14.661537 2.6988294 3.4417512
-24.932438 4.593955 -0.44252321
-7.6070161 1.4126217 -2.0731406
-24.858351 4.6206861 0.44133648
-8.7995453 1.6372541 -2.0664005
-31.17247 5.8056159 1.6617714
-10.462892 1.9486275 -2.0687513
-12.794901 2.3875661 -2.0614936
-16.564426 3.0969543 -2.0690978
-23.289173 4.358448 -2.072912
-14.765981 2.7660477 2.920141
-14.646282 2.7489133 3.4404013
-7.5906496 1.4370126 -2.0700347
-24.845999 4.7081752 0.44140628
-8.7918615 1.6675951 -2.0659504
-31.132395 5.9106693 1.6607248
-10.450239 1.9840397 -2.0676064
-12.786489 2.4322114 -2.0614936
-16.545715 3.1532702 -2.0681231
-23.230762 4.431509 -2.0690773
-14.71574 2.8098383 2.912127
-14.674877 2.8073487 3.4493995
-7.5912781 1.4645983 -2.0715878
-24.801926 4.7895617 0.44091761
-8.7802477 1.6971672 -2.0646007
-31.135103 6.0238585 1.6619809
-10.44325 2.0205059 -2.0676064
-12.77792 2.4768333 -2.0614936
-16.526812 3.2094886 -2.067148
-23.215153 4.5125675 -2.0690773
-14.605631 2.8416917 2.892283
-14.703243 2.8660102 3.4583974
-7.5861197 1.4910864 -2.0715878
-8.7647095 1.7259234 -2.0623512
-31.059019 6.1216826 1.65905
-10.432281 2.056186 -2.0668433
-12.751756 2.517978 -2.0586779
-16.488243 3.2617695 -2.0637355
-23.111311 4.5761623 -2.0612333
-14.566735 2.8869295 2.8865585
-14.737112 2.9260459 3.4687452
-7.5789742 1.5171788 -2.0710702
-8.7548103 1.7557392 -2.0614514
-30.970881 6.2166982 1.6554911
-10.421189 2.0918162 -2.0660799
-12.744825 2.5628612 -2.0589907
-16.449514 3.3138168 -2.0603232
-14.573891 2.9412553 2.8899932
-7.5736322 1.5436252 -2.0710702
-8.7562656 1.7878482 -2.0632513
-30.960732 6.3271766 1.6561191
-10.394589 2.1242521 -2.0622637
-12.731931 2.6065412 -2.0583651
-30.803837 6.3119168 3.8608212
-16.430069 3.369621 -2.0593483
-23.158817 4.753818 -2.0683799
-14.596227 2.9988303 2.8964806
-14.617072 3.0084271 3.4453504
-7.554956 1.5673059 -2.0674467
-8.7499714 1.8184025 -2.0632513
-10.383267 2.159724 -2.0615005
-12.711151 2.6485507 -2.0564878
-16.414322 3.4261379 -2.0588608
-14.620259 3.0569954 2.9033499
-14.497762 3.036664 3.4197059
-7.5475488 1.5932693 -2.0669291
-8.7416639 1.8485335 -2.0628011
-10.383348 2.1975787 -2.0630269
-12.705693 2.6937277 -2.0571134
-16.390612 3.4809399 -2.0573983
-23.05101 4.8996463 -2.0617564
-14.651747 3.1169956 2.9117455
-28.364374 6.0393777 -1.5198363
-14.464202 3.0823786 3.4143071
-7.5457191 1.620417 -2.0679643
-8.7027712 1.8720679 -2.0551529
-10.367938 2.2321577 -2.0615005
-12.673041 2.7330623 -2.053359
-16.362837 3.5347834 -2.0554485
-23.018188 4.9767056 -2.0603616
-28.245518 6.1172209 -1.5146027
-14.464783 3.1353233 3.4170065
-7.5400171 1.646745 -2.0679643
-8.7152195 1.9065994 -2.0596519
-10.360083 2.268333 -2.0615005
-12.661494 2.7768602 -2.0530462
-16.334888 3.5884681 -2.0534985
-22.973434 5.0510349 -2.0579214
-28.243498 6.2200685 -1.5156494
-14.486103 3.1929266 3.424655
-7.5210214 1.6701232 -2.0643408
-8.7066088 1.9365869 -2.059202
-10.340603 2.3019257 -2.0592108
-12.644012 2.8193209 -2.0517945
-16.302889 3.6411388 -2.0510612
-22.924551 5.1242428 -2.0551324
-34.618252 7.750782 -1.8591827
-14.516703 3.2528477 3.4345527
-7.5151453 1.6963683 -2.0643408
-8.686491 1.9639566 -2.0560527
-10.332505 2.3380072 -2.0592108
-12.626389 2.8616903 -2.0505433
-16.290079 3.698025 -2.0510612
-22.871552 5.1962881 -2.0519948
-34.6572 7.8866444 -1.8627416
-14.543262 3.3121557 3.4435506
-7.5129442 1.7234548 -2.065376
-8.6700859 1.9920866 -2.053803
-10.322367 2.3736205 -2.0588293
-12.612472 2.9048638 -2.0499175
-16.265467 3.7521849 -2.0495987
-22.83386 5.2716117 -2.0502515
-34.77346 8.0408621 -1.8704872
-57.267197 13.263289 -1.0260619
-7.4993572 1.7479138 -2.0633056
-8.6592836 2.0214529 -2.0529034
-10.312107 2.409189 -2.0584474
-12.583021 2.9443717 -2.0467887
-16.232941 3.8044136 -2.0471613
-22.784285 5.3440061 -2.0474627
-34.795727 8.1740799 -1.8732086
-7.4894505 1.7731909 -2.0622702
-8.6559677 2.0525646 -2.053803
-10.305545 2.4456239 -2.0588293
-12.56498 2.9864469 -2.0455372
-16.196388 3.8555379 -2.0442364
-22.761618 5.4225774 -2.0471141
-34.766983 8.2954903 -1.8732086
-56.860504 13.577536 -1.0204073
-7.4794579 1.7984198 -2.061235
-8.6377449 2.0785224 -2.0511036
-10.277859 2.476985 -2.0550129
-12.555006 3.0280976 -2.0455372
-16.175797 3.9073622 -2.0432615
-22.723183 5.497313 -2.0453708
-7.4678226 1.8218396 -2.0596819
-8.636117 2.110049 -2.0524535
-10.263867 2.5096531 -2.0538683
-12.529011 3.0681458 -2.0430343
-16.158205 3.9628537 -2.0427742
-22.65452 5.5602889 -2.0408387
-7.4632936 1.8483589 -2.0601997
-8.6211329 2.1383054 -2.0506537
-10.247422 2.5435736 -2.0523417
-12.504806 3.108526 -2.0408442
-16.12886 4.0153956 -2.0408242
-22.65044 5.643188 -2.0422332
-7.4530487 1.8734593 -2.0591643
-8.6003876 2.1650538 -2.0475044
-10.246097 2.5812471 -2.0538683
-12.493878 3.1521544 -2.0408442
-16.09165 4.0658364 -2.0378993
-22.594837 5.7173715 -2.0390959
-7.4480042 1.9012399 -2.0596819
-8.5890017 2.1940994 -2.0466046
-10.228959 2.6168351 -2.0523417
-12.478414 3.1969485 -2.0402186
-16.061977 4.1180348 -2.0359495
-22.540005 5.7872882 -2.0359581
-34.578232 8.8910446 -1.8711153
-7.4319715 1.924805 -2.0570939
-8.5846748 2.2265413 -2.0475044
-10.21216 2.6505547 -2.0508151
-12.461443 3.2389932 -2.0392799
-16.027567 4.1718807 -2.0335121
-22.484962 5.8568883 -2.0328205
-7.4102592 1.9468106 -2.0529528
-8.573082 2.2555027 -2.0466046
-10.202846 2.6861858 -2.0508151
-12.43478 3.2784436 -2.036777
-16.016745 4.2288122 -2.0339994
-22.460527 5.9343281 -2.0324719
-14.253315 3.7791975 3.9511318
-7.4052854 1.9731613 -2.0534704
-8.5519753 2.2819002 -2.0434554
-10.189614 2.7207689 -2.0500519
-12.415627 3.3197918 -2.0355256
-15.998052 4.283669 -2.0335121
-22.401186 6.0023804 -2.0289855
-14.161683 3.8078599 3.9293909
-7.4058132 2.0010147 -2.055541
-8.5364342 2.3097003 -2.0416558
-10.180055 2.756321 -2.0500519
-12.396338 3.3610396 -2.0342741
-15.967672 4.3353295 -2.0315621
-22.364716 6.0763602 -2.0275912
-7.3987827 2.0268536 -2.055541
-8.5414753 2.3430929 -2.044805
-10.159013 2.7887216 -2.0477622
-12.384529 3.4042904 -2.0342741
-15.929476 4.3847194 -2.0286372
-22.32032 6.148037 -2.0254996
-27.867704 7.6865139 -1.5150214
-14.206195 3.9237108 3.9490612
-7.3860784 2.0511155 -2.053988
-8.5374136 2.3724484 -2.0457051
-10.137867 2.8210108 -2.0454724
-12.365561 3.4432216 -2.0330224
-29.490658 8.2172947 3.7589383
-15.903376 4.4343214 -2.0271747
-22.298723 6.2259126 -2.0254996
-14.270546 3.995151 3.9708021
-7.3569198 2.0693204 -2.0477762
-8.5253277 2.4011786 -2.044805
-10.126568 2.8540766 -2.0450909
-12.349664 3.4852917 -2.0323968
-29.408304 8.3050737 3.7521138
-15.883979 4.4887238 -2.0266874
-22.224274 6.2846437 -2.0206187
-14.156157 4.0164628 3.9428496
-7.3552256 2.0965774 -2.0493293
-8.5131474 2.4298515 -2.0439053
-10.124094 2.891567 -2.0466175
-12.322229 3.5240309 -2.0298939
-29.413486 8.4175158 3.756501
-15.856763 4.540863 -2.0252249
-29.481184 8.4480238 4.8572907
-22.194536 6.3599882 -2.0199213
-14.168042 4.0733256 3.9500966
-7.3478618 2.122241 -2.0493293
-8.4952536 2.4568465 -2.0416558
-10.108281 2.9252522 -2.0454724
-48.46032 14.033165 4.4139152
-12.309853 3.5670226 -2.0298939
-29.532635 8.5632572 3.7755127
-15.848443 4.5983992 -2.0262001
-22.141586 6.4285345 -2.0171325
-34.026638 9.8920908 -1.8570893
-14.138898 4.1184349 3.9459553
-7.3459716 2.149503 -2.0508821
-8.4810143 2.484844 -2.0403061
-10.098008 2.9605188 -2.0454724
-12.289744 3.6077478 -2.0286424
-15.805634 4.6458526 -2.0227876
-22.130482 6.5091581 -2.0181785
-33.926762 9.9916134 -1.8535303
-7.3328667 2.1734855 -2.0493293
-8.4741573 2.5149879 -2.040756
-10.072557 2.9912763 -2.0424197
-12.277076 3.650625 -2.0286424
-15.766487 4.6942024 -2.0198627
-22.069437 6.5749912 -2.0146921
-33.910812 10.115698 -1.8545771
-7.3122835 2.1951807 -2.0457058
-8.4653282 2.5445511 -2.040756
-10.048894 3.02246 -2.0397482
-12.243453 3.6871896 -2.0252008
-15.750005 4.7492099 -2.0198627
-22.01202 6.641624 -2.0115545
-33.833237 10.221301 -1.8522744
-7.3027287 2.2201283 -2.0451882
-8.4508009 2.5723827 -2.0394061
-10.038282 3.0575213 -2.0397482
-12.224839 3.7281764 -2.0242622
-15.714346 4.7983575 -2.0174253
-21.984888 6.7172561 -2.0112059
-33.835548 10.351017 -1.8543679
-7.2949338 2.2456081 -2.0451882
-8.4305964 2.5984204 -2.0367069
-10.029424 3.0931191 -2.0401299
-52.110817 16.081167 4.7712541
-12.213638 3.7714093 -2.024575
-15.653882 4.8396969 -2.0118194
-21.938465 6.7868972 -2.0091143
-33.79921 10.469063 -1.8543679
-7.2870507 2.2710588 -2.0451882
-8.4158936 2.6260936 -2.0353572
-10.016692 3.1275249 -2.0397482
-12.187201 3.8098948 -2.0223849
-15.642575 4.8960886 -2.0125504
-21.884222 6.8539023 -2.006325
-27.576361 8.6471901 -1.5146027
-7.268024 2.292994 -2.0420823
-8.4141092 2.6578028 -2.0371568
-9.9907379 3.1577375 -2.0366955
-12.170061 3.8512208 -2.0217593
-15.614037 4.9470649 -2.0110881
-21.837372 6.9230261 -2.0042334
-7.2489347 2.3148227 -2.0389764
-8.3973551 2.6847835 -2.0353572
-9.9721756 3.1901972 -2.0351689
-12.156544 3.8936796 -2.0217593
-15.596672 5.0015383 -2.0110881
-21.775131 6.9870367 -2.0007472
-7.246325 2.3418946 -2.0405295
-8.3768082 2.7104781 -2.0326576
-9.9628468 3.2255948 -2.0355504
-12.120329 3.9287779 -2.0180049
-15.56779 5.0522747 -2.0096257
-21.735451 7.0580759 -1.9993527
-7.2381053 2.3671768 -2.0405295
-8.356184 2.736064 -2.0299582
-9.9421978 3.2572961 -2.0336425
-12.106542 3.9710624 -2.0180049
-15.527428 5.0991497 -2.0067008
-21.687965 7.1264462 -1.9972609
-27.361876 9.0014114 -1.5095785
-7.2279649 2.3918197 -2.0400119
-8.3502817 2.7664437 -2.0308583
-9.9233131 3.2895076 -2.0321159
-12.085105 4.0108118 -2.0167532
-15.501998 5.150816 -2.0057259
-21.662956 7.2021079 -1.9972609
-27.387136 9.1157913 -1.5127187
-7.2342272 2.4219418 -2.044153
-8.3368788 2.7943344 -2.0299582
-9.9043255 3.32163 -2.0305893
-12.072906 4.0535989 -2.0170662
-15.476397 5.2023706 -2.004751
-21.615025 7.2700562 -1.9951692
-7.2019424 2.4391234 -2.0374236
-8.3326101 2.8252959 -2.0313082
-9.8963881 3.3574438 -2.0313528
-12.041847 4.0899992 -2.0142503
-15.450625 5.2538023 -2.0037761
-21.563108 7.3364782 -1.9927288
-7.1952124 2.4648728 -2.0379412
-8.3061066 2.8486755 -2.0272589
-9.8660383 3.3855965 -2.0275364
-12.016288 4.1281576 -2.0123732
-15.417175 5.3025384 -2.001826
-21.492155 7.3961444 -1.9885454
-7.1956906 2.4931378 -2.0405295
-8.2984562 2.8768427 -2.027709
-9.8652897 3.4238772 -2.0298262
-11.9988 4.1666865 -2.0117474
-15.380754 5.347116 -1.9993886
-21.47373 7.4737463 -1.9892427
-33.226669 11.570748 -1.8439007
-7.2001462 2.5214558 -2.044153
-8.2718134 2.8999877 -2.0236597
-9.8409119 3.452024 -2.0271549
-11.96741 4.202652 -2.0089316
-15.350761 5.3968229 -1.9979262
-21.413685 7.536747 -1.9861051
-33.250134 11.709217 -1.8474596
-7.1835728 2.5452461 -2.0420823
-8.2653131 2.9301467 -2.0245595
-9.8263445 3.487411 -2.0267732
-11.957509 4.2484732 -2.0098703
-15.328089 5.4490414 -1.9974388
-21.379736 7.6087766 -1.9854077
-33.184414 11.822963 -1.8462033
-7.1710072 2.5690031 -2.0410471
-8.2600212 2.9623945 -2.0259092
-9.815959 3.5223534 -2.0271549
-11.931453 4.2861776 -2.007993
-15.304278 5.5038452 -1.9969513
-21.304304 7.6658211 -1.9808756
-33.165493 11.946851 -1.8474596
-7.1638126 2.5946772 -2.0415647
-8.2446556 2.9877779 -2.0245595
-9.8072939 3.5579376 -2.0279181
-11.904176 4.3210025 -2.0058029
-15.289672 5.555922 -1.9974388
-21.249332 7.7299199 -1.9782611
-33.118183 12.054033 -1.8470407
-7.162426 2.6210749 -2.0436354
-8.2231979 3.0125172 -2.0218601
-9.7788525 3.5843577 -2.0244837
-11.877892 4.3584471 -2.0039258
-28.242807 10.368944 3.694104
-15.232919 5.5955701 -1.9925638
-21.240412 7.8065295 -1.9798299
-33.09465 12.176461 -1.8480874
-7.156857 2.6474013 -2.0446706
-8.2144585 3.0418801 -2.02231
-9.762599 3.6171088 -2.0237205
-11.864458 4.4005694 -2.0042386
-28.12455 10.437085 3.6833792
-15.198407 5.643178 -1.9906142
-21.16074 7.8611979 -1.9749491
-33.089382 12.305825 -1.8501809
-7.147572 2.6723673 -2.0446706
-8.2348175 3.0821464 -2.0299582
-9.7388821 3.6470315 -2.0214307
-11.852723 4.4433475 -2.0048645
-28.11025 10.543554 3.6863041
-15.167464 5.6920114 -1.9891516
-21.0455 7.9021034 -1.9667566
-7.1309714 2.6945693 -2.0425999
-8.2112494 3.1060483 -2.026809
-9.7297649 3.6823943 -2.0221939
-11.827907 4.4811921 -2.0033
-28.192074 10.686646 3.7019036
-15.140079 5.7421055 -1.9881767
-7.1251321 2.7208216 -2.0436354
-8.2003574 3.1346922 -2.026809
-9.7131844 3.7149305 -2.0214307
-11.801123 4.5182142 -2.0014229
-15.123651 5.7963409 -1.9886642
-7.1246023 2.7491539 -2.0462234
-8.1875477 3.162596 -2.0263591
-9.7111454 3.7530599 -2.0237205
-11.788963 4.5608063 -2.0020485
-15.095921 5.84623 -1.9876893
-20.944878 8.115571 -1.9651875
-7.1239614 2.7775173 -2.0488117
-8.1819048 3.1932802 -2.027709
-9.701642 3.7883656 -2.0244837
-11.769293 4.6004887 -2.0014229
-15.049541 5.888762 -1.9842769
-20.905291 8.1842718 -1.9641418
-26.627035 10.435019 -1.4987972
-7.1070333 2.7995358 -2.046741
-8.1761465 3.2239656 -2.0290585
-9.6682701 3.8142827 -2.0202856
-11.743976 4.6379185 -1.9998584
-15.025202 5.939796 -1.9837892
-20.850657 8.2469406 -1.9617014
