# .PCD v0.7 - Point Cloud Data file format
VERSION 0.7
FIELDS x y z
SIZE 4 4 4
TYPE F F F
COUNT 1 1 1
WIDTH 1444
HEIGHT 1
VIEWPOINT 0 0 0 1 0 0 0
POINTS 1444
DATA ascii
-0.82372254 -0.47864854 0.049928509
-0.82497543 -0.47937658 -0.18546635
-0.79767764 -0.46332815 0.080706216
-0.82169628 -0.47708726 -0.15048997
-0.7571457 -0.439432 0.10748877
-0.82247066 -0.47715336 -0.11675084
-0.84798372 -0.49175665 -0.085761249
-0.83294731 -0.4826484 -0.050451867
-0.8047123 -0.46591288 -0.016230738
-0.8550058 -0.49343896 -0.26451308
-0.79678261 -0.45965171 0.016056214
-0.81369716 -0.46922049 -0.21685281
-0.82884908 -0.47776511 0.050137851
-0.80623281 -0.46472862 -0.18088694
-0.79756385 -0.45954603 0.080531903
-0.82164466 -0.47323033 -0.15017711
-0.75695473 -0.43579596 0.10724504
-0.84477764 -0.48616105 -0.1196757
-0.83069783 -0.47786555 -0.083843827
-0.82077432 -0.47177547 -0.049614493
-0.81153589 -0.4660888 -0.016335452
-0.83660412 -0.47893414 -0.25830141
-0.7966466 -0.45587462 0.016021309
-0.79672301 -0.45573378 -0.21190389
-0.83051175 -0.47486895 0.050137851
-0.81296301 -0.46483499 -0.1820318
-0.8043524 -0.45972538 0.081054844
-0.81300044 -0.46447992 -0.14829989
-0.75674754 -0.43216658 0.10700129
-0.81026602 -0.46254262 -0.11455719
-0.83928275 -0.47891268 -0.084541067
-0.81374067 -0.46396142 -0.04909113
-0.82532066 -0.47018194 -0.016579786
-0.82642972 -0.46947742 -0.25467795
-0.81380403 -0.46211717 0.016335452
-0.79992467 -0.4540512 -0.2123538
-0.80255073 -0.45535666 0.048358425
-0.81791514 -0.46407419 -0.18279503
-0.80760556 -0.45803836 0.08122915
-0.82828367 -0.46957508 -0.15080284
-0.75817651 -0.42965469 0.10700129
-0.79797763 -0.4520258 -0.11260728
-0.83566505 -0.47318175 -0.084018134
-0.81701314 -0.46224391 -0.049195804
-0.79205936 -0.44776085 -0.015881689
-0.83142954 -0.46848667 -0.25571322
-0.81889683 -0.46123633 0.016405262
-0.80490094 -0.45316827 -0.2132536
-0.81457865 -0.45842996 0.048986461
-0.79215533 -0.44581053 -0.17668915
-0.80572659 -0.45326278 0.08088053
-0.82819599 -0.46571273 -0.15048997
-0.76486307 -0.42992356 0.10773251
-0.80301189 -0.45118231 -0.11309476
-0.82341444 -0.4624567 -0.082623646
-0.83081394 -0.46623111 -0.049928509
-0.79187334 -0.44401532 -0.015846785
-0.82800084 -0.46275395 -0.25416031
-0.82923061 -0.46325135 0.016579786
-0.80988061 -0.45225626 -0.21415339
-0.82838178 -0.46239781 0.049719162
-0.79884958 -0.44591314 -0.17783399
-0.80556399 -0.44947672 0.080706216
-0.82809126 -0.4618569 -0.15017711
-0.77502835 -0.43208423 0.1089512
-0.80284798 -0.44741023 -0.11285102
-0.82684463 -0.46040487 -0.082797952
-0.83767176 -0.46624216 -0.050242521
-0.80390412 -0.44707987 -0.016056214
-0.83476067 -0.4625251 -0.25571322
-0.81160194 -0.44969332 0.016195834
-0.81315917 -0.45037067 -0.2146033
-0.82474875 -0.45660126 0.04940515
-0.8056317 -0.44583419 -0.17897885
-0.80894947 -0.44748557 0.08088053
-0.82632118 -0.45690674 -0.14955136
-0.77653193 -0.42937621 0.1089512
-0.82004106 -0.45324761 -0.11504468
-0.83367896 -0.46040538 -0.083320886
-0.81489325 -0.44965971 -0.048777115
-0.8177169 -0.45103166 -0.016300548
-0.83975619 -0.46146914 -0.2567485
-0.81324482 -0.44671541 0.016195834
-0.80626345 -0.44269764 -0.2123538
-0.83158958 -0.45660356 0.049719162
-0.82267272 -0.45152071 -0.1824134
-0.80351937 -0.44082573 0.080183282
-0.81925082 -0.44927058 -0.14798702
-0.76417458 -0.41889375 0.10700129
-0.82866049 -0.45405433 -0.11601962
-0.80207938 -0.43930784 -0.080008969
-0.8041935 -0.44010064 -0.048044413
-0.81226873 -0.44433594 -0.01616093
-0.81931025 -0.44651678 -0.25001919
-0.80945414 -0.4411453 0.016091119
-0.80088192 -0.43629253 -0.21055418
-0.81914592 -0.44605672 0.048881788
-0.81217343 -0.44207594 -0.17974208
-0.80680335 -0.43897069 0.080357596
-0.79817891 -0.43427825 -0.14391972
-0.76207173 -0.41446045 0.10651381
-0.81795329 -0.44466704 -0.11431345
-0.80010641 -0.43460333 -0.079660349
-0.8126694 -0.44124344 -0.048463102
-0.80854166 -0.43863717 -0.016056214
-0.82928312 -0.44839177 -0.25260741
-0.81274813 -0.43926808 0.016126024
-0.79897094 -0.4316417 -0.20965438
-0.81366837 -0.43939853 0.048463102
-0.80672497 -0.43564892 -0.17821561
-0.80124146 -0.4325071 0.079660349
-0.81185919 -0.43805557 -0.1461098
-0.7670083 -0.41368228 0.10700129
-0.80901647 -0.4361572 -0.11285102
-0.81382066 -0.43856397 -0.08088053
-0.80892891 -0.4355635 -0.048149083
-0.79774088 -0.42918003 -0.015811879
-0.82403302 -0.44184265 -0.25053686
-0.81427658 -0.43642834 0.016126024
-0.80906153 -0.4334515 -0.21190389
-0.82224 -0.44032717 0.048881788
-0.79958725 -0.42819613 -0.17630751
-0.79747665 -0.42688677 0.079137415
-0.80641651 -0.4314912 -0.14485833
-0.76844758 -0.41100258 0.10700129
-0.80878335 -0.43239456 -0.11260728
-0.81886107 -0.43759859 -0.08122915
-0.83511025 -0.44590747 -0.049614493
-0.80099851 -0.42733404 -0.015846785
-0.82898176 -0.44077745 -0.25157213
-0.79813713 -0.42419839 0.015776975
-0.80540669 -0.42788208 -0.21055418
-0.82200807 -0.43651757 0.048777115
-0.80801284 -0.42908555 -0.17783399
-0.81480038 -0.43250772 0.080706216
-0.81140774 -0.43052533 -0.14548407
-0.77689236 -0.41203809 0.10797625
-0.79976463 -0.42398995 -0.11114486
-0.81862324 -0.43380445 -0.081054844
-0.79429895 -0.42055976 -0.047102366
-0.80248517 -0.4245356 -0.015846785
-0.82538867 -0.43517807 -0.25001919
-0.82261068 -0.43353018 0.016230738
-0.79655069 -0.41961825 -0.20785476
-0.83059573 -0.43736783 0.049195804
-0.81124282 -0.42717713 -0.17821561
-0.80748969 -0.42502111 0.079834662
-0.79717195 -0.41941249 -0.14266825
-0.76954126 -0.4047038 0.10675755
-0.82759619 -0.43505093 -0.11480093
-0.80602252 -0.42353034 -0.079660349
-0.80814075 -0.42428324 -0.047835067
-0.83229572 -0.43659461 -0.016405262
-0.81491852 -0.42602929 -0.24639574
-0.82411909 -0.43065587 0.016230738
-0.806647 -0.4213464 -0.21010427
-0.83565819 -0.43631482 0.04940515
-0.82317084 -0.42979488 -0.18050532
-0.82309896 -0.42957431 0.08122915
-0.83015603 -0.43307307 -0.14829989
-0.77446949 -0.403851 0.10724504
-0.84319246 -0.43949953 -0.11675084
-0.85343677 -0.44464982 -0.084192447
-0.86276454 -0.44912684 -0.050975226
-0.82317019 -0.42815021 -0.016195834
-0.85927892 -0.44540808 -0.25933671
-0.83627039 -0.43329617 0.016440166
-0.82195628 -0.42569792 -0.2137035
-0.84249717 -0.43614975 0.049719162
-0.81769216 -0.42330852 -0.17897885
-0.82813245 -0.42852983 0.08157777
-0.84920824 -0.43924817 -0.15142858
-0.77940124 -0.40296829 0.10773251
-0.8323769 -0.43017381 -0.11504468
-0.84082234 -0.43435282 -0.082797952
-0.83238065 -0.42962372 -0.04909113
-0.82110512 -0.42344111 -0.016126024
-0.84880096 -0.43622434 -0.25571322
-0.83066285 -0.42671964 0.016300548
-0.83210498 -0.42727694 -0.21595301
-0.82972515 -0.42605489 0.048881788
-0.82615143 -0.4240374 -0.18050532
-0.84025937 -0.43109357 0.082623646
-0.83667457 -0.42906994 -0.14892563
-0.77727014 -0.39843416 0.10724504
-0.82496625 -0.42288351 -0.11382597
-0.81573337 -0.41779146 -0.080183282
-0.82498533 -0.42216632 -0.048567772
-0.83140641 -0.42526907 -0.016300548
-0.83475256 -0.4255113 -0.25105447
-0.83029163 -0.42305481 0.016265644
-0.81788892 -0.41655555 -0.21190389
-0.83647269 -0.42602038 0.049195804
-0.83805048 -0.42663974 -0.18279503
-0.83103013 -0.42288318 0.08157777
-0.82224655 -0.41823286 -0.1461098
-0.77681756 -0.39495474 0.10700129
-0.85113728 -0.43274084 -0.11723832
-0.8310287 -0.42160514 -0.016265644
-0.83615899 -0.42274079 -0.25105447
-0.83318114 -0.42087016 -0.21550311
-0.85873842 -0.43359199 -0.18699282
-0.88578862 -0.44705611 0.086807117
-0.82186526 -0.41461414 -0.14579694
-0.76926047 -0.38790768 0.1057826
-0.84555203 -0.42619321 -0.11626337
-23.941053 -12.05681 -2.3451867
-0.88128656 -0.44362637 -0.051707931
-7.5583248 -3.7865777 -2.2651844
-9.0695791 -4.5417075 -2.3417406
-0.87787944 -0.43922612 -0.190809
-16.207853 -8.1021376 -2.869947
-0.78481477 -0.39232075 0.10773251
-18.973928 -9.4807367 -2.6043482
-24.082819 -12.022996 -2.354948
-7.5576544 -3.7532966 -2.2610431
-9.0966377 -4.5136318 -2.34444
-14.411727 -7.1477747 -3.1269779
-16.236034 -8.045516 -2.869947
-0.77023774 -0.38151199 0.10553886
-18.994318 -9.4040785 -2.6023982
-24.092497 -11.922956 -2.3518105
-7.5689764 -3.7260411 -2.2605255
-9.1133051 -4.484302 -2.3448899
-14.381969 -7.0705762 -3.1151478
-16.248444 -7.9846606 -2.867444
-0.77149868 -0.37895566 0.10553886
-18.979069 -9.3182974 -2.596061
-24.108927 -11.8265 -2.3493702
-7.5743465 -3.697531 -2.2584553
-9.1341562 -4.4550252 -2.3462396
-14.377104 -7.0090795 -3.1090419
-16.269112 -7.9244337 -2.8661926
-0.77281678 -0.37626031 0.10553886
-19.090019 -9.2902107 -2.6067855
-24.162346 -11.753459 -2.3507648
-33.817997 -16.43573 -1.9705535
-7.6028581 -3.6786413 -2.2631137
-9.146143 -4.4214177 -2.3453398
-14.468655 -6.9913092 -3.1235435
-16.268213 -7.8538547 -2.8611867
-0.7741254 -0.37356052 0.10553886
-19.229609 -9.2752619 -2.6214097
-24.18528 -11.660392 -2.3490217
-33.720417 -16.243042 -1.9615519
-7.6069436 -3.6479032 -2.2605255
-9.1632776 -4.3903084 -2.3457897
-14.478808 -6.9339743 -3.1204903
-1.0351309 -0.49550733 0.10040341
-16.343637 -7.8200436 -2.8696344
-0.77900642 -0.37256882 0.10602634
-19.229631 -9.1926699 -2.6170225
-24.236618 -11.581058 -2.3500674
-0.9372462 -0.44744515 -0.054429401
-7.6196313 -3.6213257 -2.2605255
-9.1838284 -4.3608036 -2.3471394
-14.536621 -6.8993845 -3.1277411
-0.94684935 -0.44919235 0.091687836
-16.326214 -7.741786 -2.8618124
-0.78388971 -0.37154773 0.10651381
-19.25263 -9.1212444 -2.6158037
-24.266094 -11.491262 -2.3490217
-7.6322255 -3.594708 -2.2605255
-63.610706 -29.946497 1.2272183
-9.2095737 -4.3336949 -2.3498387
-14.473565 -6.8076591 -3.1090419
-0.94841158 -0.44588444 0.091687836
-16.303082 -7.661222 -2.8530521
-0.78877532 -0.37049726 0.10700129
-19.331072 -9.0759182 -2.6221409
-24.260969 -11.385326 -2.3446636
-33.953758 -15.919566 -1.96532
-7.6499782 -3.5704954 -2.2620785
-9.210515 -4.2949347 -2.3462396
-0.95220661 -0.44381902 0.055057433
-14.49902 -6.7579246 -3.1094236
-16.387026 -7.6309543 -2.8630638
-0.78106534 -0.36355323 0.1057826
-19.350039 -9.0025187 -2.6204348
-24.259008 -11.281253 -2.3406546
-33.875088 -15.738665 -1.9575744
-7.6682739 -3.5448647 -2.2636313
-63.895992 -29.524094 1.2286144
-9.2297354 -4.2627821 -2.3471394
-14.491607 -6.6899257 -3.1025543
-16.425648 -7.5758057 -2.8649411
-0.78960365 -0.36401233 0.10675755
-19.456821 -8.9656029 -2.6304281
-24.287527 -11.186428 -2.3394344
-34.001492 -15.646135 -1.9615519
-7.6806011 -3.5180755 -2.2636313
-63.939003 -29.287062 1.2275674
-9.2455921 -4.2329626 -2.3475893
-14.46131 -6.6148005 -3.0911059
-16.500984 -7.5442924 -2.8737016
-0.77636242 -0.3547911 0.10480764
-19.432276 -8.8762875 -2.6231158
-24.375366 -11.123915 -2.3441408
-34.067726 -15.539925 -1.9623892
-59.440533 -27.088621 -1.1402006
-7.6887083 -3.490989 -2.2625961
-63.9935 -29.042206 1.2266599
-9.2656336 -4.2030802 -2.3489389
-14.47959 -6.5651865 -3.0903428
-16.548809 -7.4964318 -2.8774559
-0.79387146 -0.35944805 0.10700129
-19.566227 -8.8550549 -2.6370089
-24.42494 -11.043685 -2.3451867
-34.172722 -15.443942 -1.96532
-7.6944027 -3.4596179 -2.2605255
-64.043411 -28.795702 1.2256825
-9.2926931 -4.176301 -2.3520882
-14.573402 -6.543437 -3.1052256
-16.534721 -7.4171276 -2.87026
-0.79331017 -0.35586223 0.10675755
-19.606071 -8.7907667 -2.6382277
-24.463341 -10.958358 -2.3451867
-34.229099 -15.318588 -1.96532
-7.7187843 -3.4382401 -2.264149
-64.152184 -28.562387 1.2257522
-9.3043756 -4.1406312 -2.3511884
-14.529785 -6.4630041 -3.0911059
-16.578558 -7.3673902 -2.8733885
-0.79642332 -0.35375801 0.10700129
-19.680183 -8.7416105 -2.6440775
-24.541506 -10.890683 -2.3490217
-34.348091 -15.228152 -1.9690882
-7.7336788 -3.414185 -2.2651844
-64.228256 -28.341417 1.2254033
-9.3091402 -4.1058216 -2.3489389
-14.612217 -6.4417119 -3.1040812
-16.620977 -7.3203344 -2.8765173
-0.79577512 -0.35031539 0.10675755
-19.756298 -8.6970987 -2.6504147
-24.570192 -10.806031 -2.3483243
-34.398399 -15.114165 -1.9690882
-7.7484984 -3.390069 -2.2662196
-64.31089 -28.12348 1.2251939
-9.3244896 -4.0757089 -2.3493888
-14.622704 -6.388504 -3.1017911
-16.657835 -7.2707081 -2.8787074
-0.80239081 -0.35005584 0.10748877
-19.764702 -8.618557 -2.6474898
-24.624155 -10.732452 -2.3500674
-34.382412 -14.971308 -1.96532
-7.7514215 -3.3591599 -2.2636313
-64.408669 -27.898821 1.2251939
-9.3440256 -4.0454578 -2.3507385
-14.675545 -6.3506765 -3.1082788
-16.679487 -7.2109494 -2.8780816
-0.80178571 -0.34646544 0.10724504
-19.823822 -8.5621109 -2.6513896
-24.641346 -10.637746 -2.34815
-34.526161 -14.890745 -1.9705535
-7.7542229 -3.3282733 -2.2610431
-64.513016 -27.676977 1.2253336
-9.3616714 -4.0143523 -2.3516383
-14.723988 -6.3076687 -3.1136215
-16.762669 -7.1775651 -2.8880935
-0.81211507 -0.34756982 0.10846373
-19.908344 -8.516283 -2.6587019
-24.703991 -10.557531 -2.3504159
-34.422535 -14.696666 -1.9615519
-60.013939 -25.610491 -1.138944
-7.7770386 -3.3043611 -2.264149
-64.580879 -27.426279 1.2247052
-9.3745289 -3.9792516 -2.3511884
-14.750621 -6.2551961 -3.1143847
-16.787043 -7.1153073 -2.8877807
-0.82617831 -0.35001147 0.11016989
-19.922974 -8.436285 -2.6565082
-24.779217 -10.482447 -2.3539023
-34.5424 -14.598391 -1.96532
-7.7944403 -3.2780817 -2.265702
-64.666229 -27.18318 1.2244259
-9.3800659 -3.9410932 -2.3489389
-14.779609 -6.2067056 -3.115911
-16.807541 -7.0514421 -2.886842
-0.8164717 -0.34237504 0.10870746
-20.003191 -8.3839302 -2.663089
-24.848734 -10.40975 -2.3570397
-34.501026 -14.439172 -1.9600865
-7.809402 -3.2523391 -2.2667372
-64.76709 -26.973198 1.2246354
-9.4038782 -3.914459 -2.3516383
-14.75224 -6.1347237 -3.1056075
-16.858194 -7.00704 -2.891535
-0.83226818 -0.34575829 0.11065737
-20.052883 -8.3266859 -2.666014
-24.873877 -10.31836 -2.355994
-34.677864 -14.378227 -1.9674135
-7.8094292 -3.2220035 -2.2636313
-64.86454 -26.748491 1.2247052
-9.4138823 -3.8801243 -2.3507385
-14.765242 -6.082778 -3.1040812
-16.80583 -6.916575 -2.8783946
-0.86651504 -0.35644418 0.11504468
-20.098351 -8.2634306 -2.6682076
-24.96693 -10.260052 -2.3615718
-34.783272 -14.279847 -1.9705535
-7.8242044 -3.1961865 -2.2646666
-64.935303 -26.512838 1.2242863
-9.4327822 -3.8494463 -2.3520882
-14.773659 -6.0260139 -3.1014097
-16.904875 -6.8884273 -2.891222
-20.165682 -8.2089453 -2.673326
-24.8365 -10.10526 -2.3458838
-34.806999 -14.147821 -1.9690882
-7.8335223 -3.1681309 -2.264149
-65.016327 -26.281511 1.2240769
-9.4425488 -3.8150361 -2.3511884
-14.78368 -5.969995 -3.0991199
-16.98011 -6.8500681 -2.8999825
-20.246183 -8.1635561 -2.6803946
-24.989901 -10.066145 -2.3570397
-34.856174 -14.026227 -1.9690882
-7.8439851 -3.1421361 -2.264149
-65.040001 -26.040489 1.22289
-9.4424829 -3.7786338 -2.3480392
-14.7797 -5.9114599 -3.0941589
-17.024744 -6.8025169 -2.9037368
-20.289736 -8.1029968 -2.6825881
-25.089764 -10.009798 -2.3633151
-34.835705 -13.88395 -1.96532
-7.8687286 -3.1218066 -2.2682903
-65.166901 -25.840883 1.2236581
-9.4603949 -3.749459 -2.3493888
-14.850328 -5.8826604 -3.1048443
-17.003126 -6.7285781 -2.8962278
-20.34374 -8.0423393 -2.6860006
-25.143082 -9.9294815 -2.3650582
-34.952148 -13.796219 -1.9692975
-7.862134 -3.0858884 -2.2631137
-65.264145 -25.616184 1.2237977
-9.4788694 -3.7185457 -2.3507385
-14.891895 -5.8360748 -3.1090419
-17.03503 -6.6690979 -2.8974795
-20.332869 -7.9560871 -2.680882
-25.140474 -9.8271465 -2.3615718
-35.00248 -13.668018 -1.9692975
-7.8746586 -3.0591252 -2.2636313
-65.338966 -25.369556 1.2234486
-9.4978848 -3.685894 -2.3520882
-14.881061 -5.7719831 -3.1025543
-17.179773 -6.6566978 -2.918129
-20.373001 -7.8858094 -2.6823444
-25.219221 -9.7565823 -2.3657553
-35.008991 -13.529914 -1.9669949
-7.8870926 -3.0323098 -2.264149
-65.393517 -25.12841 1.2228203
-9.4979582 -3.6478288 -2.3489389
-14.941442 -5.7354813 -3.11095
-17.119905 -6.5648651 -2.9040499
-20.459723 -7.8373685 -2.6901441
-25.260567 -9.6713409 -2.3664527
-35.14555 -13.441872 -1.972019
-7.899435 -3.0054469 -2.2646666
-65.495781 -24.905691 1.2230995
-9.5033484 -3.6118808 -2.3471394
-14.935678 -5.6735306 -3.1056075
-17.192585 -6.5239835 -2.912497
-20.449829 -7.7518349 -2.6852694
-25.282993 -9.5788698 -2.3654068
-35.166103 -13.309219 -1.9705535
-7.917109 -2.9805789 -2.2667372
-65.593552 -24.681141 1.2233089
-9.512249 -3.5773134 -2.3462396
-14.988467 -5.6337976 -3.1124763
-17.241144 -6.4736519 -2.9168775
-20.513939 -7.6943417 -2.6901441
-25.301352 -9.4849615 -2.3640122
-35.092644 -13.141549 -1.9638547
-7.9256558 -2.9522505 -2.2662196
-65.671822 -24.449221 1.2231694
-9.5338106 -3.547488 -2.348489
-14.943639 -5.5574913 -3.0991199
-17.259932 -6.4120564 -2.9162514
-20.579756 -7.6371908 -2.6952627
-25.339909 -9.3986692 -2.3645353
-35.29937 -13.078648 -1.9728565
-7.9268484 -2.9212263 -2.2636313
-65.790527 -24.232285 1.2237977
-9.5497923 -3.515533 -2.3493888
-14.959263 -5.5039349 -3.0983567
-17.263668 -6.3449545 -2.9131231
-20.623058 -7.5714693 -2.6974564
-25.366951 -9.3080997 -2.3640122
-35.209785 -12.905868 -1.96532
-7.9406271 -2.8948617 -2.2646666
-65.807083 -23.97784 1.2225411
-9.5565128 -3.480176 -2.3480392
-14.998676 -5.4590731 -3.1025543
-17.300564 -6.2900538 -2.9156258
-20.735193 -7.5306063 -2.7086682
-25.470457 -9.2453213 -2.3706362
-35.374786 -12.826454 -1.972019
-7.9506836 -2.867126 -2.2646666
-65.92762 -23.774405 1.2233089
-9.558835 -3.4451621 -2.3457897
-15.034265 -5.4126692 -3.1059887
-17.377085 -6.2527113 -2.9250119
-20.720823 -7.4477038 -2.7035499
-25.48007 -9.148283 -2.3685443
-35.390808 -12.699631 -1.9705535
-7.9710646 -2.8446403 -2.2677724
-65.995132 -23.538754 1.2230297
-9.5799799 -3.4150484 -2.3480392
-15.02809 -5.354218 -3.101028
-17.365309 -6.1800942 -2.9193802
-20.77849 -7.386632 -2.7076933
-25.5159 -9.0657377 -2.3690674
-35.412342 -12.568 -1.9692975
-7.9718375 -2.8135839 -2.2651844
-66.114311 -23.334414 1.2237977
-9.5894146 -3.3826129 -2.3475893
-14.996692 -5.2841105 -3.0907242
-17.460234 -6.1487241 -2.931895
-20.909609 -7.3552327 -2.7215865
-25.590622 -8.9918051 -2.3730764
-35.495277 -12.465056 -1.9716003
-7.9829483 -2.7877696 -2.265702
-66.187813 -23.10087 1.2236581
-9.6030025 -3.3497601 -2.3480392
-15.07531 -5.2556782 -3.1033175
-17.485323 -6.0890331 -2.9325206
-20.901407 -7.2704659 -2.7171991
-25.572922 -8.8854208 -2.3685443
-35.53857 -12.341087 -1.9716003
-7.9894586 -2.7572329 -2.2646666
-66.256706 -22.865776 1.2234486
-9.5943747 -3.3092272 -2.3430901
-15.085191 -5.197196 -3.1014097
-17.511257 -6.026195 -2.9331465
-20.894747 -7.1864858 -2.7130556
-25.750755 -8.8465986 -2.3821406
-35.598682 -12.215926 -1.9724379
-8.0026922 -2.7305734 -2.265702
-66.347633 -22.625359 1.2235882
-9.6045923 -3.2734132 -2.3426404
-15.110675 -5.1470346 -3.102936
-17.595772 -5.9866652 -2.943784
-20.977331 -7.1290159 -2.7203677
-25.721111 -8.7361526 -2.3765628
-35.64867 -12.094154 -1.9728565
-8.021328 -2.7057114 -2.2682903
-66.437462 -22.410328 1.2238675
-9.6153955 -3.2415447 -2.3426404
-15.1639 -5.1061645 -3.1101868
-17.611784 -5.927022 -2.9431584
-20.982042 -7.0530872 -2.7179306
-25.823225 -8.6704082 -2.3831866
-35.68858 -11.975871 -1.9728565
-8.0229254 -2.6766508 -2.2662196
-66.545639 -22.188402 1.2244259
-9.6340466 -3.2104254 -2.34444
-15.124869 -5.03724 -3.0987384
-17.662354 -5.8754849 -2.9481642
-21.036674 -6.9898176 -2.7218301
-25.836706 -8.5797091 -2.3817921
-35.714996 -11.846198 -1.972019
-8.0248804 -2.6462088 -2.264149
-66.64547 -21.963488 1.2248448
-9.6414919 -3.1755593 -2.34354
-11.830435 -3.8942261 -2.4209847
-17.694019 -5.8174939 -2.9500415
-21.030769 -6.9064336 -2.7179306
-25.961151 -8.5205278 -2.3905077
-35.710579 -11.706525 -1.9695069
-8.0377426 -2.6193779 -2.2651844
-66.706512 -21.725775 1.2245655
-9.6543722 -3.1424854 -2.3439898
-15.204473 -4.9461017 -3.107897
-17.744274 -5.7654653 -2.9550474
-21.11706 -6.8532066 -2.7259738
-26.04001 -8.4458418 -2.3950398
-35.747437 -11.580562 -1.9692975
-8.0505152 -2.5924911 -2.2662196
-66.800987 -21.498903 1.2249147
-9.6504412 -3.1039922 -2.3403907
-11.160172 -3.5874398 -2.2786412
-11.2247 -3.6038573 -1.867202
-11.258488 -3.6103706 -1.4517077
-11.304299 -3.6228862 -1.0385478
-8.0650368 -2.5661304 -2.2677724
-66.890877 -21.270441 1.2251939
-9.6649323 -3.0714698 -2.3412907
-11.91173 -3.7832029 -2.4293802
-11.240976 -3.5658505 -1.8678278
-11.267237 -3.5698497 -1.4512203
-11.337771 -3.5900202 -1.0404652
-11.389588 -3.6020544 -0.62604278
-8.0647316 -2.535064 -2.2651844
-66.960899 -21.035635 1.2251241
-9.6793127 -3.0388813 -2.3421905
-11.917372 -3.7392461 -2.4278538
-17.828178 -5.5870161 -2.9591146
-21.15925 -6.6227961 -2.7223177
-26.159349 -8.1828098 -2.3980031
-11.409718 -3.5646572 -0.62646145
-8.0624609 -2.5034618 -2.2620785
-67.04155 -20.804136 1.2252636
-9.6917229 -3.0056524 -2.3426404
-15.185789 -4.7065949 -3.0903428
-17.853235 -5.5264978 -2.9600532
-21.241028 -6.5670772 -2.7298737
-26.132551 -8.0743837 -2.3929479
-11.376288 -3.5106761 -0.62394935
-8.085927 -2.4798348 -2.2662196
-67.11377 -20.569988 1.2252636
-9.6928396 -2.9689474 -2.3403907
-15.209634 -4.6558599 -3.0918691
-17.883753 -5.4676094 -2.9619303
-21.288504 -6.5004277 -2.733042
-26.221556 -8.0017223 -2.398526
-35.993767 -10.97006 -1.972019
-8.085289 -2.4487941 -2.2636313
-67.196648 -20.33905 1.225473
-9.6975479 -2.9334044 -2.3390412
-15.31036 -4.6283035 -3.1090419
-17.853559 -5.3903098 -2.9537957
-21.297764 -6.4220605 -2.7313359
-26.287479 -7.9216456 -2.4020123
-36.005066 -10.836292 -1.9705535
-8.1085939 -2.4249859 -2.2677724
-67.278725 -20.107817 1.2256825
-9.7170658 -2.9023244 -2.3412907
-11.996635 -3.5809138 -2.433578
-17.982065 -5.3606882 -2.9719424
-21.301023 -6.3420177 -2.7288985
-26.311153 -7.8286996 -2.4016635
-36.138397 -10.738999 -1.9757873
-8.0984831 -2.3911946 -2.2625961
-67.348503 -19.872847 1.2256825
-9.730875 -2.8694897 -2.3421905
-15.31405 -4.51298 -3.1033175
-17.928656 -5.2766914 -2.9600532
-21.35541 -6.2771411 -2.733042
-26.342142 -7.7379308 -2.4020123
-36.099003 -10.590297 -1.9716003
-8.1049252 -2.36237 -2.2620785
-67.421722 -19.651638 1.2258222
-9.7459497 -2.8388398 -2.34354
-11.205091 -3.2596216 -2.2683375
-17.965025 -5.2227225 -2.963182
-21.383734 -6.2085028 -2.7340171
-26.300104 -7.6259575 -2.3957369
-36.279716 -10.512775 -1.9795554
-8.1238537 -2.3386865 -2.2651844
-67.536026 -19.429438 1.2266599
-9.7445612 -2.801574 -2.3408406
-11.195083 -3.2164824 -2.2641397
-17.990742 -5.1621647 -2.9644334
-21.409092 -6.1349154 -2.7345047
-26.411438 -7.5633893 -2.4035809
-36.208656 -10.355315 -1.9736937
-8.1078091 -2.3034511 -2.2584553
-67.595734 -19.191402 1.2265202
-9.7374096 -2.7627523 -2.3367915
-11.194909 -3.1741712 -2.2618499
-18.077076 -5.1187038 -2.9756968
-21.449476 -6.0655518 -2.7369418
-26.46069 -7.4776449 -2.4056728
-36.213825 -10.220189 -1.972019
-8.1399822 -2.2819161 -2.2651844
-67.670013 -18.957491 1.2266599
-9.7432423 -2.7276947 -2.3358917
-11.20403 -3.1345477 -2.2614682
-18.072002 -5.0491924 -2.9719424
-21.466694 -5.9895697 -2.7364545
-26.478952 -7.3830934 -2.4049757
-36.31855 -10.112995 -1.9757873
-8.1478977 -2.2534881 -2.2651844
-67.793602 -18.737125 1.2277069
-9.7620945 -2.6962636 -2.3381412
-11.231936 -3.1001203 -2.2649028
-18.16188 -5.0060287 -2.9838314
-21.491301 -5.9156532 -2.7369418
-26.625587 -7.323916 -2.4159572
-36.272743 -9.9639378 -1.9713911
-8.1501236 -2.2235074 -2.2636313
-67.885597 -18.507744 1.2281957
-9.7770882 -2.6637077 -2.3394909
-11.297623 -3.0758502 -2.2759697
-18.247869 -4.9612589 -2.9950948
-21.488831 -5.834362 -2.7340171
-26.612535 -7.2204952 -2.4124711
-36.388268 -9.8592052 -1.9757873
-8.1559696 -2.1945424 -2.2631137
-67.953659 -18.271704 1.2282655
-9.7712717 -2.6255176 -2.3358917
-11.291226 -3.0318131 -2.2725353
-18.318499 -4.9118557 -3.003855
-21.53591 -5.7665038 -2.7374296
-26.649124 -7.1306458 -2.4135168
-36.461052 -9.7424383 -1.9778807
-8.1691818 -2.1675453 -2.2646666
-68.04409 -18.041565 1.2287542
-9.770957 -2.5888975 -2.3336422
-11.3378 -3.0019286 -2.2797861
-18.285879 -4.8347535 -2.9957204
-21.640356 -5.7135906 -2.7481539
-26.708527 -7.0467277 -2.4166543
-36.456211 -9.604928 -1.9757873
-8.1692228 -2.1370606 -2.2625961
-68.133728 -17.811031 1.2292428
-9.7742777 -2.5532968 -2.3322923
-11.412796 -2.979193 -2.2927611
-18.302645 -4.7708936 -2.9957204
-21.675539 -5.6420164 -2.750104
-26.844801 -6.982543 -2.4267645
-36.489517 -9.4776039 -1.9757873
-8.1747618 -2.1080511 -2.2620785
-68.230347 -17.582054 1.229871
-9.7925673 -2.5215921 -2.334542
-11.385099 -2.9295545 -2.2851286
-18.326839 -4.7089424 -2.9969718
-21.714329 -5.5712528 -2.7525411
-26.83427 -6.8798871 -2.4236269
-36.468201 -9.3363113 -1.9728565
-8.1783257 -2.0785508 -2.2610431
-68.304871 -17.347223 1.2301154
-9.8031979 -2.4878757 -2.3349919
-18.346994 -4.6459146 -2.9975975
-21.779833 -5.5071006 -2.7583909
-26.966299 -6.8135142 -2.4333882
-36.500568 -9.2089558 -1.9728565
-8.1911545 -2.0513966 -2.2625961
-68.365005 -17.108702 1.2301154
-9.8042612 -2.4517498 -2.3331923
-12.241433 -3.0589402 -2.4526591
-18.378433 -4.5856686 -3.0001006
-21.837448 -5.4406438 -2.7632658
-26.877779 -6.6914248 -2.4232781
-36.586765 -9.0949793 -1.9757873
-8.2038898 -2.0241814 -2.264149
-68.494209 -16.887192 1.2313719
-9.7995148 -2.4142458 -2.3300431
-12.356883 -3.0420048 -2.4736481
-18.413511 -4.5261989 -3.0032294
-21.864016 -5.3662753 -2.7642407
-27.01321 -6.6250815 -2.4333882
-36.540688 -8.9482174 -1.9716003
-8.2146606 -1.9964445 -2.2651844
-68.587715 -16.65649 1.2320002
-9.7965193 -2.3772693 -2.3273437
-12.367427 -2.9988523 -2.4736481
-18.459917 -4.4693322 -3.0082352
-21.898054 -5.2936492 -2.7661908
-27.036171 -6.5307469 -2.4333882
-36.571701 -8.8206024 -1.9716003
-8.2215796 -1.9677576 -2.2651844
-68.676552 -16.424414 1.2325587
-9.8104439 -2.3444171 -2.3286932
-12.309075 -2.9392481 -2.4599097
-18.509993 -4.4131184 -3.0138667
-21.955021 -5.2263718 -2.7710652
-27.066555 -6.4381833 -2.4340856
-36.602268 -8.6928883 -1.9716003
-8.207715 -1.9341747 -2.2594905
-68.745148 -16.187336 1.2327682
-9.8166704 -2.3097112 -2.3282435
-12.344105 -2.9021072 -2.4648707
-18.552206 -4.3547983 -3.0182469
-21.88809 -5.1297774 -2.7603409
-27.139299 -6.3554745 -2.4386177
-36.710182 -8.5832663 -1.9757873
-8.2181807 -1.9063834 -2.2605255
-68.801231 -15.94727 1.2327682
-9.813282 -2.2727945 -2.3255439
-12.356073 -2.8594401 -2.4652524
-18.532652 -4.2820125 -3.0126154
-21.971628 -5.0685124 -2.7686279
-27.075895 -6.2410111 -2.430948
-36.739918 -8.4550705 -1.9757873
-8.2342014 -1.8798344 -2.2631137
-68.883766 -15.713252 1.2332568
-9.8173561 -2.2376571 -2.3246443
-12.36215 -2.8154194 -2.464489
-18.559042 -4.2199178 -3.0144925
-22.024033 -4.9996963 -2.7730153
-27.089743 -6.1446967 -2.4302506
-36.819855 -8.3382406 -1.9785086
-8.2407131 -1.851082 -2.2631137
-68.992836 -15.484967 1.2342342
-9.8270092 -2.2038007 -2.325094
-12.362324 -2.7701035 -2.4625809
-18.596792 -4.1602836 -3.0182469
-22.0336 -4.9210558 -2.7720401
-27.243256 -6.0796056 -2.4421039
-8.2339211 -1.8193876 -2.2594905
-69.116768 -15.259545 1.2354907
-9.8346424 -2.1694846 -2.325094
-12.371918 -2.7269366 -2.4625809
-18.692228 -4.1131725 -3.0313873
-22.027378 -4.8390026 -2.7691157
-27.221498 -5.9750743 -2.4382691
-36.826447 -8.0698719 -1.9757873
-8.2421083 -1.7910446 -2.2600081
-69.193062 -15.023278 1.2359096
-9.8383455 -2.1343176 -2.3241944
-12.438922 -2.6962106 -2.4740295
-18.663998 -4.0387125 -3.0245044
-22.090702 -4.7721424 -2.774965
-27.207132 -5.8724556 -2.4351313
-36.905151 -7.9522104 -1.9785086
-8.2407532 -1.7606466 -2.2579374
-9.8400173 -2.0987427 -2.3228445
-12.47706 -2.6589086 -2.4797537
-18.766859 -3.9924455 -3.0388963
-22.111109 -4.6958318 -2.7754526
-27.231365 -5.7782764 -2.4354801
-37.014748 -7.8407302 -1.9829048
-8.2487402 -1.7322692 -2.2584553
-9.8377485 -2.0623801 -2.3205953
-12.528541 -2.6241968 -2.4881494
-18.776815 -3.9260991 -3.0382705
-22.131252 -4.6194315 -2.7759402
-27.255272 -5.6839919 -2.4358287
-37.104465 -7.724503 -1.9862545
-8.2641954 -1.7054169 -2.2610431
-9.8391609 -2.0268497 -2.3192453
-12.570313 -2.5871756 -2.4946368
-18.798143 -3.8621256 -3.0395219
-22.158911 -4.544538 -2.7774026
-27.388151 -5.612021 -2.4459386
-37.013798 -7.5709119 -1.979974
-8.2700987 -1.6765589 -2.2610431
-9.8477383 -1.9945973 -2.3196952
-12.663939 -2.5603995 -2.5114281
-18.795361 -3.7966383 -3.0370193
-22.232237 -4.4828067 -2.7847147
-27.44273 -5.5234599 -2.4490762
-37.019115 -7.4441981 -1.9789273
-8.2623501 -1.6464819 -2.2574198
-9.8641977 -1.9621108 -2.3219447
-12.691615 -2.5222166 -2.5152442
-18.839499 -3.7371564 -3.0420251
-22.298378 -4.4151988 -2.7910519
-27.445263 -5.4293318 -2.4476819
-37.033123 -7.3126101 -1.9782994
-8.2718391 -1.6183746 -2.2584553
-9.8671608 -1.926919 -2.3210452
-12.688781 -2.4756463 -2.5129547
-18.906721 -3.6819437 -3.0507853
-22.259094 -4.3267298 -2.7842271
-27.475782 -5.3357754 -2.4487276
-37.058426 -7.1832952 -1.9782994
-8.2660551 -1.5873046 -2.2553494
-9.8527737 -1.8884314 -2.3160961
-12.855459 -2.461612 -2.5442474
-18.923336 -3.6166701 -3.0514109
-22.355957 -4.2646265 -2.7944641
-27.466839 -5.2346182 -2.4462874
-37.114662 -7.0598631 -1.979974
-8.2696476 -1.5580812 -2.2548318
-9.8631353 -1.8547472 -2.3169959
-12.796441 -2.4040356 -2.5308907
-19.005741 -3.5636985 -3.0626743
-22.386318 -4.1894898 -2.7964141
-27.582867 -5.1570096 -2.4550028
-37.166565 -6.9354024 -1.9814395
-8.2883329 -1.5316641 -2.2584553
-9.8714666 -1.820658 -2.3174458
-12.733317 -2.3461931 -2.5167708
-19.010296 -3.4959004 -3.0614231
-22.326611 -4.0977039 -2.7871521
-27.585022 -5.0578208 -2.4536083
-37.206268 -6.8085003 -1.9822769
-8.2784214 -1.4999675 -2.2543139
-9.8851204 -1.7893034 -2.3192453
-12.805184 -2.3132479 -2.5293641
-19.029558 -3.4342475 -3.0626743
-22.519814 -4.056015 -2.809576
-27.629963 -4.9664412 -2.456049
-37.401634 -6.716145 -1.991488
-8.2871542 -1.473183 -2.2553494
-9.881711 -1.7530848 -2.3169959
-12.739326 -2.2577524 -2.5148625
-19.025867 -3.3650479 -3.0601714
-22.518196 -3.9746206 -2.8076262
-27.670673 -4.8741107 -2.4581404
-37.424847 -6.585547 -1.991488
-8.2924986 -1.442801 -2.2553494
-9.8743315 -1.7162441 -2.3138466
-12.759121 -2.213058 -2.5171523
-19.045862 -3.2966399 -3.0614231
-22.606262 -3.9088392 -2.8168881
-27.687521 -4.7774916 -2.4581404
-37.295204 -6.4218965 -1.9833235
-8.2993889 -1.4141684 -2.255867
-9.8824768 -1.6803705 -2.3142962
-12.706768 -2.1583149 -2.5053222
-19.12347 -3.241365 -3.0720603
-22.608027 -3.8279214 -2.8154259
-27.66081 -4.6735053 -2.4543056
-8.298316 -1.3856858 -2.2543139
-9.9014492 -1.6498312 -2.3174458
-12.748714 -2.1219676 -2.5121913
-19.134113 -3.1779306 -3.0720603
-22.714596 -3.7685239 -2.8271253
-27.762642 -4.5960832 -2.4619753
-37.590286 -6.2095532 -1.9967215
-8.2857065 -1.3553529 -2.2496552
-9.8991728 -1.6157317 -2.3156462
-12.778933 -2.0834732 -2.5167708
-19.105553 -3.1081181 -3.0658031
-40.894432 -6.6454377 5.0870705
-22.711935 -3.6866667 -2.8251753
-27.860332 -4.517386 -2.4692965
-35.63905 -5.7658839 -1.8920496
-8.3113718 -1.3297772 -2.2553494
-9.9009047 -1.5805528 -2.3147464
-12.7648 -2.0354495 -2.512573
-19.178713 -3.0513396 -3.0758147
-40.531166 -6.4412603 5.0390544
-22.759956 -3.6129665 -2.8295627
-27.828705 -4.4126186 -2.4651129
-35.726028 -5.6520553 -1.8956085
-8.3121443 -1.3001616 -2.2543139
-9.8967352 -1.5444798 -2.3124969
-12.830023 -1.9999539 -2.5240216
-19.298553 -3.0013692 -3.0933354
-40.321941 -6.263783 5.010293
-22.76066 -3.5316761 -2.8281002
-27.800623 -4.3087306 -2.4612782
-8.3051748 -1.2693874 -2.2512081
-9.9059181 -1.5105115 -2.3133967
-12.856336 -1.9581124 -2.5278378
-19.289385 -2.9310188 -3.0902069
-39.960842 -6.0649185 4.9627638
-22.843504 -3.4629152 -2.836875
-27.961267 -4.2337337 -2.4741771
-37.573586 -5.6757603 -1.991488
-8.3229303 -1.2423856 -2.2548318
-9.916914 -1.4767852 -2.3147464
-12.824254 -1.9074465 -2.5202053
-19.31122 -2.865412 -3.0920839
-39.640099 -5.8747544 4.9203529
-22.84367 -3.3814051 -2.8354123
-39.776424 -5.8807702 6.3684478
-27.893095 -4.1238723 -2.466856
-37.296787 -5.5008554 -1.9757873
-8.3119221 -1.2110988 -2.2506905
-9.9142942 -1.4410381 -2.3129468
-12.74729 -1.8505445 -2.5037959
-19.352385 -2.8025148 -3.0970898
-39.347984 -5.6911755 4.8815989
-22.871054 -3.303921 -2.8373623
-39.472153 -5.6950607 6.3165116
-28.005919 -4.0407071 -2.4755716
-8.3275757 -1.1837064 -2.2537963
-9.9115458 -1.4053298 -2.311147
-12.831426 -1.817044 -2.5190604
-19.334665 -2.731077 -3.0927098
-39.02166 -5.5049748 4.8387008
-22.89817 -3.2262805 -2.8393121
-39.159256 -5.510447 6.2633238
-28.027744 -3.9440331 -2.4762688
-37.559757 -5.2719989 -1.9877199
-8.3259163 -1.1538349 -2.2522435
-9.904808 -1.3691221 -2.3084476
-12.779346 -1.7641881 -2.5076118
-19.277548 -2.6544077 -3.0820723
-38.720085 -5.3246484 4.7989717
-22.905361 -3.1457908 -2.8388247
-38.833813 -5.3264775 6.2082586
-28.049238 -3.8472564 -2.4769661
-36.165051 -4.9475675 -1.912984
-8.3318071 -1.1250232 -2.2527611
-9.9153214 -1.3353174 -2.3097975
-12.789319 -1.7200921 -2.5083752
-19.376755 -2.5991805 -3.0964642
-38.433472 -5.148603 4.7611918
-22.924074 -3.0668747 -2.8397999
-38.508621 -5.1518388 6.1535068
-27.932159 -3.7319078 -2.4654617
-36.205856 -4.8244624 -1.91424
-8.3241911 -1.0944237 -2.2496552
-9.9138975 -1.3016704 -2.3084476
-12.775778 -1.6728922 -2.504559
-19.393101 -2.5359342 -3.0977156
-38.147205 -4.9815383 4.7236562
-22.949863 -2.9928916 -2.8417497
-38.167904 -4.9706926 6.096252
-27.901546 -3.6287298 -2.4616268
-36.217697 -4.7038655 -1.9140308
-8.3143606 -1.0650951 -2.2460318
-9.9319124 -1.2687824 -2.3115969
-12.83189 -1.6369761 -2.5144811
-19.327375 -2.458751 -3.0858266
-37.865028 -4.8103309 4.6866078
-22.9326 -2.9092648 -2.8383372
-37.914581 -4.8031697 6.0530758
-27.977295 -3.5393209 -2.4672046
-36.206154 -4.5738997 -1.9125655
-8.3239603 -1.0353274 -2.2475846
-9.9227428 -1.2324266 -2.3084476
-12.791042 -1.5841393 -2.5053222
-19.508778 -2.4092054 -3.113359
-37.572281 -4.6399288 4.6483407
-23.076588 -2.8457124 -2.8549113
-37.59586 -4.629519 5.9995751
-28.044851 -3.4484479 -2.4720855
-37.677765 -4.6195803 -1.9893945
-8.3332777 -1.0069622 -2.2491376
-9.9213905 -1.1953504 -2.3070979
-12.810139 -1.5411249 -2.5079937
-19.509222 -2.3401461 -3.1121075
-23.09869 -2.7625329 -2.856374
-28.139807 -3.3604472 -2.4794066
-36.487843 -4.3444591 -1.9257541
-8.3309851 -0.97719198 -2.2475846
-9.9235668 -1.1604843 -2.3066483
-12.78034 -1.4923009 -2.5011244
-19.501575 -2.2702088 -3.1096046
-23.13974 -2.6855476 -2.8602738
-28.151363 -3.2622066 -2.4794066
-36.459141 -4.2120137 -1.9234513
-8.3266687 -0.94723189 -2.2455142
-9.9294939 -1.1260569 -2.3070979
-12.740602 -1.4425993 -2.4923472
-19.485826 -2.1994624 -3.1058502
-23.13122 -2.6027598 -2.8580801
-28.2101 -3.1692579 -2.4835901
-36.549046 -4.0931768 -1.9274288
-8.3299236 -0.91816235 -2.2455142
-9.9351101 -1.093336 -2.3075478
-12.772882 -1.4011172 -2.4976897
-19.567631 -2.1430042 -3.1177392
-23.210764 -2.5337994 -2.8668547
-28.161568 -3.0643001 -2.4783607
-36.697433 -3.9866195 -1.9345465
-8.3406057 -0.89135504 -2.2475846
-9.9253016 -1.0572042 -2.3043985
-12.664228 -1.3467119 -2.4755561
-19.626064 -2.0801001 -3.1258738
-23.193806 -2.4500465 -2.8636861
-28.254793 -2.979671 -2.4856818
-36.711128 -3.858496 -1.9345465
-8.3359804 -0.86144096 -2.2455142
-9.9229374 -1.0236846 -2.3030491
-12.598545 -1.2952685 -2.4618177
-19.644648 -2.0162158 -3.1277511
-23.241299 -2.3771584 -2.868561
-28.24124 -2.878607 -2.4835901
-36.787304 -3.7432046 -1.9378959
-8.3389368 -0.83233547 -2.2455142
-9.940197 -0.98866069 -2.3061984
-12.589315 -1.2499224 -2.4591465
-19.683357 -1.9473168 -3.1327569
-23.336777 -2.3005326 -2.8792853
-28.417671 -2.7963982 -2.4982321
-36.796803 -3.6079662 -1.9376867
-8.3417912 -0.80322385 -2.2455142
-9.9319487 -0.95284003 -2.3034987
-12.695226 -1.2157041 -2.4789906
-19.701832 -1.8797177 -3.134634
-23.340714 -2.2186818 -2.878798
-28.387589 -2.6934133 -2.494746
-36.801216 -3.4787462 -1.937268
-8.333003 -0.7730298 -2.2424083
-9.9410343 -0.91870284 -2.3048484
-12.662247 -1.1679556 -2.4717398
-19.775156 -1.8170837 -3.1452718
-35.756294 -3.279253 4.4087458
-23.362154 -2.1384599 -2.8805041
-28.420628 -2.5964868 -2.4968376
-37.055801 -3.3723392 -1.950038
-8.3356504 -0.74393719 -2.2424083
-9.9228306 -0.88209832 -2.2998996
-12.679935 -1.1249632 -2.4744112
-19.84828 -1.7539558 -3.1559093
-35.530235 -3.133492 4.3794971
-23.403093 -2.0598505 -2.8846476
-28.437456 -2.4979613 -2.497535
-37.003681 -3.2373986 -1.9466885
-8.3439703 -0.71533251 -2.2439611
-9.9355564 -0.84828436 -2.3021491
-12.675961 -1.0800312 -2.4728849
-19.881838 -1.6869994 -3.1602895
-35.331287 -2.9916861 4.3536611
-23.407816 -1.9820632 -2.8844039
-28.473801 -2.4010236 -2.4999754
-37.07048 -3.1128993 -1.9496193
-8.3443708 -0.68750012 -2.2434435
-9.9363728 -0.81517243 -2.3016992
-12.616858 -1.0328639 -2.4606731
-19.871572 -1.6197749 -3.1577864
-23.412281 -1.9042784 -2.88416
-28.497492 -2.3078735 -2.5013697
-38.482121 -3.1029606 -2.0233083
-8.3446798 -0.6596728 -2.2429259
-9.9370785 -0.7820645 -2.3012493
-12.626085 -0.99147964 -2.4618177
-19.7311 -1.5424761 -3.134634
-34.709126 -2.7072949 4.2746892
-23.468266 -1.826387 -2.8902535
-28.588804 -2.2148542 -2.5086908
-8.3431892 -0.62879115 -2.2418907
-9.943634 -0.74766719 -2.3021491
-12.633551 -0.94548583 -2.4625809
-19.882397 -1.4810104 -3.1577864
-23.508152 -1.7469567 -2.8943973
-28.57649 -2.1135767 -2.5069478
-34.252193 -2.5213346 -1.7999384
-8.3434067 -0.59952748 -2.2413731
-9.9346447 -0.71038038 -2.2994497
-12.591733 -0.89817071 -2.4538038
-19.851978 -1.4090762 -3.1521549
-34.232574 -2.4237945 4.2137547
-23.451031 -1.6563131 -2.8865974
-28.512148 -2.008765 -2.5006726
-34.22094 -2.3989708 -1.7978449
-8.3493023 -0.57066315 -2.2424083
-9.933177 -0.67543304 -2.2985499
-34.288067 -2.3255057 1.8010898
-12.571286 -0.85261732 -2.4492245
-34.20686 -2.3140011 2.9995518
-19.781879 -1.3347175 -3.1402659
-34.240829 -2.3042929 4.2137547
-23.551741 -1.5808187 -2.8982971
-28.522961 -1.909492 -2.5010211
-34.053734 -2.2678149 -1.7886338
-34.355453 -2.2758718 -0.60099107
-8.3531713 -0.54163986 -2.2429259
-34.313095 -2.2189224 0.60018831
-9.9296389 -0.64038152 -2.2972002
-34.195934 -2.2053616 1.7958562
-12.548717 -0.80709165 -2.4442632
-34.214729 -2.1945736 2.9995518
-19.904699 -1.2732279 -3.1590378
-34.248661 -2.1847548 4.2137547
-23.596735 -1.5011179 -2.9031718
-28.50559 -1.8084091 -2.4989293
-34.109283 -2.1519485 -1.791146
-34.247066 -2.1546488 -0.5989666
-8.349227 -0.51212555 -2.2413731
-34.320263 -2.105139 0.60018831
-9.9239273 -0.60697383 -2.2954006
-12.571054 -0.76447797 -2.4480796
-19.782621 -1.1995618 -3.1390145
-23.637253 -1.4250095 -2.9075592
-28.54355 -1.7108014 -2.5017183
-34.124207 -2.0393016 -1.7915647
-8.3450928 -0.48409972 -2.23982
-9.9434948 -0.57333845 -2.2994497
-12.557839 -0.72188479 -2.4450266
-19.889238 -1.136359 -3.1552835
-23.705503 -1.3460977 -2.9153585
-28.553045 -1.6163623 -2.5020671
-34.079266 -1.9172636 -1.788843
-8.352519 -0.45528218 -2.2413731
-9.9298687 -0.53778231 -2.2958505
-12.5446 -0.67719537 -2.4419737
-19.869415 -1.0656556 -3.1515293
-23.682304 -1.2618624 -2.9119463
-28.6182 -1.5198528 -2.5072963
-8.3501987 -0.4259246 -2.2403376
-9.9180622 -0.50242937 -2.2927012
-12.541005 -0.6331051 -2.4408288
-19.979549 -1.0016371 -3.1684241
-23.702427 -1.1799769 -2.9138963
-28.635271 -1.4205388 -2.5083423
-37.666576 -1.8553845 -1.9764152
-8.3535633 -0.39686579 -2.2408552
-9.9158621 -0.46761954 -2.2918015
-12.507839 -0.58766615 -2.4339597
-19.923727 -0.9291234 -3.1590378
-23.678638 -1.095953 -2.9104841
-28.679861 -1.3224089 -2.5118284
-37.664845 -1.7235349 -1.9759965
-8.3529682 -0.36762083 -2.2403376
-9.9154882 -0.43291858 -2.2913516
-12.500007 -0.54357821 -2.4320514
-19.93869 -0.8600812 -3.1609151
-23.733887 -1.0154924 -2.9168212
-28.644491 -1.2205923 -2.5083423
-37.774395 -1.5964249 -1.9814395
-8.3445501 -0.33807009 -2.2377496
-9.9305 -0.40058473 -2.2945008
-12.501827 -0.49994132 -2.4320514
-20.012491 -0.79678583 -3.1721785
-23.788694 -0.93882245 -2.9231584
-28.76405 -1.1251197 -2.5184524
-38.929031 -1.5159235 -2.0417304
-8.3436937 -0.31032452 -2.2372317
-9.9279413 -0.36577693 -2.2936008
-12.544698 -0.45780203 -2.4400656
-20.023046 -0.72721523 -3.17343
-23.601381 -0.84892213 -2.8997593
-28.819571 -1.0265508 -2.5229845
-37.940308 -1.3381712 -1.989604
-8.342845 -0.27967641 -2.2367141
-9.9175291 -0.32899892 -2.2909014
-12.556103 -0.41214216 -2.4419737
-20.092703 -0.65601349 -3.1840672
-23.703537 -0.76562256 -2.9119463
-28.851017 -0.92180508 -2.5254247
-38.060738 -1.2027531 -1.9956747
-8.3457441 -0.24915396 -2.2372317
-9.914773 -0.29253203 -2.2900016
-12.516254 -0.36710161 -2.4339597
-20.087074 -0.58213645 -3.182816
-23.737932 -0.67964816 -2.9158461
-28.893888 -0.82222325 -2.5289109
-38.084671 -1.0704583 -1.9967215
-8.3407707 -0.21986943 -2.2356789
-9.923481 -0.25985554 -2.2918015
-12.423255 -0.32097816 -2.415642
-20.05335 -0.51460916 -3.1771843
-23.728149 -0.60062432 -2.9143836
-28.876669 -0.72086179 -2.527168
-38.088013 -0.94415754 -1.9967215
-8.3395224 -0.19216441 -2.2351615
-9.9321203 -0.22539109 -2.2936008
-12.383033 -0.27885076 -2.4076281
-20.15377 -0.44679537 -3.1928279
-23.749949 -0.51822639 -2.9168212
-28.811174 -0.62363225 -2.5212412
-39.185329 -0.83450228 -2.0540817
-8.3362789 -0.1629771 -2.2341261
-9.9152784 -0.19211361 -2.2895517
-12.354486 -0.23506363 -2.4019036
-20.127489 -0.37943852 -3.1884477
-23.684053 -0.4382163 -2.908534
-28.95262 -0.5255962 -2.533443
-38.093555 -0.68487829 -1.9967215
-8.338706 -0.13536316 -2.2346439
-9.906146 -0.15734902 -2.2873023
-12.337565 -0.19165926 -2.3984692
-20.172142 -0.30984983 -3.1953306
-23.717196 -0.35601693 -2.9124339
-28.763029 -0.42172459 -2.5167091
-38.49123 -0.55092186 -2.0174465
-8.3372135 -0.10477493 -2.2341261
-9.910553 -0.1210852 -2.2882023
-12.314627 -0.14616166 -2.3938897
-20.224501 -0.23650858 -3.2034652
-23.710403 -0.26900187 -2.911459
-28.971579 -0.31857786 -2.5348375
-38.377159 -0.40859762 -2.0113757
-8.3433371 -0.074268267 -2.2356789
-9.907033 -0.084729247 -2.2873023
-12.299357 -0.10304278 -2.390837
-20.177824 -0.16200434 -3.1959565
-23.77869 -0.18675922 -2.9197462
-28.968531 -0.21741553 -2.5344889
-38.262508 -0.27380383 -2.0053048
-8.328083 -0.04651371 -2.2315381
-9.9111576 -0.051895902 -2.2882023
-12.313375 -0.062325157 -2.3935082
-20.312576 -0.095723607 -3.2172318
-23.830788 -0.10814419 -2.9260831
-28.88541 -0.12099958 -2.527168
-38.442963 -0.147608 -2.0147252
-8.3223963 -0.018883066 -2.229985
-9.9054279 -0.019017428 -2.2868524
-12.313513 -0.021491719 -2.3935082
-20.340437 -0.028401984 -3.221612
-23.866753 -0.02498962 -2.9304705
-28.937456 -0.025255546 -2.5317001
-38.37933 -0.020090805 -2.0113757
-8.3185472 0.010161159 -2.2289498
-9.8917933 0.015537933 -2.2837031
-12.309587 0.021481149 -2.392745
-20.115219 0.042128496 -3.1859448
-23.898457 0.058393627 -2.9343703
-29.029016 0.075995915 -2.5397184
-38.475033 0.11415453 -2.0164001
-8.3339157 0.039271303 -2.2330909
-9.8916788 0.050064556 -2.2837031
-12.283915 0.064319141 -2.387784
-20.261124 0.11315559 -3.2090971
-23.973539 0.14226274 -2.9436324
-28.952835 0.18191688 -2.5330944
-38.558281 0.24899952 -2.0207963
-8.3221254 0.069719411 -2.229985
-9.8992386 0.084659599 -2.2855027
-12.285559 0.10935626 -2.3881655
-20.074896 0.18570313 -3.1796873
-23.849827 0.22478588 -2.9285204
-29.075544 0.28418815 -2.5439017
-38.553112 0.39028123 -2.0205867
-8.3102398 0.098631285 -2.2268791
-9.8910675 0.12084886 -2.2837031
-12.289029 0.1522892 -2.3889287
-20.046473 0.25542468 -3.175307
-23.86869 0.31245857 -2.930958
-29.034531 0.38515127 -2.5404155
-38.491604 0.52403975 -2.0174465
-8.3272305 0.12790611 -2.2315381
-9.8866882 0.15531108 -2.2828033
-12.282534 0.19509178 -2.387784
-19.970404 0.32417578 -3.1634181
-23.927 0.39676201 -2.9382701
-29.084803 0.48736012 -2.5449476
-38.581402 0.65996981 -2.0222616
-8.3151445 0.15675654 -2.2284322
-9.872447 0.18955952 -2.279654
-12.285704 0.23804398 -2.3885472
-20.044201 0.39536446 -3.175307
-23.92555 0.47610554 -2.9382701
-29.086908 0.58896351 -2.5452962
-38.610809 0.79528987 -2.0239363
-8.3223038 0.1844973 -2.2305026
-9.8698158 0.2222532 -2.2792041
-12.243629 0.27784866 -2.3805332
-20.015131 0.4611949 -3.1709268
-23.880182 0.55443019 -2.9329081
-29.068861 0.68504161 -2.5439017
-38.396317 0.91826349 -2.0128412
-8.3139219 0.21189749 -2.2284322
-9.872921 0.25508252 -2.2801039
-12.232772 0.32032564 -2.3786252
-20.072733 0.52912736 -3.1803131
-23.925726 0.63905114 -2.9387574
-28.99061 0.78446651 -2.5372779
-38.588531 1.0576497 -2.0230989
-8.309227 0.24225761 -2.2273967
-9.8680239 0.29115209 -2.2792041
-12.237402 0.36533478 -2.3797698
-20.114098 0.60399878 -3.187196
-23.966873 0.72806555 -2.9441199
-29.09906 0.89413744 -2.5470393
-38.788017 1.2054052 -2.0337753
-8.3044214 0.27258223 -2.2263615
-9.8707857 0.32744765 -2.2801039
-12.228204 0.40778476 -2.3782434
-20.044624 0.67545503 -3.1765587
-24.023706 0.81373781 -2.951432
-29.199306 0.99925101 -2.5561035
-38.987175 1.3478332 -2.044452
-8.3034725 0.30011952 -2.2263615
-9.8501701 0.35946819 -2.2756047
-12.224823 0.44826129 -2.377862
-20.113338 0.74455303 -3.1878219
-24.04468 0.89427936 -2.9543569
-29.203794 1.0963739 -2.5568008
-38.994461 1.477567 -2.0450799
-8.3024311 0.3276535 -2.2263615
-9.8528194 0.39228603 -2.2765048
-12.225231 0.48887667 -2.3782434
-20.094967 0.81061101 -3.1853189
-24.049347 0.97853482 -2.9553318
-29.152016 1.1963408 -2.5526173
-38.957424 1.6055549 -2.0434053
-8.2992439 0.35800007 -2.2258439
-9.8436022 0.42633706 -2.2747052
-12.21355 0.53325605 -2.3763354
-20.15896 0.8872059 -3.1959565
-24.077515 1.0638794 -2.9592316
-29.1397 1.2977462 -2.5519199
-38.791653 1.7411569 -2.0350316
-8.2863655 0.386426 -2.222738
-9.8439198 0.46250674 -2.2751548
-12.22338 0.57643837 -2.3786252
-20.108385 0.95532393 -3.1884477
-24.125008 1.1545826 -2.965569
-29.099169 1.3977349 -2.5487826
-39.032707 1.8885242 -2.0480108
-8.2849665 0.41534865 -2.222738
-9.8383532 0.49666703 -2.2742553
-12.231097 0.6195994 -2.3805332
-20.140438 1.0273166 -3.1940794
-24.144621 1.240016 -2.9684937
-29.090134 1.4990903 -2.5484338
-39.033859 2.0251868 -2.0484295
-8.2950401 0.44488707 -2.2258439
-9.8268299 0.53048134 -2.2720056
-12.221018 0.66186571 -2.3790066
-20.148565 1.0982592 -3.1959565
-24.104464 1.3223264 -2.9641063
-29.080746 1.6004065 -2.5480852
-38.847076 2.1514797 -2.0390091
-8.2780075 0.47295618 -2.2217028
-9.8229733 0.56466854 -2.2715557
-12.197074 0.7032783 -2.374809
-20.180105 1.1706439 -3.2015882
-24.171045 1.4106228 -2.9728811
-29.230124 1.7109896 -2.5616815
-38.787491 2.2840166 -2.0362875
-8.2936611 0.50290346 -2.2263615
-9.8267775 0.59930748 -2.2729053
-12.172989 0.74453169 -2.3706112
-20.207443 1.2430148 -3.206594
-24.185787 1.4962134 -2.9753184
-29.200109 1.8115387 -2.5595899
-38.918812 2.4281027 -2.0436146
-8.2610083 0.52987242 -2.2180793
-9.8207359 0.63335752 -2.2720056
-12.158561 0.786259 -2.3683214
-14.726945 0.95751095 -2.3374441
-24.176455 1.5803642 -2.9748311
-29.110109 1.9079759 -2.5522687
-39.025696 2.5715487 -2.0496855
-8.2688437 0.55791456 -2.2206676
-9.8108044 0.66539133 -2.270206
-12.144134 0.82577521 -2.3660316
-14.692157 1.0041839 -2.3324382
-24.270102 1.6673312 -2.9870176
-29.191078 2.0105226 -2.5599384
-39.06477 2.7042601 -2.0521977
-8.2706995 0.58704662 -2.2217028
-9.7967606 0.69880408 -2.2675066
-12.145094 0.8684386 -2.3667948
-20.181749 1.4501873 -3.2047167
-24.283934 1.7534698 -2.9894552
-29.2276 2.1155717 -2.5637734
-39.035175 2.8391576 -2.051151
-8.2724533 0.61620039 -2.222738
-9.7903738 0.73270392 -2.2666068
-12.118495 0.90906554 -2.3622153
-14.850251 1.1192002 -2.3587191
-24.293499 1.8394313 -2.9914052
-29.176331 2.2142658 -2.5599384
-39.200272 2.98877 -2.0603621
-8.2509918 0.6435709 -2.2175617
-9.7878895 0.76516634 -2.2666068
-12.101548 0.95028603 -2.359544
-20.281693 1.5962013 -3.2222376
-24.307056 1.9215411 -2.9938426
-29.200203 2.318614 -2.5627275
-38.951233 3.0997355 -2.0478015
-8.2526636 0.67124218 -2.2185969
-9.7929287 0.7999627 -2.2684064
-12.09833 0.9904114 -2.359544
-20.264183 1.6660173 -3.2203603
-24.355595 2.010957 -3.0006673
-29.330919 2.4320533 -2.5749292
-39.007851 3.2413061 -2.0513604
-64.992195 5.4232678 -1.1383857
-8.2405233 0.70066696 -2.2160087
-9.7764845 0.83298373 -2.2652571
-12.086795 1.0340781 -2.3580177
-20.250069 1.7395972 -3.2191088
-24.41567 2.1017449 -3.0089543
-29.286524 2.531342 -2.5717916
-39.075298 3.3911538 -2.0555472
-8.2399511 0.7295981 -2.2165263
-9.7753077 0.86898357 -2.265707
-12.061601 1.074347 -2.3538198
-15.049605 1.3457884 -2.3931346
-24.4513 2.1951241 -3.0143166
-29.309258 2.6364052 -2.5745807
