# .PCD v0.7 - Point Cloud Data file format
VERSION 0.7
FIELDS x y z
SIZE 4 4 4
TYPE F F F
COUNT 1 1 1
WIDTH 1497
HEIGHT 1
VIEWPOINT 0 0 0 1 0 0 0
POINTS 1497
DATA ascii
10.570691 -4.6446104 -1.8287191
12.710736 -5.5902095 -1.7049522
16.004414 -7.0421109 -1.5297575
20.921379 -9.214345 -1.1980748
32.076069 -14.140545 -0.61188138
6.8827224 -3.045692 -2.0167181
67.583641 -29.920725 1.2901168
7.8558741 -3.4796038 -1.9836185
9.0212326 -3.9976602 -1.918012
10.556219 -4.682282 -1.8290319
12.694774 -5.6361556 -1.7054397
15.976093 -7.0963159 -1.5294089
20.867189 -9.2775822 -1.1968188
32.003422 -14.235457 -0.61139268
6.8755774 -3.071275 -2.0177534
67.469444 -30.138155 1.2898376
7.8371754 -3.5024552 -1.9818188
67.296501 -30.089085 3.8633358
9.0054321 -4.0283246 -1.9176304
10.560468 -4.7261376 -1.8324735
12.654273 -5.6684833 -1.7025148
15.940318 -7.1471496 -1.5283631
20.785282 -9.3238401 -1.1938879
31.880569 -14.314322 -0.60999656
6.8723998 -3.0972333 -2.019824
67.356537 -30.370192 1.2896979
7.8337836 -3.533797 -1.9840684
67.245674 -30.348457 3.8664763
8.9777088 -4.0517044 -1.9145776
10.567309 -4.7735434 -1.8365408
12.621749 -5.7068958 -1.7008086
15.918344 -7.2007914 -1.5285373
20.738054 -9.3897476 -1.1930506
31.786697 -14.405708 -0.60915881
6.8580294 -3.1196036 -2.0187886
67.264679 -30.611755 1.2899772
7.8284941 -3.5643506 -1.9858679
67.15387 -30.589628 3.8673136
8.959938 -4.0813904 -1.9138144
10.484079 -4.7800803 -1.8249646
12.589109 -5.7451501 -1.6991025
15.860487 -7.2414165 -1.5253998
20.686987 -9.4537783 -1.1920038
31.703482 -14.501602 -0.60853046
6.8400755 -3.1402996 -2.0167181
67.146507 -30.841356 1.2897677
7.8160043 -3.5916555 -1.9858679
66.970467 -30.788811 3.8629174
8.9385004 -4.1093607 -1.9122878
10.199949 -4.6936092 -1.7783473
12.574388 -5.7915506 -1.6998338
15.820637 -7.2900653 -1.5240052
20.642979 -9.5209122 -1.1913759
31.605465 -14.590388 -0.60762298
6.8360834 -3.1674051 -2.0187886
67.009407 -31.062096 1.2892092
7.8034196 -3.6189163 -1.9858679
66.942299 -31.05938 3.8675227
8.9312258 -4.1438422 -1.9138144
10.076006 -4.6792641 -1.759575
12.536094 -5.8270411 -1.6973963
15.789675 -7.3427253 -1.5234824
20.602375 -9.5895395 -1.1909571
31.49996 -14.675287 -0.60657585
6.8354855 -3.1961582 -2.0218945
7.7872105 -3.6444817 -1.9849681
66.815392 -31.284395 3.8664763
8.9202623 -4.1766582 -1.9145776
10.047091 -4.7085395 -1.7573849
12.504893 -5.865706 -1.6959339
15.742304 -7.3876405 -1.5213907
20.507313 -9.6325274 -1.1873983
31.387018 -14.756228 -0.60538912
6.8295283 -3.222472 -2.0234473
66.79454 -31.530855 1.289279
7.7797275 -3.6741383 -1.9863179
66.67688 -31.50378 3.8648012
8.9127293 -4.2111249 -1.9161041
10.025236 -4.7410483 -1.7564464
12.468194 -5.9016776 -1.6937402
15.71642 -7.4425459 -1.5213907
20.469955 -9.702342 -1.187189
31.273888 -14.836558 -0.60420233
6.819983 -3.2471223 -2.0239649
66.684067 -31.763819 1.289279
7.7686148 -3.702111 -1.9867678
66.528778 -31.704096 3.8622894
8.8873434 -4.2371411 -1.9138144
9.8784819 -4.7139106 -1.7336069
12.451099 -5.9468741 -1.6942277
15.674166 -7.4896297 -1.5198219
20.42515 -9.7685652 -1.1865609
31.148756 -14.903934 -0.60273635
6.8103485 -3.2717454 -2.0244827
66.650475 -32.019417 1.2906753
7.7738581 -3.7362938 -1.9912667
66.453705 -31.953442 3.8643827
8.8742676 -4.2689886 -1.914196
9.896615 -4.7629189 -1.7395515
12.42058 -5.9829621 -1.6927652
15.622802 -7.5321841 -1.5173815
20.371058 -9.8258314 -1.1853049
31.085737 -15.007357 -0.6025269
6.8203239 -3.304419 -2.0306942
66.473518 -32.220478 1.2894187
7.7449884 -3.755754 -1.9872177
66.348946 -32.188702 3.8648012
8.8582954 -4.2975368 -1.9138144
9.7537642 -4.7361732 -1.7173377
12.397835 -6.025414 -1.6925216
15.59104 -7.5840569 -1.5168586
20.318676 -9.8881407 -1.1842581
31.000801 -15.100013 -0.60189861
6.7960186 -3.3234537 -2.0270708
65.347481 -31.956848 1.2697325
7.7195778 -3.7767715 -1.9840684
66.250534 -32.427132 3.865639
8.8495369 -4.3334289 -1.9153408
9.8108387 -4.8084035 -1.7304782
12.376726 -6.0686536 -1.6925216
15.543007 -7.6279006 -1.5147668
20.250031 -9.9466963 -1.182374
30.940723 -15.204606 -0.60175902
6.780911 -3.3454468 -2.0260355
66.305809 -32.727184 1.2906753
7.6899576 -3.7972739 -1.9800191
66.165596 -32.672337 3.8673136
8.8378782 -4.3660321 -1.9161041
9.8081598 -4.8496246 -1.7329811
12.349064 -6.1113353 -1.6917903
15.516286 -7.6821094 -1.5147668
20.218765 -10.019094 -1.1825833
30.819384 -15.278767 -0.60043263
6.7709217 -3.3699567 -2.0265532
66.196922 -32.946884 1.2906753
7.6755786 -3.8218853 -1.9795692
66.05471 -32.904881 3.8675227
8.8050127 -4.3880982 -1.9122878
9.7849541 -4.8785977 -1.7317297
12.346492 -6.1611156 -1.6942277
15.478681 -7.7308822 -1.5137209
20.160418 -10.073588 -1.181118
30.765862 -15.386252 -0.60043263
6.7458963 -3.3854594 -2.0224121
7.6343288 -3.8346603 -1.9723709
65.878777 -33.104767 3.8639638
8.7851496 -4.4146285 -1.9111431
9.7802181 -4.9189367 -1.7339199
12.324911 -6.2041755 -1.6942277
15.424488 -7.7678308 -1.5109318
20.121565 -10.142103 -1.1809087
30.644123 -15.459325 -0.59910625
6.7271428 -3.4054959 -2.0203414
65.965294 -33.408218 1.2906753
7.6174197 -3.8595238 -1.9714712
65.823387 -33.365223 3.8675227
8.7714376 -4.4461546 -1.9115247
9.704854 -4.9235535 -1.7235951
12.304948 -6.2480583 -1.6944715
15.400831 -7.8234301 -1.5112805
20.057552 -10.197796 -1.1792339
30.504423 -15.522666 -0.59743077
6.7220969 -3.432472 -2.0224121
7.5570483 -3.8621452 -1.9593236
65.70652 -33.594788 3.8675227
8.754117 -4.4758525 -1.9111431
9.6928844 -4.9600987 -1.7245337
12.290132 -6.2945924 -1.6954465
15.371657 -7.8762331 -1.5111063
20.000507 -10.256811 -1.1779778
30.378893 -15.592527 -0.59603459
6.7152271 -3.458569 -2.0239649
65.730453 -33.867928 1.2906753
7.5036821 -3.8679647 -1.9489759
65.617256 -33.838589 3.8691974
8.7244787 -4.4991837 -1.90809
9.6439142 -4.9775953 -1.7189021
11.072316 -5.7197442 -1.5301917
15.32814 -7.9216099 -1.5095375
19.961035 -10.324727 -1.1777685
30.320728 -15.696637 -0.59596479
6.706542 -3.4837694 -2.0250003
65.611832 -34.09716 1.2906753
7.4659286 -3.8815491 -1.9426774
65.484566 -34.060059 3.86836
8.6913042 -4.5205512 -1.9042739
9.6562672 -5.0267344 -1.7242209
11.04172 -5.7528553 -1.5287292
15.295094 -7.9723029 -1.5090145
19.903624 -10.383257 -1.1765125
30.198393 -15.767211 -0.59463841
6.677228 -3.4981935 -2.019824
65.492409 -34.325981 1.2906753
7.4298978 -3.895822 -1.9368286
65.31929 -34.264313 3.865639
8.6702557 -4.5481262 -1.9031291
9.6019335 -5.0411282 -1.7176507
11.121737 -5.8439951 -1.5426223
15.237191 -8.0098839 -1.5060512
19.853117 -10.44523 -1.175675
30.10778 -15.85389 -0.59394032
6.6803493 -3.5296023 -2.0244827
7.3559575 -3.8898492 -1.9210819
65.266365 -34.527596 3.8696163
8.6664743 -4.5847893 -1.9058005
9.5703115 -5.0672193 -1.7151477
11.174938 -5.9218202 -1.5528593
15.210899 -8.0639563 -1.5062256
19.798893 -10.505104 -1.1746283
30.016935 -15.940132 -0.59324217
6.6765127 -3.5574415 -2.0270708
65.392349 -34.85762 1.2934678
7.3423352 -3.9155025 -1.9210819
65.182449 -34.774956 3.8718145
8.6434889 -4.6113167 -1.9042739
9.5386257 -5.093152 -1.7126448
11.189216 -5.9795041 -1.557734
15.177386 -8.1141853 -1.5057026
19.733925 -10.559076 -1.1729535
29.950533 -16.03915 -0.59303278
6.6623526 -3.5798111 -2.0265532
65.305504 -35.104603 1.2941658
7.3063107 -3.9291096 -1.9152331
8.6117802 -4.6330886 -1.9008393
9.5573149 -5.1460834 -1.719215
11.161283 -6.0147586 -1.5567591
15.136694 -8.1604958 -1.5044824
19.696947 -10.627895 -1.1729535
29.788792 -16.086588 -0.59093845
6.6549115 -3.6058059 -2.0281062
65.182571 -35.332348 1.2941658
7.2668548 -3.9406552 -1.9084847
56.693993 -30.756708 3.3802752
8.5990067 -4.6649938 -1.9016025
9.5375557 -5.1784706 -1.7189021
11.009406 -5.9825959 -1.5384787
15.104616 -8.21138 -1.5041338
19.670258 -10.702314 -1.1735816
29.693823 -16.169434 -0.59017056
6.6405892 -3.628088 -2.0275886
65.058838 -35.559662 1.2941658
7.2308278 -3.9538429 -1.9026359
8.5740576 -4.6902709 -1.8996944
9.5298185 -5.2174225 -1.7207794
10.944932 -5.9971423 -1.5323852
15.047908 -8.2487326 -1.5013449
19.611767 -10.759383 -1.1723256
29.567083 -16.234488 -0.58877438
6.6295767 -3.6521778 -2.0281062
7.1930904 -3.9658861 -1.8963374
8.5541954 -4.7182746 -1.8989313
9.4942551 -5.2411098 -1.7176507
11.221052 -6.1994648 -1.5740645
15.010303 -8.2963905 -1.5004733
19.556612 -10.818107 -1.1712788
29.146345 -16.136137 -0.58151418
6.6218538 -3.6781113 -2.029659
7.1502485 -3.9748747 -1.8886892
8.5359583 -4.7471509 -1.8985497
9.5173264 -5.2972755 -1.7251595
11.230559 -6.2559843 -1.5784519
14.97603 -8.3458252 -1.4999503
19.501287 -10.876578 -1.1702321
28.971107 -16.171503 -0.57914066
6.6022325 -3.697428 -2.0275886
61.982327 -34.725983 1.2401332
7.1227303 -3.9921868 -1.8850898
64.460793 -36.144127 3.8730705
8.5193348 -4.7769184 -1.8985497
9.4970551 -5.3294988 -1.7248467
11.174038 -6.2757077 -1.573577
14.934649 -8.3912191 -1.4987302
19.456238 -10.940668 -1.1698134
28.667025 -16.133266 -0.57418418
6.584239 -3.717602 -2.0260355
64.423683 -36.389812 1.2915131
7.1087508 -4.0170255 -1.8850898
64.340576 -36.357689 3.8730705
8.4974813 -4.8037286 -1.8974047
9.4663582 -5.3558078 -1.7226565
11.130707 -6.3000159 -1.5704085
14.9018 -8.4413357 -1.4983815
19.421406 -11.010488 -1.1700227
28.766434 -16.315054 -0.57725579
6.5399723 -3.7212629 -2.0162005
64.333931 -36.621052 1.2921412
7.0750699 -4.0290051 -1.8796909
64.226601 -36.574802 3.8734891
8.4695635 -4.825078 -1.8947334
9.4760017 -5.4028244 -1.7276624
11.118376 -6.3418093 -1.5716273
14.846041 -8.4749022 -1.4955926
19.360508 -11.06096 -1.1685573
28.587172 -16.338913 -0.57474267
6.5359759 -3.7477348 -2.0187886
64.250298 -36.856083 1.2929091
7.0464592 -4.0437155 -1.8756418
64.119324 -36.810707 3.8747451
8.4569216 -4.855092 -1.8954966
9.4460449 -5.4273295 -1.7254723
11.151238 -6.4122467 -1.5794269
14.821309 -8.5260735 -1.4959412
19.29949 -11.111149 -1.167092
28.460655 -16.398668 -0.57334644
6.5094738 -3.7627921 -2.0146475
64.128181 -37.084137 1.2930489
7.0255537 -4.064384 -1.8738421
63.983524 -37.030296 3.8743265
8.4433212 -4.8865504 -1.8962599
9.4321699 -5.4632397 -1.7264109
11.170006 -6.4750252 -1.5852765
14.78284 -8.5727596 -1.4950696
19.257133 -11.176445 -1.1668826
28.51045 -16.560186 -0.57551056
6.4829464 -3.7777109 -2.0105064
63.998341 -37.307762 1.2930489
7.0096402 -4.0879016 -1.8733923
63.898731 -37.279583 3.877048
8.4075594 -4.9051104 -1.8920621
9.4232779 -5.5021067 -1.7282882
11.161046 -6.5219889 -1.5872264
14.739064 -8.6162653 -1.4936751
19.204208 -11.235528 -1.1660452
28.483532 -16.677792 -0.57613885
6.4397373 -3.7827051 -2.001189
63.902206 -37.551193 1.2937469
6.9886088 -4.1083941 -1.8715929
63.768211 -37.502407 3.877048
8.3751564 -4.9254713 -1.8886275
9.4125261 -5.5399771 -1.7298526
11.187815 -6.5901265 -1.5942949
14.695167 -8.6595707 -1.4922807
19.175198 -11.308581 -1.1666733
28.442362 -16.787281 -0.5764879
6.4015589 -3.7903972 -1.9934243
26.535439 -15.718029 0.53833693
6.9759016 -4.1337571 -1.8720427
8.3494682 -4.9496698 -1.8867195
9.3795404 -5.5647354 -1.7273496
11.019657 -6.542994 -1.573577
14.65457 -8.7047062 -1.4912347
19.139038 -11.377488 -1.1668826
26.558489 -15.800641 -0.539419
6.3650651 -3.7988586 -1.9861774
28.094341 -16.774183 0.57114744
6.9580836 -4.1560841 -1.871143
8.3355103 -4.9807992 -1.8874826
9.3397141 -5.5852766 -1.7235951
10.904771 -6.526371 -1.5604153
14.624095 -8.7558079 -1.4912347
19.071796 -11.427802 -1.1652079
28.183844 -16.901106 -0.57362568
6.340178 -3.8140831 -1.982554
27.850573 -16.760786 0.56737775
6.9385252 -4.1773314 -1.8697932
63.457542 -38.219639 3.8822815
8.3247995 -5.0139165 -1.8890091
9.3641481 -5.6443577 -1.7317297
10.841128 -6.5397863 -1.5545654
14.578091 -8.7975368 -1.489666
19.014692 -11.483978 -1.1641611
27.891932 -16.858704 -0.56887865
6.3103065 -3.8261745 -1.9773775
27.706408 -16.806046 0.56563246
6.9272323 -4.203548 -1.8706928
63.323742 -38.440914 3.8822815
8.3005342 -5.0388703 -1.8874826
9.3713999 -5.6934209 -1.7367356
10.892867 -6.6229663 -1.56529
14.547293 -8.8483706 -1.489666
18.964254 -11.544051 -1.1635331
27.662138 -16.851925 -0.56538814
6.2754827 -3.8350828 -1.9706483
63.301945 -38.700356 1.2950733
6.9008799 -4.2205849 -1.8675436
63.195923 -38.650688 3.8822815
8.2711716 -5.0606408 -1.8848113
9.3548384 -5.7281613 -1.7373614
10.903532 -6.6816931 -1.5701648
14.499331 -8.8886824 -1.4879228
18.910223 -11.601822 -1.1626958
28.598 -17.552351 -0.58570278
6.2456088 -3.8468332 -1.9654719
63.173264 -38.910057 1.2950733
6.8752327 -4.2362909 -1.8643943
8.2467728 -5.0853605 -1.8832849
9.3391533 -5.7612257 -1.7379872
10.859358 -6.704257 -1.5669962
14.447876 -8.9266739 -1.485831
18.871647 -11.664468 -1.1626958
28.502544 -17.631029 -0.58500463
6.2147613 -3.8563194 -1.959778
63.101616 -39.170418 1.2963997
6.8322601 -4.2427869 -1.8567461
8.2265272 -5.1106071 -1.8825216
9.2887897 -5.7750158 -1.7323555
10.771841 -6.7022724 -1.557734
18.827425 -11.728161 -1.1624864
28.546038 -17.796007 -0.58716875
6.1947107 -3.8738921 -1.9577073
6.8108006 -4.2624745 -1.8549464
8.2086382 -5.1392922 -1.8825216
9.3037271 -5.8294311 -1.7389257
10.76688 -6.7514324 -1.5604153
6.77988 -4.2530103 -0.7002092
18.749157 -11.770446 -1.1601835
28.388922 -17.835966 -0.58521408
6.1697097 -3.8882818 -1.9540838
6.7909355 -4.2831039 -1.8535968
8.1873283 -5.1658192 -1.8817585
9.3150568 -5.8819098 -1.7448702
10.738213 -6.7857928 -1.5596839
6.5982685 -4.1712513 -0.6829524
18.701204 -11.83155 -1.1597649
28.279184 -17.905005 -0.58423674
6.1365309 -3.8973663 -1.9478723
6.7907453 -4.3161907 -1.8576458
8.1460524 -5.1796193 -1.8764157
9.2711372 -5.8995428 -1.7404901
10.793157 -6.8733506 -1.5711397
6.5366168 -4.1642847 -0.67807168
18.646317 -11.888166 -1.1589276
28.122108 -17.943373 -0.58228213
6.0952282 -3.9010594 -1.9390724
6.7772784 -4.3409195 -1.8580956
8.1361885 -5.2133183 -1.8783239
9.2454987 -5.9286699 -1.7395515
10.785806 -6.9217057 -1.573577
6.4901857 -4.1666255 -0.67475975
18.584543 -11.940227 -1.1576715
28.140039 -18.09334 -0.58395755
6.5591669 -4.2189975 2.089705
6.0718327 -3.9160295 -1.9359666
6.7407994 -4.3508124 -1.852247
8.1195898 -5.242753 -1.8787055
9.2529526 -5.9791327 -1.7448702
6.6150498 -4.2761931 0.96715516
6.6060672 -4.2736559 1.2461572
6.5040407 -4.2076521 -0.67772305
6.5697303 -4.2517757 1.5211295
6.7431231 -4.3656611 -0.4209905
6.7028327 -4.3428974 -0.13940983
6.0435481 -3.9277258 -1.9313078
6.654089 -4.3261714 0.1385372
6.6912651 -4.3520031 -1.8427991
6.7064142 -4.3635216 0.4193157
8.096302 -5.2678509 -1.8775605
6.6258507 -4.3127489 0.69166797
9.2618217 -6.0307975 -1.7505019
10.787115 -7.0293489 -1.5808893
6.4726224 -4.219449 -0.67597991
6.6876965 -4.3629818 -0.41847834
6.6641898 -4.3509636 -0.13892116
6.0168715 -3.9403307 -1.9271667
6.6564746 -4.3625145 -1.8374002
6.7178669 -4.4044266 0.4209905
6.7561817 -4.4295468 -1.5703582
6.7073851 -4.3992281 0.70177799
6.7434907 -4.424593 -1.277444
6.6613746 -4.3723769 0.97836721
6.7203474 -4.4127645 -0.98714179
6.6652265 -4.3782349 1.263052
6.4595199 -4.2431111 -0.67615426
6.6366892 -4.3611479 1.5436448
6.6640816 -4.3808136 -0.41795498
6.6056519 -4.3440547 1.8252529
6.6205621 -4.355516 -0.13832778
6.5985413 -4.3426785 2.1166222
5.9885683 -3.9517334 -1.922508
6.6170492 -4.3681126 0.13839759
6.6444578 -4.3878713 -1.8382999
6.6657891 -4.4036293 0.41868767
6.6931744 -4.4217205 -1.5592911
6.6288247 -4.3808713 0.69515419
6.6983452 -4.4284954 -1.2718123
6.6063337 -4.3693213 0.97251743
6.6717925 -4.4142885 -0.98226702
6.5971909 -4.3665853 1.2530402
6.4546371 -4.2722316 -0.67720014
6.577229 -4.3550234 1.5333412
6.6454186 -4.4018435 -0.41774565
6.5644569 -4.349864 1.8180546
6.6036506 -4.3774939 -0.13829286
6.5447016 -4.3400612 2.1041989
5.953825 -3.9587078 -1.9157786
6.6017613 -4.3911839 0.13839759
6.5998983 -4.3916063 -1.8302019
6.6071501 -4.3980961 0.41596621
6.6466479 -4.4243879 -1.5520406
6.5803256 -4.381897 0.69166797
6.6499658 -4.4299469 -1.2655549
6.5646114 -4.3747416 0.96861762
6.6216574 -4.4144273 -0.97714853
6.5457535 -4.3654752 1.2461572
6.4943857 -4.3312168 -0.6829524
6.5276904 -4.3550749 1.5253272
6.6150618 -4.4150343 -0.4168036
6.5038533 -4.3424525 1.8054571
6.5850048 -4.3982968 -0.13822307
6.4877481 -4.3349748 2.0907402
5.938365 -3.9783912 -1.915261
6.5797486 -4.4097486 0.13825797
6.5958586 -4.4222145 -1.8333511
6.5735121 -4.4088945 0.41481483
6.6425767 -4.4552169 -1.5547118
6.5418267 -4.3892989 0.68922758
6.6246209 -4.4465275 -1.2636777
6.526228 -4.3821378 0.96520531
6.6259823 -4.4507966 -0.98007339
6.5189981 -4.3805847 1.2439669
6.5337996 -4.3905311 -0.68870467
6.5010433 -4.3701673 1.5226558
6.5813799 -4.4258385 -0.41565222
6.4935069 -4.3683925 1.8068069
6.5812244 -4.4290714 -0.1384674
6.4886026 -4.3683844 2.0959167
5.9228406 -3.9980152 -1.9147433
6.5610008 -4.4304514 0.13818815
6.5852261 -4.4484835 -1.8347007
6.5663557 -4.4374051 0.41533819
6.6497579 -4.4937663 -1.5600544
6.53967 -4.4210339 0.69062209
6.628695 -4.482904 -1.2674322
6.5322666 -4.4193521 0.96837389
6.6219139 -4.4816875 -0.98177958
6.5216603 -4.4154959 1.2474086
6.6108232 -4.4758635 -0.69846606
6.4987526 -4.4016414 1.5257088
6.585732 -4.4622288 -0.41690826
6.4895101 -4.3986864 1.8099562
6.5905499 -4.4688511 -0.13899097
6.486105 -4.3996825 2.1000578
5.9104462 -4.0197515 -1.915261
6.5570693 -4.4612002 0.13843249
6.5503263 -4.4582849 -1.8293018
6.5607319 -4.4670434 0.41596621
6.4652591 -4.4020381 -1.5203662
6.5373716 -4.4528074 0.6920166
6.632596 -4.5193629 -1.2711866
6.5250015 -4.4477172 0.96959257
6.614429 -4.5103664 -0.98299813
6.5159988 -4.4449129 1.2492858
6.6083279 -4.507895 -0.69986063
6.5092959 -4.4420047 1.5318148
6.5849609 -4.4953251 -0.41785032
6.48699 -4.4301038 1.8135554
6.571609 -4.489573 -0.13892116
6.4818716 -4.4299264 2.1036813
5.8804421 -4.029438 -1.9100846
6.5447559 -4.4863229 0.1385023
6.5395455 -4.4844294 -1.8306518
6.5533338 -4.4955668 0.41648957
6.3527174 -4.3579445 -1.4974691
6.5349302 -4.4846187 0.69341105
6.4930105 -4.4575181 -1.2474086
6.5388904 -4.4906955 0.97397989
6.6100974 -4.5412955 -0.98470432
6.519979 -4.4810572 1.2530402
6.6155396 -4.5467343 -0.70230097
6.5066929 -4.4735975 1.5348676
6.5939126 -4.5352607 -0.41942036
6.4811196 -4.4593477 1.8162549
6.5740166 -4.5249567 -0.13930511
6.4806895 -4.4623866 2.1083403
5.8472638 -4.0367699 -1.903873
6.5241189 -4.5057321 0.13839759
6.5270586 -4.5094447 -1.8315514
6.554822 -4.528626 0.41753629
6.3083959 -4.3600001 -1.4906
6.535625 -4.518734 0.69515419
6.383182 -4.4149818 -1.2292621
6.5509262 -4.5326943 0.97812337
10.268353 -7.1074939 -1.5333602
6.5278225 -4.518393 1.2574203
13.818431 -9.5683355 -1.4704918
6.5104036 -4.5096989 1.5394472
18.071148 -12.522389 -1.1522285
6.5455928 -4.5374551 1.83875
26.840687 -18.606171 -0.57006538
6.5007806 -4.5080714 2.1197281
5.8283792 -4.0538468 -1.90232
6.4566088 -4.4908032 0.13728063
6.5136685 -4.532177 -1.8320013
6.2802491 -4.3730192 -1.487547
6.3150167 -4.3988662 -1.2189375
6.3738461 -4.4431496 -0.95399332
6.3859143 -4.4548755 -0.68120927
18.052454 -12.598249 -1.1536939
6.384037 -4.4585371 -0.13591935
5.7959166 -4.0598521 -1.8961084
6.39504 -4.4811831 0.13630329
6.2367787 -4.3735318 -1.4806778
6.2769871 -4.4049959 -1.2145573
6.306313 -4.428863 -0.9461937
6.2928529 -4.4210505 -0.67284232
6.332828 -4.4524374 -0.40570837
6.3618922 -4.476192 -0.13577972
5.7880239 -4.0845141 -1.8981789
6.3630223 -4.4919453 0.13595425
6.2717505 -4.429153 -1.7726144
6.1926122 -4.3748851 -1.4738088
6.2293129 -4.4040728 -1.2083
6.2259951 -4.4049883 -0.9364441
6.2448578 -4.4199691 -0.66935611
6.2618332 -4.4352655 -0.40214953
6.3201265 -4.4798689 -0.13522124
5.754837 -4.0912614 -1.8919673
6.2737174 -4.4634452 -1.7775632
6.1549106 -4.380537 -1.4684662
6.1881576 -4.407455 -1.203294
6.1911826 -4.4128675 -0.93351924
6.1831989 -4.4104328 -0.66447538
6.2430611 -4.4547768 -0.40194017
6.2719026 -4.4786611 -0.13452315
5.7240987 -4.1010752 -1.886791
6.2406764 -4.4728298 -1.7726144
6.1228604 -4.391624 -1.4646499
6.4622416 -4.636754 0.69585145
6.1527052 -4.4162831 -1.1995395
6.1338172 -4.4043489 -0.92718202
6.1515851 -4.4203625 -0.6627323
6.2137198 -4.4683003 -0.40110281
6.2335048 -4.4841785 -0.13403448
5.6987834 -4.1131167 -1.8831675
6.1389337 -4.4340572 -1.7483196
6.0979452 -4.4060712 -1.4623603
6.3749685 -4.6079283 0.68818176
6.0700207 -4.3891201 -1.1863991
6.0661702 -4.3895617 -0.91938239
6.1070676 -4.4207792 -0.65959466
6.1657357 -4.4665289 -0.39900938
6.1951447 -4.4894829 -0.13354582
5.6703286 -4.1227593 -1.8785087
6.0327902 -4.3879061 -1.7222252
6.4454513 -4.6897736 0.41774565
6.0539565 -4.4065337 -1.4554911
6.3524032 -4.6254621 0.6874845
5.99475 -4.3650393 -1.1745101
6.0387464 -4.4003015 -0.91743249
6.0787206 -4.4326787 -0.65820014
6.1444354 -4.4822426 -0.39859068
6.1374431 -4.4804249 -0.13263829
5.6581841 -4.1426811 -1.8790263
6.0142927 -4.4066348 -1.7213255
6.3871589 -4.6815438 0.41502416
5.915801 -4.3360567 -1.4257249
5.9316921 -4.3508883 -1.1651241
6.4306364 -4.7185903 0.9793421
5.9849434 -4.3931623 -0.91158277
6.0543518 -4.4457374 -0.65715432
6.1062202 -4.4871049 -0.39712527
6.0959907 -4.4828658 -0.13207981
5.6343608 -4.1555271 -1.8759204
6.0647273 -4.4762058 -1.7402214
6.3514972 -4.6895752 0.41376811
5.8690414 -4.3333583 -1.4180925
5.9164681 -4.3715677 -1.1651241
6.3502731 -4.6938109 0.96959257
5.972764 -4.4163871 -0.91207021
6.035593 -4.4644737 -0.65680563
6.0712562 -4.4941325 -0.3958692
6.0481682 -4.4803114 -0.13138172
5.6027632 -4.162497 -1.8702265
5.9411578 -4.4171219 -1.7091781
5.8475785 -4.3491321 -1.416566
5.8884954 -4.3827572 -1.162621
6.2956367 -4.6874967 0.96374285
5.9477596 -4.4300942 -0.91060776
6.0008006 -4.4712296 -0.65471393
6.0171041 -4.4866452 -0.39335707
6.0100551 -4.4846539 -0.13089305
5.5851059 -4.1797132 -1.8691912
5.9179039 -4.4319925 -1.7069286
5.8135061 -4.355392 -1.4119867
5.8541946 -4.3890662 -1.1588666
5.938611 -4.455595 -0.91158277
5.9500995 -4.4658375 -0.65087909
5.9662728 -4.4812331 -0.3910543
5.9879694 -4.5007992 -0.13075343
5.5612259 -4.1922064 -1.8660854
5.9304004 -4.4737477 -1.7150269
5.7919993 -4.3709278 -1.4104601
6.2985682 -4.7549348 0.69044781
5.8388386 -4.4094744 -1.1588666
5.9040174 -4.4619346 -0.90865791
5.9281173 -4.4817739 -0.65018183
5.9187393 -4.477931 -0.38896087
5.9243932 -4.4854617 -0.12970628
5.5419431 -4.2080884 -1.8645325
5.7642412 -4.3800559 -1.6713864
5.7735815 -4.3887429 -1.4096969
6.3009634 -4.7913642 0.69253951
5.8139782 -4.4226527 -1.1569895
5.8473396 -4.4512539 -0.90232068
5.902926 -4.4951968 -0.64913595
5.8871861 -4.4864578 -0.38791415
5.8864388 -4.4891376 -0.12921762
5.5180135 -4.220366 -1.8614267
5.7102294 -4.3705397 -1.6601387
6.3083305 -4.8300648 0.41638491
5.7239327 -4.3826122 -1.4013014
6.2936902 -4.8205986 0.6935854
5.7985048 -4.4429207 -1.1569895
5.8223138 -4.4643903 -0.90085822
5.8587432 -4.493947 -0.64599836
5.8461409 -4.4875226 -0.38623938
5.835845 -4.4828577 -0.12844971
5.4925351 -4.231349 -1.8578032
5.6918526 -4.3880658 -1.6592389
6.3072476 -4.8642526 0.41743162
5.7085996 -4.4025655 -1.4013014
6.2894454 -4.8522739 0.69497991
5.7610674 -4.4462376 -1.1526093
6.2694359 -4.8403292 0.97251743
5.8098373 -4.487114 -0.90134573
5.7925687 -4.4753909 -0.64042038
5.8146396 -4.4956856 -0.38519266
5.8043456 -4.4909649 -0.12810066
5.4823103 -4.2540483 -1.8593562
5.6364822 -4.376832 -1.6475415
6.3060021 -4.8984919 0.41847834
5.686995 -4.4176478 -1.3997749
6.281909 -4.8815341 0.69602579
5.7174392 -4.4444981 -1.1469777
6.2619042 -4.8694959 0.97397989
5.7659354 -4.4854264 -0.89695841
5.7737665 -4.4931364 -0.64007175
5.7390318 -4.4693232 -0.38121516
5.7697067 -4.496448 -0.12768181
5.4765606 -4.2802973 -1.862462
5.5873995 -4.3700681 -1.6376437
6.2983031 -4.9278588 0.41910636
5.6468005 -4.4181161 -1.393669
6.2758131 -4.9120283 0.6972459
5.6832266 -4.4498148 -1.1432233
6.2542453 -4.8986688 0.97544235
5.7252431 -4.4859376 -0.89305866
5.7392297 -4.4985142 -0.63797998
5.7045379 -4.4745369 -0.37995908
5.7256622 -4.4943357 -0.12705351
5.4570322 -4.2958031 -1.8609091
5.5414953 -4.3654265 -1.6286457
6.2983193 -4.9634123 0.42025778
5.6097565 -4.4207878 -1.3883264
6.2711463 -4.9437733 0.69864047
5.6583524 -4.4622869 -1.141346
6.2526922 -4.9327655 0.97787964
5.6877327 -4.4886775 -0.88964629
5.6859612 -4.4888902 -0.63379657
5.6732121 -4.4820404 -0.37891236
5.6566052 -4.4721279 -0.12586676
5.4374623 -4.3112249 -1.8593562
6.3436279 -5.0315037 0.14132959
5.5109572 -4.3726311 -1.6241466
6.2919059 -4.9940586 0.4209905
5.5696869 -4.4208136 -1.3822205
6.2632136 -4.9730673 0.69968635
5.6210861 -4.4648099 -1.1369658
6.258749 -4.9730854 0.98153585
5.6409502 -4.4837999 -0.88477147
5.6421871 -4.4863901 -0.63065898
5.6325264 -4.4819193 -0.37723759
5.7175369 -4.5511937 1.687133
5.6253166 -4.4793897 -0.12551771
5.6996536 -4.5402098 1.9525309
5.4299278 -4.3362064 -1.8619443
6.3197756 -5.0486236 0.14118996
5.4743481 -4.3748088 -1.617848
5.5480871 -4.4353251 -1.380694
6.2582636 -5.0048542 0.7010808
5.5838714 -4.4671283 -1.1325856
6.2754493 -5.0221896 0.98689806
5.6004696 -4.4836135 -0.88087165
5.60783 -4.4911127 -0.62856722
5.7119799 -4.5761595 1.4226719
5.6043797 -4.4915609 -0.37640023
5.7016158 -4.5711236 1.687133
5.6096458 -4.4989982 -0.12551771
5.4207802 -4.3599768 -1.8640147
6.3052306 -5.0731602 0.14125979
5.4377904 -4.3767853 -1.6115494
6.2988911 -5.0716825 0.42381662
5.5081048 -4.4349647 -1.3745881
6.2609272 -5.0429168 0.70334685
5.5313277 -4.4568467 -1.1250768
6.253242 -5.0403266 0.98616678
5.5507884 -4.4757228 -0.87550944
5.7273364 -4.6197276 1.1654369
5.548697 -4.4756355 -0.62368649
5.5544758 -4.4834976 -0.37409744
5.5690179 -4.4984474 -0.12495923
5.4085302 -4.3813043 -1.8650501
5.3861475 -4.3662877 -1.6007516
6.2944503 -5.1026039 0.42465398
5.480391 -4.444272 -1.3715351
6.2603054 -5.0785475 0.70526421
5.4911952 -4.4562111 -1.1200709
6.2556458 -5.0783892 0.98933536
5.5166397 -4.4800549 -0.87258458
5.5113912 -4.4773889 -0.6212461
5.5046973 -4.475142 -0.37179467
5.5106306 -4.4815626 -0.1239819
5.3857193 -4.3940511 -1.862462
5.8088217 -4.7392478 0.13085814
5.3625808 -4.3767314 -1.5980524
6.2765999 -5.1245451 0.42465398
5.4344335 -4.4385366 -1.3639028
6.2687693 -5.1217995 0.70822757
5.476388 -4.4743967 -1.1200709
6.2572155 -5.1141806 0.99226028
5.464869 -4.4681678 -0.86673486
5.4741402 -4.4789367 -0.61880577
5.4743714 -4.480721 -0.37074795
5.4887652 -4.4957027 -0.12384228
5.3621621 -4.4045286 -1.8593562
10.784172 -8.861372 0.24363559
5.3261938 -4.3780999 -1.5917536
6.2818146 -5.1654506 0.42622405
5.3923893 -4.4340887 -1.3570337
6.2671375 -5.1552162 0.70997071
5.43328 -4.4708929 -1.1144392
6.2515864 -5.1460838 0.99421012
5.44311 -4.4821687 -0.86575991
5.4285011 -4.4717293 -0.61531955
5.4741087 -4.5125074 -0.37179467
5.4267616 -4.4766598 -0.12279513
5.3437772 -4.4207568 -1.8583208
10.804013 -8.9410334 0.24478745
5.2928667 -4.3817525 -1.5863549
6.2791276 -5.2000861 0.4272708
5.3436136 -4.4253359 -1.3486381
6.2613788 -5.1872301 0.71136516
5.396347 -4.4721837 -1.110059
6.2473392 -5.1792774 0.99640387
5.4213185 -4.4960723 -0.8647849
5.4036584 -4.4830184 -0.61427367
5.39993 -4.483108 -0.36781713
5.3864923 -4.4751291 -0.12223665
5.2535906 -4.3802342 -1.5791564
6.2793431 -5.2373238 0.42852688
5.3251181 -4.4414468 -1.3478748
6.2585316 -5.2218189 0.71310824
5.3473396 -4.4631462 -1.103176
6.2383647 -5.2086868 0.99786633
5.3598847 -4.4767928 -0.85747278
5.3696299 -4.4865232 -0.6121819
5.3658614 -4.4865561 -0.36656106
5.3555021 -4.481071 -0.1218876
5.2328711 -4.3909001 -1.8303684
5.2084212 -4.3734832 -1.5701584
6.2671404 -5.2643499 0.42894551
5.2825232 -4.4372787 -1.3410057
6.2524686 -5.2538867 0.71450275
5.3075333 -4.4614482 -1.09817
6.2247028 -5.2342634 0.99859744
5.3199196 -4.4750295 -0.85357296
5.3112512 -4.4693208 -0.60730124
5.3196125 -4.4795294 -0.36446762
5.3275943 -4.48943 -0.12160837
5.1983299 -4.3929296 -1.8236392
5.1603875 -4.3639536 -1.5602605
6.2609253 -5.2965136 0.42978293
5.2340269 -4.4277954 -1.3326101
6.2477794 -5.2872639 0.71607161
5.2738357 -4.4646316 -1.0944157
6.2109389 -5.2598085 0.99932873
5.2770028 -4.4704757 -0.84918565
5.2773781 -4.4723759 -0.60520947
5.2887111 -4.4851527 -0.3634209
5.3118911 -4.5079999 -0.12160837
5.1594253 -4.3910146 -1.8153569
5.1213851 -4.3617234 -1.5530621
6.2712836 -5.3429456 0.43177167
5.182673 -4.4154816 -1.3234513
6.2383833 -5.3167949 0.71711749
5.24018 -4.4676347 -1.0906612
6.1970716 -5.2853212 1.00006
5.2462645 -4.4759841 -0.84674829
5.2465796 -4.4778357 -0.60346633
5.2365732 -4.472456 -0.36090881
5.2474785 -4.4849386 -0.12049142
5.1499333 -4.4140267 -1.8174274
5.0765452 -4.3541999 -1.544064
5.152329 -4.4207616 -1.319635
6.2318816 -5.3489194 0.71851194
5.2035718 -4.4678826 -1.0862811
6.1891255 -5.3159747 1.0017661
5.2125406 -4.4787455 -0.84382337
5.1976762 -4.4675508 -0.59963149
5.2088156 -4.4802885 -0.36007139
5.2287602 -4.5006189 -0.1204216
5.1637421 -4.4572225 -1.8277801
5.0318203 -4.3464165 -1.535066
5.1279531 -4.4310174 -1.3173454
6.2342749 -5.3888812 0.72095227
5.1550708 -4.4575939 -1.0793979
6.1810412 -5.3466382 1.0034722
5.1728568 -4.4761305 -0.83992356
5.1669855 -4.4726267 -0.59788835
5.1720099 -4.4801354 -0.35860601
5.1858196 -4.4952669 -0.11979332
5.1510682 -4.4777551 -1.8288155
4.9989743 -4.3486066 -1.5296671
5.0946822 -4.4334249 -1.312766
6.2214375 -5.415843 0.72164959
5.1245823 -4.4625893 -1.0762693
5.1332555 -4.4732928 -0.83602375
5.1423306 -4.4827805 -0.59684253
5.1322589 -4.4771547 -0.35693124
5.1550322 -4.5001907 -0.11944427
5.1295919 -4.4906187 -1.8267449
4.9837646 -4.3660293 -1.5296671
6.2351279 -5.464211 0.43449312
5.0585046 -4.4330664 -1.3074232
6.2024946 -5.4375267 0.72164959
5.1030335 -4.4752402 -1.0750178
6.2316065 -5.4668965 1.0178528
5.0967216 -4.4728532 -0.83261144
5.0967059 -4.4744143 -0.59335625
5.0985942 -4.4792242 -0.35567519
5.0942369 -4.478548 -0.11839712
5.1066403 -4.5021086 -1.8241568
4.9568033 -4.373086 -1.526068
5.0253358 -4.4351082 -1.3028439
5.0518465 -4.4616427 -1.0675089
5.0602531 -4.4722128 -0.82919908
5.0601592 -4.4737024 -0.59091592
5.0679693 -4.4837604 -0.35462847
5.0665951 -4.4856982 -0.11811788
5.0634456 -4.4955373 -1.8143215
4.9327669 -4.3825955 -1.5233686
4.9922152 -4.4369717 -1.2982645
5.0244331 -4.4687471 -1.0650059
5.0208864 -4.4687324 -0.82529926
5.0236793 -4.4727902 -0.58847558
5.0343924 -4.4854803 -0.35337242
5.0329957 -4.4873877 -0.11769903
4.9065876 -4.3869958 -1.763593
4.9058208 -4.3893924 -1.5197693
4.9532905 -4.4334216 -1.2921586
4.9852605 -4.4651718 -1.0600001
4.9934311 -4.4756322 -0.82334936
4.987268 -4.4716783 -0.58603519
4.9889727 -4.4763489 -0.35127899
4.9934936 -4.4835529 -0.11714055
4.896987 -4.4092669 -1.7656636
4.8470368 -4.3673558 -1.5062722
4.9232016 -4.4375405 -1.2883424
4.9403076 -4.4560852 -1.0537428
4.9571476 -4.4744139 -0.81993699
4.956841 -4.4757066 -0.58429211
4.9496064 -4.4723125 -0.34960422
4.9570475 -4.4821796 -0.11665189
4.9473982 -4.4860263 -1.789475
4.8231039 -4.3763919 -1.5035729
4.881515 -4.4309478 -1.2814733
4.9130244 -4.4626775 -1.0512397
4.9297471 -4.481009 -0.81798708
4.9264469 -4.479579 -0.58254898
4.9251013 -4.4814973 -0.34897619
4.9147573 -4.4752216 -0.1160236
4.9003239 -4.4746099 -1.7780869
4.802043 -4.3879428 -1.5017732
30.357815 -27.749655 2.1555088
4.8283429 -4.4135208 -1.2715513
4.8740959 -4.4584675 -1.0462338
4.8935761 -4.4794245 -0.81457478
4.8784528 -4.4671464 -0.57871413
4.8799772 -4.4716749 -0.34688276
4.8814197 -4.4761324 -0.11560474
4.8889408 -4.4956112 -1.7796398
4.7694888 -4.3888435 -1.4963745
4.8071294 -4.4250288 -1.2700247
4.8468804 -4.464747 -1.0437309
4.8516374 -4.4722605 -0.81018746
4.8423238 -4.4652395 -0.5762738
4.8672743 -4.4913912 -0.34709209
4.8510737 -4.479578 -0.11525569
4.823607 -4.4667096 -1.7615224
4.7427049 -4.3948689 -1.4927752
4.7830153 -4.4337745 -1.2677351
4.8051982 -4.4574571 -1.0380992
4.8127189 -4.4675603 -0.80628765
4.8150277 -4.4712682 -0.57487923
4.8340101 -4.4920392 -0.34583604
4.8119779 -4.4746962 -0.11469722
4.8855987 -4.5447474 1.787922
4.783967 -4.4611216 -1.7527226
4.710238 -4.395443 -1.4873765
4.747417 -4.4316869 -1.2623924
4.7751737 -4.4607186 -1.0349705
4.7912946 -4.4789104 -0.80531269
4.790659 -4.4798837 -0.57383341
4.7658005 -4.4597573 -0.34206784
4.8313675 -4.5226955 1.5278676
4.7963285 -4.491466 -0.11469722
4.7387929 -4.4500227 -1.7418523
4.6835055 -4.4011812 -1.4837772
4.7090311 -4.4267168 -1.2562865
4.7451859 -4.4638247 -1.0318419
4.7467227 -4.4683948 -0.80043793
4.7691908 -4.4911156 -0.57313615
4.8501549 -4.5689573 1.2952114
4.74439 -4.4708867 -0.34164914
4.7631631 -4.4917178 -0.11427836
4.7400737 -4.4824648 -1.7480639
4.6539598 -4.4041085 -1.4792781
4.699254 -4.4485269 -1.257813
4.7123666 -4.4640598 -1.0280875
4.710927 -4.465817 -0.79702556
4.8719983 -4.6201229 1.0634416
4.7158961 -4.4720907 -0.56860405
4.7113695 -4.4709225 -0.3403931
4.7097535 -4.4725146 -0.11337084
4.6768327 -4.4536872 -1.7304642
4.6329155 -4.4149499 -1.4774785
4.669487 -4.4513569 -1.2539968
4.6853209 -4.4695735 -1.0255845
4.6924376 -4.4794927 -0.79653811
4.8101258 -4.5934448 1.0534298
4.6800842 -4.4692612 -0.56616372
4.655304 -4.4487052 -0.33746228
7.5165043 -7.1854377 2.4006777
4.6767702 -4.4723425 -0.11295197
4.7365518 -4.5421896 -1.7584167
4.603415 -4.4176021 -1.4729795
4.6369247 -4.4513135 -1.2494174
4.6440487 -4.4612684 -1.0199529
4.8249831 -4.6367016 0.82164317
4.6739111 -4.4930935 -0.79605067
4.6472216 -4.4689975 -0.56407195
4.6426244 -4.4676971 -0.33767161
4.6323223 -4.4608989 -0.11225387
4.5983777 -4.4406023 -1.7128645
4.5851645 -4.4309354 -1.4720796
4.6044202 -4.451098 -1.2448379
4.8051605 -4.6467767 0.58481503
4.6085706 -4.4582238 -1.0155727
4.6353784 -4.4872899 -0.7921508
4.6373191 -4.490737 -0.56476921
4.6241331 -4.4810963 -0.33746228
4.5994959 -4.4603362 -0.11183503
4.585619 -4.4593196 -1.7138997
4.5557036 -4.4333229 -1.4675807
4.5804138 -4.4589267 -1.2425482
4.5901508 -4.4715266 -1.0149469
4.6026287 -4.486815 -0.78922594
4.5930867 -4.4790764 -0.56128299
4.5798745 -4.4693122 -0.33536884
4.572453 -4.4651875 -0.11155578
4.6528406 -4.5563974 -1.744958
4.5151477 -4.4246473 -1.4594824
4.7865124 -4.6922116 0.35127899
4.5423899 -4.452899 -1.2364424
4.5660534 -4.4792223 -1.0130697
4.584106 -4.5000725 -0.78873843
4.566051 -4.4839139 -0.55988848
7.6371017 -7.5023389 2.0809629
4.5756416 -4.4964705 -0.33620623
4.5397291 -4.4642954 -0.11113693
4.4911013 -4.4288273 -1.6900884
4.7647562 -4.7003284 0.11682641
4.4996748 -4.4403815 -1.4594824
4.5268197 -4.4687276 -1.2364424
4.5447688 -4.4895802 -1.0118183
4.557076 -4.5048823 -0.78678852
4.5305381 -4.4802117 -0.55744815
4.5343642 -4.4871278 -0.33432212
4.5099101 -4.4660444 -0.11078788
4.4893222 -4.4580894 -1.6952648
4.8022304 -4.7704859 0.1181528
4.4758544 -4.4478192 -1.4567831
4.5028386 -4.4761972 -1.2341527
4.5094633 -4.4859133 -1.0074381
4.5216274 -4.5011554 -0.78337622
4.5092244 -4.4903755 -0.55675089
4.4932089 -4.4775515 -0.33243802
4.4801326 -4.467639 -0.11043882
4.4382167 -4.4382167 -1.6818062
4.4327512 -4.4358468 -1.447785
4.4760857 -4.4807758 -1.2310997
4.4854035 -4.4932384 -1.0055609
4.4898496 -4.4992623 -0.78045136
4.4766407 -4.4891586 -0.55465913
4.4465356 -4.4620838 -0.33013523
4.4398894 -4.4569707 -0.10981054
4.4479814 -4.4775796 -1.6911237
4.4125257 -4.4449897 -1.4459854
4.4418421 -4.4760847 -1.225757
4.4565692 -4.4940615 -1.0024322
4.4525442 -4.4915705 -0.77655149
7.7628794 -7.8336544 1.7467474
4.4336853 -4.4756703 -0.55117291
4.4317145 -4.4768047 -0.33013523
4.4082065 -4.4546127 -0.10939168
4.6257939 -4.6875629 -1.7646283
4.3922877 -4.4540472 -1.4441857
4.4151669 -4.4803758 -1.2227042
4.4360967 -4.5031862 -1.0011806
4.4284825 -4.4985976 -0.77508909
4.412447 -4.4854379 -0.55047566
4.4048595 -4.4808526 -0.32929787
4.3758111 -4.452858 -0.10897283
4.297648 -4.3870816 -1.6455716
4.3513951 -4.4450502 -1.4360875
4.3904786 -4.4881072 -1.2204144
4.4057508 -4.5052919 -0.998052
4.4008656 -4.5034404 -0.77313918
4.3681364 -4.4730716 -0.54698944
4.3744574 -4.4826732 -0.32825115
4.34829 -4.4574146 -0.10869358
4.265377 -4.3861837 -1.6393598
4.3323579 -4.4581738 -1.4351877
4.3665771 -4.4949565 -1.2181247
4.3699455 -4.5015664 -0.99367183
4.385119 -4.518775 -0.77313918
4.3608184 -4.4968729 -0.54803526
4.333765 -4.4720984 -0.32636705
4.3215737 -4.4610758 -0.10841435
4.2427564 -4.3919678 -1.6362541
4.2958951 -4.4500837 -1.4279894
4.3216548 -4.478332 -1.2097291
4.3467665 -4.5075011 -0.99179459
7.8998141 -8.1947966 1.3975978
4.3535776 -4.5161419 -0.77021432
4.3265305 -4.491221 -0.54559493
4.3106003 -4.4778118 -0.32573903
4.3012104 -4.4696188 -0.10827474
4.2147923 -4.3920746 -1.6310778
4.254138 -4.4361739 -1.4189912
4.3013458 -4.4869695 -1.2082026
4.3263292 -4.5161853 -0.99054313
4.3570051 -4.5513868 -0.77362669
4.2895732 -4.482512 -0.54280597
4.2929668 -4.4891949 -0.32552966
4.3656654 -4.5668111 1.4585826
4.2662406 -4.4643655 -0.10778606
4.3622799 -4.5664601 1.6921589
4.1834426 -4.3899779 -1.624866
4.2278757 -4.4397068 -1.415392
4.2667065 -4.482049 -1.20286
4.2996464 -4.5198097 -0.98804021
4.2863822 -4.5090175 -0.76387709
4.4728169 -4.7067804 1.0284003
4.2491951 -4.4714613 -0.53966838
4.351253 -4.5804582 1.2280468
4.2607665 -4.4867735 -0.32427362
4.3577476 -4.5905023 1.461282
4.2341127 -4.4618235 -0.10736721
4.1601257 -4.3961349 -1.6217602
4.2069969 -4.4487743 -1.4135925
4.2402453 -4.4855018 -1.199807
4.5459599 -4.8105798 0.57906276
4.2729912 -4.523303 -0.98553723
4.3804407 -4.6386685 0.78337622
4.270617 -4.5239525 -0.76387709
4.3763704 -4.6376009 1.009941
4.2308259 -4.4833684 -0.53931969
4.2258949 -4.4812756 -0.32280821
4.202055 -4.4591126 -0.10694835
4.1394634 -4.4049983 -1.6196897
4.1834383 -4.4549088 -1.410893
4.4481001 -4.7384024 0.34060243
4.2084384 -4.483099 -1.1952276
4.3805318 -4.6680565 0.56006277
4.2490668 -4.5295463 -0.98365998
4.2330775 -4.5156603 -0.75997728
4.1906281 -4.471941 -0.53618211
4.1883841 -4.4726734 -0.32113346
4.1591377 -4.4445515 -0.10625025
4.1108823 -4.4052973 -1.6145133
4.4208679 -4.7391415 0.1131265
4.1492558 -4.449532 -1.4045944
4.4070191 -4.7276039 0.33871832
4.1874089 -4.4920177 -1.1937011
4.2009153 -4.5096612 -0.97615117
4.1956487 -4.5071616 -0.75607747
4.1695633 -4.4807072 -0.53548485
4.1645851 -4.4784913 -0.32050541
4.1299858 -4.4443936 -0.1059012
4.0928535 -4.4167862 -1.6134779
4.123106 -4.4525495 -1.4009951
4.1583667 -4.4921994 -1.1898849
4.1770992 -4.5155973 -0.97427392
4.15833 -4.498456 -0.75217766
4.1457844 -4.4864545 -0.53443903
4.1407971 -4.4841971 -0.31987742
4.1090221 -4.4529047 -0.10576159
4.0643296 -4.4168301 -1.6083016
4.0969863 -4.4554386 -1.397396
4.1373458 -4.5009065 -1.1883584
4.1559658 -4.5243316 -0.97302246
4.1533413 -4.5246429 -0.75412756
4.1023769 -4.4722548 -0.53095281
4.0954227 -4.4662385 -0.31757462
4.0907516 -4.4642715 -0.10569178
4.0142384 -4.3946114 -1.594843
4.0630126 -4.4495659 -1.3910973
8.1678638 -8.9480886 0.63493991
4.0970016 -4.4899359 -1.1814893
4.1500034 -4.5512104 -0.97552538
4.1188002 -4.5185742 -0.7507152
4.0760074 -4.4747639 -0.5295583
4.0790257 -4.4812193 -0.31757462
4.0482268 -4.4489436 -0.10499368
3.9962785 -4.405735 -1.5938078
4.0309715 -4.4471016 -1.3856986
8.1902332 -9.035737 0.63912678
4.062849 -4.4838424 -1.1761467
4.0651464 -4.4895267 -0.95925629
4.0835648 -4.5130324 -0.74730289
4.0389781 -4.465323 -0.52676928
4.0446086 -4.4746861 -0.31610921
4.0139041 -4.442275 -0.10450501
3.9757035 -4.4139161 -1.5917372
3.9953384 -4.4372735 -1.3785001
4.0471725 -4.4979968 -1.1761467
4.0370259 -4.4882951 -0.95612758
4.0473452 -4.5029278 -0.74340308
4.0286922 -4.4853239 -0.5274666
4.0270791 -4.4851017 -0.31589985
3.9756696 -4.4309559 -0.10391163
3.9533155 -4.418438 -1.5886314
3.9694343 -4.4395709 -1.3749009
3.9982181 -4.4733343 -1.1662247
4.010807 -4.4905734 -0.95362461
4.0051651 -4.4874086 -0.73852831
4.0024009 -4.487464 -0.52607203
3.998107 -4.4842238 -0.31485313
3.9455454 -4.4283834 -0.10352767
3.9191344 -4.4126759 -1.5813844
8.3751364 -9.4298267 0.22014466
3.9513257 -4.4504848 -1.374001
3.9687662 -4.4732728 -1.1624085
3.9812164 -4.4904623 -0.9504959
3.9763095 -4.4865055 -0.7360909
3.9708612 -4.4835091 -0.52398032
3.9842923 -4.5018392 -0.31506249
3.9101884 -4.4196639 -0.10300411
3.8985963 -4.4205341 -1.5793139
3.9169486 -4.4444695 -1.3677025
3.9401493 -4.4723678 -1.1585923
3.9446325 -4.4806094 -0.94549
3.9441049 -4.4831643 -0.73316604
3.9393976 -4.4793892 -0.52188861
3.9210892 -4.4617109 -0.31129432
3.8860459 -4.4249506 -0.10279468
3.8755057 -4.4253955 -1.576208
3.8937109 -4.449316 -1.365003
3.9115872 -4.4713182 -1.1547761
3.9107668 -4.4735308 -0.94110984
3.9101477 -4.4759746 -0.72975373
3.8975267 -4.463099 -0.51840234
3.8844795 -4.4512935 -0.30961955
3.8718903 -4.4399953 -0.10282958
3.8574996 -4.4359813 -1.5751728
3.8653734 -4.4481711 -1.360504
3.8908052 -4.4790163 -1.1532496
3.8821783 -4.4722366 -0.93798119
3.8866956 -4.4805994 -0.72829127
3.8767025 -4.4706554 -0.51770508
3.8479905 -4.4406757 -0.3079448
3.8498235 -4.4459252 -0.10265506
3.8318908 -4.4377217 -1.5710317
3.849823 -4.461637 -1.360504
3.8636067 -4.4791908 -1.1498151
3.8613851 -4.4797764 -0.93672973
3.8554854 -4.47609 -0.72536635
3.8454733 -4.466043 -0.51561338
3.8350718 -4.4571085 -0.30815417
3.8264582 -4.4502387 -0.10244562
3.811347 -4.4452043 -1.5689611
3.8190103 -4.4572897 -1.3551052
3.8211281 -4.4613371 -1.1418011
3.835448 -4.4812217 -0.93422669
3.834676 -4.4834867 -0.72439146
3.8220923 -4.4703526 -0.51456749
3.7961373 -4.4431348 -0.30627003
3.7706492 -4.4164233 -0.10136358
3.7782745 -4.4378881 -1.5617142
3.7958515 -4.4616876 -1.3524057
3.7953565 -4.4626837 -1.1387482
3.7993147 -4.4704986 -0.9292208
3.8061526 -4.4817147 -0.72195405
3.7935696 -4.4684787 -0.51282436
3.788357 -4.465497 -0.30689809
3.7396927 -4.4112549 -0.10094472
3.7602663 -4.4480987 -1.5606788
3.775224 -4.4689555 -1.3506061
3.7772222 -4.4729047 -1.1379849
3.7734947 -4.4716568 -0.92671788
3.7861497 -4.4882421 -0.72097909
3.7651076 -4.4664598 -0.51108128
3.7444379 -4.4450879 -0.30459529
3.7211802 -4.4190431 -0.10084001
3.7281034 -4.4398317 -1.553432
3.7378366 -4.4545798 -1.342508
3.7396584 -4.4583311 -1.1311158
3.7459559 -4.4690065 -0.92358917
3.7635958 -4.491643 -0.71951669
3.7374847 -4.463645 -0.50933814
3.7476201 -4.4789252 -0.3060607
3.6923923 -4.4144859 -0.10045605
3.70841 -4.4462357 -1.5513614
3.7230439 -4.4669504 -1.342508
3.7140217 -4.4592891 -1.1280628
3.7184765 -4.4662228 -0.92046052
3.7301199 -4.4833894 -0.71610433
3.7193329 -4.4735994 -0.50898951
3.7217526 -4.4796901 -0.30522332
3.6654623 -4.4135027 -0.10014191
3.6773055 -4.4419408 -1.5451498
3.6842878 -4.4535379 -1.3344096
3.682642 -4.4547148 -1.1234834
3.6995649 -4.4767766 -0.91983473
3.695966 -4.4756021 -0.71269196
3.6851585 -4.4656878 -0.50654918
3.6926019 -4.4778914 -0.3041766
3.632726 -4.4068489 -0.09968815
3.6438301 -4.4344926 -1.5379028
3.670413 -4.4700246 -1.3353095
3.659596 -4.4584374 -1.1211938
3.6680992 -4.4719782 -0.91608036
3.682054 -4.4921889 -0.71317947
3.6518691 -4.4569483 -0.50410885
3.6668267 -4.4783916 -0.30333924
3.6216147 -4.4263244 -0.099827766
3.6210012 -4.4382038 -1.534797
3.6301596 -4.4526014 -1.3263115
3.6390495 -4.4650965 -1.1196673
3.6524665 -4.4847555 -0.91608036
3.6463022 -4.4803796 -0.7092796
3.633774 -4.4665775 -0.50376016
3.6209342 -4.4539695 -0.30082709
3.6111856 -4.4451475 -0.099967383
3.5957587 -4.4388075 -1.530656
3.5949771 -4.4410114 -1.319113
3.6110911 -4.4625106 -1.115851
3.6243689 -4.4821167 -0.91295165
3.6214418 -4.4800963 -0.70732975
3.6056411 -4.4637356 -0.50201708
3.5903113 -4.4479327 -0.29957107
21.44544 -26.577625 -0.59610438
3.5810192 -4.4507074 -1.530656
3.5802305 -4.452908 -1.319113
3.6011934 -4.4805822 -1.1173775
3.6045375 -4.4879503 -0.91170013
3.5891664 -4.4704099 -0.70391744
3.5758572 -4.4570189 -0.49992532
3.5605495 -4.4411139 -0.29831499
21.364695 -26.657959 -0.59631383
3.5638285 -4.4595394 -1.5296206
3.5630119 -4.4617105 -1.3182131
3.5667179 -4.4679499 -1.1112716
3.5871718 -4.4967904 -0.91107446
3.5710652 -4.4798069 -0.70342994
3.5560911 -4.4626198 -0.49922809
3.5507793 -4.4591465 -0.29873365
21.174389 -26.610319 -0.59359121
3.5290275 -4.4477386 -1.5213385
3.5328875 -4.4557967 -1.3128144
3.5462224 -4.4742188 -1.1097453
3.5567358 -4.4907026 -0.90732002
3.5578699 -4.495358 -0.70391744
3.5281301 -4.4593806 -0.49748495
3.5228055 -4.4558463 -0.29768693
21.173105 -26.80018 -0.59617418
3.5110893 -4.4569945 -1.5203031
3.5028479 -4.4497271 -1.3074155
3.52087 -4.474227 -1.1066922
3.5263855 -4.484457 -0.90356559
3.5323443 -4.4952626 -0.70196748
3.5051577 -4.4622679 -0.4964391
3.499831 -4.4586897 -0.29705891
21.074492 -26.867636 -0.59603459
3.4859896 -4.4570503 -1.516162
3.484894 -4.4588561 -1.3065157
3.5003958 -4.4803019 -1.1051657
3.4985542 -4.4811687 -0.90043688
3.504421 -4.4919143 -0.69953007
3.4699559 -4.4493384 -0.49365011
3.4768796 -4.4614272 -0.29643089
20.909315 -26.849527 -0.59401011
3.4633009 -4.4600363 -1.5130562
3.4621406 -4.4617562 -1.3038163
3.4775157 -4.4831858 -1.1028761
3.47563 -4.4839854 -0.89855969
3.4668396 -4.4758711 -0.69514281
3.4519639 -4.4582734 -0.49330151
3.4588406 -4.4703774 -0.29622155
3.5183163 -4.5488868 1.3276612
3.4945211 -4.5213814 1.5311736
3.4288392 -4.447619 -1.504774
3.6094844 -4.6836281 0.10321353
3.4465449 -4.4738145 -1.3038163
3.6034534 -4.6791797 0.30951488
3.4474702 -4.4766312 -1.0982966
3.570761 -4.638402 0.51212716
3.4599566 -4.4960904 -0.89855969
3.4681358 -4.5099759 -0.69855517
3.5274282 -4.5887365 0.91670603
3.4630952 -4.5050473 -0.49713635
3.4966114 -4.5502915 1.1154695
3.489449 -4.5426116 -0.30019906
3.4858 -4.5395017 1.3213625
3.6017039 -4.6921353 -0.10324844
3.4940054 -4.5534763 1.5379028
3.3968551 -4.4380836 -1.497527
3.5918984 -4.6946106 0.10317863
3.4095969 -4.4579554 -1.2957181
3.5713282 -4.671103 0.30815417
3.4198985 -4.4730415 -1.0944804
3.5618072 -4.660336 0.51317304
3.4370458 -4.4987226 -0.8966825
3.4403262 -4.5062761 -0.69611776
3.4255908 -4.4885993 -0.49399874
3.4105918 -4.4721818 -0.29475614
3.3836803 -4.4529905 -1.4985623
3.3822308 -4.4543095 -1.291219
3.4042637 -4.484952 -1.0944804
3.4069958 -4.4918065 -0.892928
3.3933992 -4.4771252 -0.68978053
3.3810246 -4.4624162 -0.48981526
3.3901377 -4.4776902 -0.29433745
20.505854 -27.103765 -0.59324217
3.358808 -4.4524364 -1.4944212
3.3525851 -4.4474149 -1.2858201
3.3720467 -4.4748573 -1.0891378
3.3675308 -4.4721112 -0.88667065
3.3634276 -4.4699087 -0.68685567
3.3510554 -4.4550843 -0.48772353
3.3576863 -4.467145 -0.29287204
20.382298 -27.136806 -0.59240448
3.3270338 -4.4424858 -1.4871743
3.3206935 -4.4372478 -1.2795216
3.344646 -4.47088 -1.0853217
3.342438 -4.4711819 -0.88416773
3.3383002 -4.4688993 -0.68490577
3.3235626 -4.4507899 -0.48598042
3.3301282 -4.4628315 -0.29182532
20.280279 -27.198168 -0.59219509
3.2999797 -4.4385691 -1.481998
3.30286 -4.4456835 -1.2786218
3.3056083 -4.451005 -1.0776893
3.3126838 -4.4637866 -0.88041329
3.3108559 -4.4645796 -0.68246841
3.2985144 -4.4495602 -0.48458594
3.3026412 -4.4583788 -0.29077861
20.220907 -27.317013 -0.59324217
3.2615218 -4.4189744 -1.4716451
3.2803817 -4.4477758 -1.2759224
3.2947114 -4.4688377 -1.0792158
3.2877085 -4.4626002 -0.87791038
3.2858367 -4.4633207 -0.68051845
3.2806005 -4.4578376 -0.48423728
3.2894251 -4.4730988 -0.29098797
3.2529275 -4.4396825 -1.474751
3.2625334 -4.4560542 -1.2750225
3.2582209 -4.4517941 -1.0723467
3.2557857 -4.451726 -0.87353015
3.2632089 -4.4651465 -0.67905599
3.2438643 -4.4403033 -0.48109969
3.2549489 -4.4587431 -0.2893132
3.2290776 -4.4265471 -0.095639192
3.2305925 -4.4416361 -1.4716451
3.2309191 -4.4453464 -1.268724
3.2380455 -4.4567871 -1.0708202
3.235584 -4.4566698 -0.87227869
3.2359462 -4.4604421 -0.67661864
3.230684 -4.4548249 -0.48144829
3.2088933 -4.4280295 -0.28659174
3.2464459 -4.4831409 -0.096616521
3.2060213 -4.4403558 -1.467504
3.2062602 -4.4439545 -1.2651247
3.2063909 -4.4457698 -1.0654775
3.2084582 -4.4519114 -0.86914998
3.2133961 -4.4620457 -0.67515624
3.205802 -4.4531398 -0.48005384
3.2120788 -4.4651451 -0.28826648
3.1702447 -4.4232559 -1.4581866
3.1929982 -4.4582882 -1.2660246
3.179424 -4.4409723 -1.0616612
3.1814051 -4.4470181 -0.86602128
3.1931829 -4.4667754 -0.67418122
3.1809707 -4.451334 -0.4786593
3.1732597 -4.4438219 -0.28617305
3.1458261 -4.4217029 -1.4540454
3.1706412 -4.459877 -1.2633251
3.1525297 -4.4360404 -1.0578451
3.1635749 -4.4548745 -0.86539555
3.1614885 -4.4552302 -0.67076892
3.1515806 -4.4429102 -0.4765676
3.1600385 -4.4581304 -0.28638238
3.128144 -4.4295011 -1.4530102
3.1370766 -4.4454417 -1.2561266
3.1257095 -4.430975 -1.054029
3.1343482 -4.446516 -0.86164117
