# .PCD v0.7 - Point Cloud Data file format
VERSION 0.7
FIELDS x y z
SIZE 4 4 4
TYPE F F F
COUNT 1 1 1
WIDTH 1508
HEIGHT 1
VIEWPOINT 0 0 0 1 0 0 0
POINTS 1508
DATA ascii
29.19879 -4.5776291 -1.5489351
56.96032 -8.950305 -1.0064454
7.586266 -1.2029039 -2.0581291
8.6914406 -1.3812543 -2.0317578
10.146099 -1.614246 -1.997007
12.328627 -1.9658991 -1.9773319
15.293614 -2.444165 -1.9016495
19.528095 -3.1243982 -1.7302158
29.12347 -4.6700377 -1.545795
56.731293 -9.1173506 -1.0029548
7.5629516 -1.2262855 -2.0529528
8.6865664 -1.4115846 -2.0317578
10.148154 -1.6509137 -1.9985336
12.306091 -2.0063791 -1.974829
15.277153 -2.4962542 -1.9006745
19.489542 -3.1880422 -1.7277755
29.067574 -4.7652073 -1.5437015
56.576782 -9.2952242 -1.0007908
7.5567193 -1.2523617 -2.0524352
8.6700506 -1.4399819 -2.0290585
10.150076 -1.6876152 -2.0000601
12.291219 -2.0480244 -1.9735774
15.26443 -2.5489123 -1.900187
19.446854 -3.250798 -1.7249866
29.023186 -4.8620234 -1.5422362
7.5618253 -1.2803445 -2.0550234
8.6534443 -1.4682814 -2.0263591
10.142188 -1.7227066 -1.9996784
12.276206 -2.0895905 -1.972326
15.239785 -2.5995092 -1.8982371
19.411819 -3.3146362 -1.7228948
28.962727 -4.9558926 -1.5399333
7.5458884 -1.3047575 -2.0519176
8.6521063 -1.499144 -2.0272589
10.116769 -1.7547437 -1.9958621
12.268838 -2.1324296 -1.972326
15.226707 -2.652009 -1.8977495
19.37265 -3.3775847 -1.7204543
28.866552 -5.0432119 -1.5357465
7.5565076 -1.333776 -2.0560586
8.6449013 -1.5289969 -2.026809
10.104782 -1.7890204 -1.9947174
12.247704 -2.1728275 -1.9701359
15.193904 -2.7009747 -1.8948246
19.356819 -3.4444892 -1.7201056
28.746529 -5.1257133 -1.5303035
7.5422997 -1.3584329 -2.0534704
8.6452656 -1.5602024 -2.0281587
10.094612 -1.8235838 -1.9939542
12.230325 -2.2138076 -1.9685715
15.157038 -2.7490354 -1.8914124
19.293709 -3.5027828 -1.7155735
28.69309 -5.2195916 -1.5284194
7.5318112 -1.383705 -2.0519176
8.6263504 -1.5879009 -2.0250094
10.080462 -1.8573866 -1.9924276
12.206983 -2.253617 -1.9660686
15.15906 -2.8040929 -1.8928748
19.257856 -3.5657561 -1.7134819
28.611856 -5.3080597 -1.52507
7.5364294 -1.4117658 -2.0545056
75.188019 -14.098222 1.3352836
8.6130934 -1.6165649 -2.0232098
10.070059 -1.8918376 -1.9916644
12.204866 -2.2973096 -1.9670072
15.129673 -2.8533118 -1.8904375
19.2218 -3.6285219 -1.7113901
28.506804 -5.3915701 -1.5204644
7.5371485 -1.4391513 -2.0560586
8.60357 -1.645888 -2.02231
10.06725 -1.9277157 -1.9924276
12.183191 -2.3372934 -1.964817
15.100127 -2.90236 -1.888
19.201189 -3.6940904 -1.7106929
28.397596 -5.4736552 -1.5156494
7.5074272 -1.4606559 -2.0493293
8.605423 -1.6774013 -2.0241096
10.045044 -1.9598376 -1.9893748
12.171082 -2.3790486 -1.9641914
15.0938 -2.9558148 -1.8884875
19.152985 -3.754195 -1.7075553
28.34304 -5.5658207 -1.5137653
7.5117579 -1.4887305 -2.0519176
75.958153 -15.067676 1.3516889
8.6014271 -1.7078093 -2.0245595
10.038142 -1.9948894 -1.9893748
12.153017 -2.4195902 -1.9626271
15.067817 -3.0053773 -1.8865376
19.088961 -3.8108864 -1.7030232
28.27252 -5.6545386 -1.5110439
7.508409 -1.5153246 -2.0524352
8.5954142 -1.7378234 -2.0245595
10.040738 -2.0318637 -1.9912828
12.134816 -2.4600353 -1.9610627
15.049453 -3.0563755 -1.8855627
19.083355 -3.8790836 -1.7037203
28.209553 -5.7444253 -1.508741
7.5087509 -1.5426909 -2.053988
76.231102 -15.675731 1.3584604
8.5759335 -1.7650665 -2.02141
10.027816 -2.0657115 -1.9901379
12.116483 -2.5003824 -1.9594984
15.011477 -3.1032631 -1.8821504
19.050186 -3.9416366 -1.7019774
28.122837 -5.8290787 -1.5051823
7.5089931 -1.5700783 -2.055541
76.206108 -15.934167 1.3589491
8.5700331 -1.7934955 -2.02141
10.010936 -2.0986886 -1.9882298
12.106191 -2.5401425 -1.9591854
14.966136 -3.1456759 -1.877763
19.020714 -4.0048261 -1.7005829
28.032997 -5.9074788 -1.5014141
7.498076 -1.5937653 -2.053988
8.5618153 -1.8229938 -2.0209603
10.003922 -2.1318743 -1.9882298
12.095319 -2.5819736 -1.9588726
14.958946 -3.1987286 -1.8782505
18.972261 -4.0603738 -1.6974453
27.96143 -5.9944105 -1.4986926
7.4679203 -1.6146215 -2.0472586
8.5573034 -1.8532813 -2.02141
9.9925814 -2.1659498 -1.9874666
12.068858 -2.6204059 -1.9560568
14.94769 -3.2509255 -1.8782505
18.942396 -4.1231842 -1.6960508
27.86618 -6.07581 -1.4947151
7.4622388 -1.6406795 -2.0472586
8.5469761 -1.8823025 -2.0205104
9.9772921 -2.1991272 -1.9859402
12.061567 -2.6629438 -1.9563696
14.924622 -3.3005111 -1.876788
18.900656 -4.1832528 -1.6936104
27.794104 -6.1618047 -1.4919935
7.4564657 -1.6667175 -2.0472586
8.5403538 -1.9121255 -2.0205104
9.965723 -2.2330825 -1.9851768
12.042562 -2.7028675 -1.9548053
14.889768 -3.347363 -1.8738631
18.870386 -4.2457042 -1.6922158
27.75684 -6.2552738 -1.4911562
7.4694409 -1.6970153 -2.0524352
8.5222263 -1.9393309 -2.0178108
9.9674387 -2.2700355 -1.987085
12.009941 -2.7396154 -1.9510508
14.877993 -3.3993173 -1.8738631
18.8438 -4.3088841 -1.69117
27.65696 -6.3342891 -1.4869694
7.4578252 -1.7217745 -2.0508821
8.5192013 -1.9699451 -2.0187106
9.9365015 -2.2995026 -1.9825056
12.004155 -2.7824137 -1.9516766
14.842834 -3.4458439 -1.8709384
18.809237 -4.3701258 -1.6894269
27.568542 -6.4154005 -1.4834105
7.4310808 -1.7429442 -2.0451882
8.5160685 -2.0005622 -2.0196106
9.9303255 -2.3346231 -1.9828871
11.986678 -2.8224881 -1.9504251
14.815257 -3.4939885 -1.8689884
18.755085 -4.4266024 -1.6859407
27.409922 -6.4794307 -1.4760834
7.4399853 -1.7724545 -2.0493293
8.5033464 -2.0289197 -2.0182607
9.9259357 -2.3701842 -1.9836504
11.951777 -2.8583391 -1.9463578
14.799109 -3.5447574 -1.8685009
18.708517 -4.484611 -1.6831516
27.363832 -6.5694757 -1.4748274
7.4356313 -1.7988683 -2.0498469
8.486743 -2.0562954 -2.0160115
9.9176016 -2.4048178 -1.9836504
11.935968 -2.8986425 -1.9454193
14.775073 -3.5935798 -1.8670385
18.681133 -4.5470619 -1.6821058
27.305805 -6.6564379 -1.4729433
7.4255543 -1.823891 -2.0488117
8.4814062 -2.0863724 -2.0164614
9.8977079 -2.4366062 -1.9813608
11.920023 -2.9388707 -1.9444805
14.727748 -3.6365666 -1.8626511
18.641937 -4.6065083 -1.680014
27.193222 -6.7296414 -1.4681284
7.4210167 -1.8502673 -2.0493293
8.479743 -2.1173816 -2.0178108
9.8834286 -2.469713 -1.9802158
11.898193 -2.9775839 -1.9426033
14.703411 -3.6850581 -1.8611888
18.594826 -4.6637974 -1.6772251
27.177313 -6.8264689 -1.4685471
7.4032755 -1.8733168 -2.0462234
8.4647446 -2.1450539 -2.0160115
9.8823586 -2.5061276 -1.9817424
11.881985 -3.0176396 -1.9416648
14.675068 -3.732446 -1.8592389
18.555262 -4.7227798 -1.6751333
27.056549 -6.8966274 -1.4633135
7.3985629 -1.8996279 -2.046741
8.4534302 -2.1736174 -2.0151114
9.8773527 -2.5415866 -1.9825056
11.856076 -3.0551536 -1.9391619
14.654263 -3.7816648 -1.858264
18.52323 -4.783535 -1.6737388
27.005239 -6.9840302 -1.461848
7.3956256 -1.9264162 -2.0477762
8.4439058 -2.2026205 -2.0146616
9.851325 -2.5715871 -1.979071
11.839605 -3.0950217 -1.9382232
14.604486 -3.8232427 -1.8536329
18.487146 -4.8431149 -1.6719956
26.922741 -7.0630488 -1.4587079
7.3869886 -1.9517264 -2.0472586
8.4342823 -2.2315834 -2.0142117
9.8403921 -2.6054566 -1.9786894
11.815364 -3.1327868 -1.9360331
14.591051 -3.8741987 -1.8536329
18.454723 -4.9035254 -1.6706012
26.863178 -7.1477394 -1.4568238
7.3652029 -1.9735001 -2.0431178
102.52128 -27.470495 1.8526428
8.4343643 -2.2615592 -2.0160115
9.8198595 -2.636735 -1.9763998
11.803003 -3.1714382 -1.9357203
14.58004 -3.9230788 -1.8538766
18.39517 -4.9565101 -1.6667664
26.758337 -7.2149425 -1.4524276
7.3679395 -2.0004439 -2.0457058
8.4188967 -2.2889414 -2.0142117
9.8148508 -2.670315 -1.977163
11.778519 -3.2089844 -1.9335302
14.562427 -3.972904 -1.8533891
18.359411 -5.0122352 -1.6650232
26.709871 -7.3019829 -1.4511715
7.3609114 -2.0261507 -2.0457058
8.4112606 -2.3168471 -2.0142117
9.8054705 -2.7045593 -1.977163
11.756388 -3.2448723 -1.931653
14.526212 -4.0148273 -1.8504643
18.326445 -5.0720401 -1.6636288
26.620066 -7.3723912 -1.4476128
7.3541522 -2.0505493 -2.0457058
103.29427 -28.820845 1.8718753
8.3881063 -2.3420014 -2.0106125
9.7926664 -2.7360039 -1.9763998
11.743087 -3.2853575 -1.9313401
14.504462 -4.0633659 -1.8494893
18.285606 -5.1295228 -1.6615371
26.513407 -7.4425964 -1.4432166
7.3447285 -2.0769641 -2.0451882
8.3817549 -2.3717976 -2.0110624
9.7693501 -2.7681313 -1.9737284
11.725265 -3.3267584 -1.9304014
14.474914 -4.1096339 -1.8475394
18.244593 -5.1867824 -1.6594453
26.447533 -7.5287867 -1.441123
7.3355765 -2.1020575 -2.0446706
8.3730059 -2.4025025 -2.0110624
9.75208 -2.8000484 -1.9722018
11.709785 -3.3665752 -1.9297757
14.448308 -4.1593647 -1.846077
18.226376 -5.2504363 -1.6594453
26.352003 -7.6011329 -1.4373548
7.3244839 -2.1265731 -2.0436354
8.3780918 -2.4340606 -2.0142117
9.7441311 -2.8346202 -1.9725834
11.687177 -3.4020753 -1.9278985
14.407755 -4.1994777 -1.8426646
18.162037 -5.3006301 -1.6552618
26.269138 -7.67168 -1.4342147
7.3136845 -2.1497605 -2.0425999
8.3583279 -2.4599895 -2.0115123
9.7309113 -2.8658082 -1.9718202
11.654387 -3.4367046 -1.9244571
14.393008 -4.2497439 -1.8426646
18.121429 -5.3540535 -1.6531701
26.188574 -7.7474666 -1.4312838
7.3190966 -2.1791358 -2.0462234
8.3422194 -2.4869235 -2.0097127
9.735899 -2.9042475 -1.9748732
11.632856 -3.4745383 -1.9228927
14.370479 -4.2976847 -1.8416896
18.091179 -5.4138498 -1.6521243
26.103973 -7.8216367 -1.4281437
7.3151445 -2.2057862 -2.0472586
8.3297567 -2.5149016 -2.0088129
9.7031488 -2.931401 -1.9702938
11.616876 -3.5139794 -1.9222668
14.33259 -4.3409152 -1.8387648
18.056915 -5.4723434 -1.6507297
26.011532 -7.8929901 -1.4245849
7.3074007 -2.2313073 -2.0472586
8.3283825 -2.5462418 -2.0106125
9.700367 -2.9675512 -1.9718202
11.596984 -3.5521944 -1.9210155
14.305964 -4.3874269 -1.8373024
18.018654 -5.5294943 -1.6489866
26.006729 -7.990778 -1.425841
7.2866478 -2.2528074 -2.0436354
8.3194427 -2.5752978 -2.0106125
9.6768217 -2.9973276 -1.969149
11.576966 -3.5903132 -1.9197639
14.282978 -4.4349823 -1.8363274
17.975437 -5.5884018 -1.6468949
25.898581 -8.0565929 -1.4214448
7.2728109 -2.2777667 -2.0420823
8.3029642 -2.6019912 -2.0088129
9.6676445 -3.0333624 -1.9695306
11.552423 -3.6291687 -1.9178867
14.259835 -4.4824314 -1.8353524
17.940617 -5.6463289 -1.6455004
25.777441 -8.1226501 -1.4164205
45.462486 -14.334267 -0.83206093
7.2648158 -2.3031397 -2.0420823
8.285943 -2.6300473 -2.0070133
9.6532545 -3.0659018 -1.9687674
11.532153 -3.6670775 -1.9166353
14.224396 -4.5286441 -1.8329151
17.898018 -5.7016621 -1.6434087
25.71468 -8.2016573 -1.4145364
7.2622504 -2.3302555 -2.0436354
62.487949 -20.050655 1.1455061
8.2753201 -2.6569145 -2.0065634
9.6350183 -3.0971761 -1.9672408
11.523691 -3.7065094 -1.917261
14.194183 -4.5709214 -1.8309652
17.878006 -5.7641025 -1.6434087
25.66073 -8.2782993 -1.413071
43.842793 -14.160836 -0.80420691
7.245295 -2.3513434 -2.0410471
8.2752619 -2.6887956 -2.0088129
9.613492 -3.125468 -1.9649512
11.495656 -3.7418203 -1.9147581
14.163041 -4.615519 -1.8290153
17.828487 -5.8134747 -1.6406198
25.555731 -8.3430281 -1.4088842
44.362049 -14.491184 -0.81460851
7.2425499 -2.3784282 -2.0425999
62.467812 -20.514212 1.1476703
8.2681513 -2.716831 -2.0092628
9.598794 -3.1577795 -1.964188
11.475678 -3.7774503 -1.9135066
14.140118 -4.6599755 -1.8280404
17.785379 -5.8681808 -1.638528
25.520336 -8.4252234 -1.4084654
7.2268701 -2.4012582 -2.0405295
8.250742 -2.7446563 -2.0074632
9.5858498 -3.1906459 -1.9638064
11.458009 -3.8182366 -1.9128809
14.138007 -4.7167954 -1.8299903
17.734552 -5.9201331 -1.635739
25.424881 -8.497179 -1.4049066
45.336998 -15.160748 -0.83443451
7.2294316 -2.4301636 -2.0436354
8.2286654 -2.767653 -2.0043139
9.5690718 -3.2222075 -1.9626614
11.439668 -3.8543193 -1.9119422
14.103478 -4.757308 -1.8275528
17.713778 -5.9820027 -1.635739
25.309525 -8.5520325 -1.4000916
7.2304783 -2.4572318 -2.0462234
8.2355585 -2.8020089 -2.008363
9.557766 -3.2555904 -1.9626614
11.413056 -3.8897672 -1.9097521
14.034182 -4.7885609 -1.8207282
17.670164 -6.0360699 -1.6336472
25.225096 -8.6266432 -1.3971608
7.2141166 -2.4812031 -2.044153
8.2215481 -2.8309059 -2.0074632
9.5346327 -3.2867608 -1.9603716
11.394987 -3.9302835 -1.9091264
14.024042 -4.8425579 -1.8217031
17.63662 -6.0968876 -1.6326013
25.189533 -8.7177343 -1.3969514
7.1976757 -2.5050871 -2.0420823
8.2129564 -2.8616614 -2.0079131
9.5231018 -3.3200223 -1.9603716
11.374911 -3.9700694 -1.9081879
13.999556 -4.8888636 -1.8207282
17.596426 -6.1518393 -1.6308583
25.121244 -8.7924128 -1.394858
7.1911521 -2.529583 -2.0425999
8.2052603 -2.8895283 -2.008363
9.5046329 -3.3489742 -1.9588453
11.343054 -4.0011969 -1.9050591
13.987011 -4.9365821 -1.8212155
17.568413 -6.2075014 -1.6301609
25.046761 -8.8596849 -1.3923459
7.1954651 -2.5579455 -2.0462234
8.184617 -2.9128017 -2.0056636
9.5021324 -3.3854258 -1.9607532
11.311117 -4.0321565 -1.9019306
13.954738 -4.9800386 -1.8192657
17.516619 -6.2580643 -1.627372
24.895325 -8.9040136 -1.3856469
7.1842241 -2.5836473 -2.0457058
8.1738863 -2.94278 -2.0056636
9.4841194 -3.4182332 -1.9596084
11.286971 -4.0702367 -1.9003662
13.895313 -5.0163231 -1.8139035
17.504805 -6.3262858 -1.6284178
24.832474 -8.9843273 -1.3839722
7.1710753 -2.6086407 -2.0446706
8.16854 -2.97472 -2.0070133
9.4536848 -3.4445972 -1.9557924
11.264553 -4.10887 -1.8991146
13.880564 -5.0685792 -1.8143909
17.456417 -6.377779 -1.6259774
24.763445 -9.0572338 -1.3818787
7.1601124 -2.6329896 -2.044153
8.1622868 -3.0031371 -2.0079131
9.4416027 -3.4775758 -1.9557924
11.241598 -4.1427865 -1.8975502
13.863679 -5.1145811 -1.8143909
17.404144 -6.4276304 -1.6231885
24.692059 -9.1240721 -1.379576
7.1422873 -2.6533551 -2.0415647
8.142622 -3.028214 -2.0056636
9.4410572 -3.5129735 -1.958082
11.199302 -4.1716595 -1.8928572
13.812262 -5.1504593 -1.8100036
17.364067 -6.4783444 -1.6214453
24.615154 -9.1934366 -1.3770639
7.1402164 -2.6809866 -2.0436354
8.123414 -3.0517724 -2.0034139
9.4324141 -3.5472898 -1.9588453
11.174314 -4.2046008 -1.89098
13.787676 -5.1934347 -1.8090287
17.322706 -6.5318885 -1.6197023
24.550896 -9.2623224 -1.3751796
41.941692 -15.840078 -0.78256595
7.1403179 -2.708075 -2.0462234
8.1108904 -3.0794184 -2.0029643
9.4022455 -3.5715778 -1.955029
11.152184 -4.2407722 -1.8897287
13.754622 -5.2358813 -1.8070788
17.286055 -6.5836239 -1.6183078
24.46616 -9.3280411 -1.3722489
7.1218023 -2.729526 -2.0436354
8.1019115 -3.1084099 -2.0034139
9.3933868 -3.6057835 -1.9557924
11.129936 -4.2768407 -1.8884771
13.714028 -5.27531 -1.8041539
17.240656 -6.635335 -1.6162161
24.362629 -9.3861036 -1.3682714
7.1104293 -2.7536716 -2.0431178
8.1000967 -3.1401939 -2.0056636
9.3715906 -3.6350002 -1.9538842
11.105732 -4.3120899 -1.8869127
13.70293 -5.326025 -1.8051288
17.197649 -6.691256 -1.6144729
24.344606 -9.4768839 -1.3691088
7.1020875 -2.7804182 -2.0436354
8.083642 -3.1663172 -2.0043139
9.3563776 -3.6686084 -1.9535027
11.069627 -4.3448267 -1.8834713
13.669474 -5.3680196 -1.8031789
17.170481 -6.7497878 -1.6141243
24.224215 -9.5324039 -1.3642938
7.0941353 -2.8059027 -2.044153
8.0611115 -3.1916199 -2.0016146
9.3508158 -3.7041373 -1.955029
11.05072 -4.3819838 -1.8828454
13.631258 -5.4107614 -1.8007416
17.12089 -6.7993879 -1.611684
24.116554 -9.5873928 -1.3601069
7.0878854 -2.8320823 -2.0451882
8.0625877 -3.2248046 -2.0047638
9.3305387 -3.7338381 -1.9535027
11.028023 -4.417594 -1.8815941
13.601232 -5.4538779 -1.7992792
17.093353 -6.8576255 -1.6113354
24.082941 -9.6715155 -1.3601069
34.228233 -13.759661 -0.64392394
7.0743737 -2.8553605 -2.044153
8.0476675 -3.2514684 -2.0038638
9.3065271 -3.7619703 -1.951213
11.007041 -4.4538388 -1.8806553
13.563713 -5.4938693 -1.7968417
17.036076 -6.9037824 -1.6081978
23.975002 -9.7254915 -1.3559201
7.0589967 -2.8778493 -2.0425999
8.0386457 -3.2788737 -2.0043139
9.3024254 -3.7981434 -1.9531209
10.981239 -4.4858327 -1.8787781
13.549096 -5.5403209 -1.7973293
16.993433 -6.9556594 -1.6064546
23.927835 -9.7988873 -1.3550828
7.0529881 -2.9027123 -2.0436354
8.0199432 -3.3039446 -2.0025144
9.3024864 -3.834208 -1.9557924
10.94908 -4.5173569 -1.8759624
13.511325 -5.5800042 -1.7948918
16.943274 -7.0042796 -1.6040143
23.886103 -9.8792973 -1.354664
7.0512199 -2.9322522 -2.0462234
8.01196 -3.3334167 -2.0034139
9.2883711 -3.8682775 -1.9557924
10.937919 -4.5597367 -1.8769009
13.469779 -5.6179638 -1.7919669
16.915043 -7.0618448 -1.6036657
23.764963 -9.9313536 -1.3498491
38.891125 -16.260534 -0.73579347
7.0480666 -2.9598398 -2.0482941
8.0158577 -3.3695562 -2.0074632
9.2820482 -3.9037201 -1.9573188
10.907371 -4.5917583 -1.874398
13.438122 -5.6626706 -1.7905045
16.874361 -7.1175985 -1.6022711
23.70439 -10.003377 -1.3483838
40.323357 -17.033253 -0.7640664
7.0193872 -2.9781072 -2.0431178
59.859436 -25.396494 1.1349999
8.0076342 -3.399039 -2.008363
9.2821341 -3.9438562 -1.9603716
10.881378 -4.6278386 -1.8728336
13.396355 -5.7002172 -1.7875797
16.831081 -7.1686511 -1.600528
23.627144 -10.072959 -1.3460809
7.0076962 -3.0006075 -2.0425999
59.634399 -25.547014 1.1324168
8.0010929 -3.4292729 -2.0097127
9.2996788 -3.9877689 -1.9668592
10.855081 -4.6592231 -1.8709565
13.369081 -5.7438102 -1.7866048
16.788914 -7.2165585 -1.598785
23.556919 -10.135465 -1.3439875
6.9954062 -3.0242836 -2.0420823
7.9932556 -3.4573343 -2.0106125
9.246067 -4.0030465 -1.9584637
10.825069 -4.6889129 -1.8684534
13.349959 -5.7881117 -1.7866048
16.738031 -7.2640119 -1.5963445
23.482876 -10.196028 -1.3416847
6.9959631 -3.0520999 -2.0451882
7.9436355 -3.468838 -2.0011647
9.2471333 -4.0399737 -1.9615166
10.801397 -4.723505 -1.867202
13.300577 -5.8219404 -1.7827048
16.710199 -7.3178792 -1.5959959
23.410555 -10.261899 -1.3395913
36.586246 -16.04501 -0.69732833
6.9923387 -3.0796163 -2.0472586
66.886978 -29.458847 1.2757361
7.9303041 -3.4943743 -2.0007145
9.2150116 -4.0643044 -1.9577004
10.785674 -4.7592978 -1.867202
13.279382 -5.8652134 -1.7824612
16.677265 -7.372942 -1.5952986
23.314295 -10.312006 -1.3360325
37.378448 -16.548241 -0.71352422
6.9838529 -3.1035712 -2.0477762
66.780075 -29.690519 1.2756662
7.9251804 -3.5252032 -2.0025144
9.1961021 -4.0924454 -1.9565556
10.758168 -4.7920952 -1.8653249
13.247951 -5.9066806 -1.7809987
16.627251 -7.416842 -1.5928583
23.25992 -10.385183 -1.3349857
6.967689 -3.1255584 -2.0462234
66.639549 -29.90707 1.274968
7.9163828 -3.5544424 -2.0034139
9.1925058 -4.1293478 -1.9588453
10.723359 -4.8215179 -1.8621961
13.22001 -5.9496298 -1.7800238
16.583092 -7.4666572 -1.5911152
23.205318 -10.458106 -1.333939
6.947937 -3.1458774 -2.0436354
66.534744 -30.139502 1.274968
7.9110274 -3.5852718 -2.0052137
9.181612 -4.1630321 -1.9596084
10.684877 -4.849124 -1.8584416
13.188317 -5.9908147 -1.7785614
16.542418 -7.5179024 -1.5897208
23.146854 -10.529119 -1.3326828
6.949213 -3.1757317 -2.0472586
66.472786 -30.391525 1.2758058
7.893147 -3.6104326 -2.0038638
9.1634541 -4.1934228 -1.9588453
10.671478 -4.8880367 -1.8590674
13.152889 -6.0301948 -1.7766114
16.494343 -7.5656333 -1.5876291
23.084549 -10.598186 -1.3312175
35.624718 -16.370476 -0.68434376
6.9433484 -3.2023971 -2.0488117
66.308189 -30.59656 1.2746888
7.8787274 -3.637146 -2.0034139
9.1523256 -4.2270293 -1.9596084
10.641799 -4.9194555 -1.8568773
13.110141 -6.0660677 -1.7736866
16.464218 -7.6214895 -1.5872804
23.003922 -10.65855 -1.3287053
35.269844 -16.356754 -0.67861938
6.9268732 -3.2241683 -2.0472586
66.197357 -30.826145 1.2746191
7.8765817 -3.6695633 -2.0061135
9.133956 -4.2572927 -1.9588453
10.626352 -4.9574075 -1.8571903
13.088887 -6.1117935 -1.7736866
16.40863 -7.665421 -1.5844914
22.937628 -10.725249 -1.3270307
66.071251 -31.048525 1.2742699
7.8725433 -3.7011814 -2.008363
9.1439114 -4.300849 -1.964188
10.605409 -4.9927878 -1.8565645
13.056699 -6.1523681 -1.7722242
16.366009 -7.7187114 -1.583097
22.838638 -10.776274 -1.3234718
34.702747 -16.389095 -0.66989321
6.9717002 -3.3059342 -2.0674467
65.987762 -31.29096 1.2747586
7.8630958 -3.7303095 -2.0092628
9.1280861 -4.3343344 -1.964188
10.572763 -5.0248413 -1.8540615
13.017215 -6.1893826 -1.7697867
16.338968 -7.7757921 -1.583097
22.770136 -10.846166 -1.321797
34.876389 -16.620243 -0.67436099
6.9583759 -3.3294163 -2.0669291
65.861816 -31.52743 1.2745492
7.8458567 -3.757421 -2.008363
65.731033 -31.47893 3.8194785
9.1093607 -4.3644738 -1.9634248
10.562285 -5.0651326 -1.8553129
12.978336 -6.229321 -1.7675931
16.297356 -7.8258791 -1.5817024
22.703335 -10.91174 -1.3201222
34.230652 -16.459385 -0.66298205
6.9432321 -3.3520055 -2.0658937
65.7677 -31.750875 1.2747586
7.829844 -3.781723 -2.0074632
65.642334 -31.718611 3.8207347
9.0710917 -4.3851371 -1.9584637
10.5561 -5.1052909 -1.8571903
12.937953 -6.2628102 -1.7649119
16.252008 -7.874032 -1.5799593
22.569973 -10.939924 -1.3144701
33.172665 -16.093473 -0.64357495
6.9320784 -3.3750114 -2.0658937
65.656471 -31.980255 1.2747586
7.8236017 -3.8124454 -2.0092628
65.524033 -31.944052 3.8203158
8.9841461 -4.3799205 -1.9428172
10.548867 -5.1473055 -1.8590674
12.908878 -6.3044496 -1.7639371
16.199364 -7.9184647 -1.5775188
22.535236 -11.020396 -1.3146794
34.251411 -16.764771 -0.66563481
6.8919206 -3.386764 -2.0576115
65.544441 -32.209244 1.2747586
7.8102465 -3.8397319 -2.0092628
65.410339 -32.171696 3.8202112
8.887002 -4.3729467 -1.9252628
10.515754 -5.1789527 -1.8565645
12.87967 -6.345962 -1.7629621
16.153755 -7.9661503 -1.5757757
22.473202 -11.09231 -1.3134233
34.454464 -17.013494 -0.67073089
6.8800569 -3.4108007 -2.0576115
65.400871 -32.436821 1.2742699
7.7926297 -3.8666 -2.008363
65.304794 -32.403378 3.8206301
8.7732077 -4.3550577 -1.9038923
10.497612 -5.2156277 -1.8565645
12.858102 -6.3940091 -1.7632058
16.11158 -8.0153894 -1.5743814
22.387861 -11.147542 -1.3107018
6.8681087 -3.4347959 -2.0576115
65.292946 -32.653522 1.2742699
7.7693076 -3.887188 -2.0056636
65.205582 -32.63829 3.8214674
8.7052879 -4.359283 -1.8924437
10.494388 -5.2574883 -1.8590674
12.82618 -6.4312749 -1.7617433
16.07638 -8.0680065 -1.5736841
22.332922 -11.212761 -1.3096552
6.8653054 -3.4619017 -2.0601997
65.20356 -32.893845 1.2747586
7.755692 -3.9142842 -2.0056636
65.089851 -32.850735 3.8210485
8.6785154 -4.3819327 -1.8897724
10.483023 -5.2976527 -1.8603188
12.78771 -6.4679437 -1.7595497
16.049536 -8.121273 -1.5736841
22.261574 -11.274405 -1.307771
33.549652 -16.998627 -0.65648973
6.8497357 -3.484093 -2.0591643
65.193939 -33.16066 1.2767134
7.7426686 -3.9399815 -2.0056636
65.035301 -33.108551 3.8246074
8.6544199 -4.4077449 -1.8878642
10.481239 -5.3404584 -1.8631347
12.752046 -6.503099 -1.7575998
15.992696 -8.1627541 -1.5708951
22.192045 -11.331818 -1.305887
33.61832 -17.181158 -0.6590029
6.8278303 -3.5014994 -2.0560586
65.077789 -33.388027 1.2767134
7.732336 -3.9687643 -2.0065634
64.883804 -33.31712 3.8225138
8.6257849 -4.4292455 -1.8848113
10.467804 -5.3797202 -1.8640733
12.722206 -6.5439405 -1.7566248
15.951367 -8.2084503 -1.5695007
22.123947 -11.394581 -1.3042122
32.530777 -16.76882 -0.63882786
6.8189983 -3.5270865 -2.0570939
64.847176 -33.556168 1.2744794
7.7063212 -3.9894595 -2.0034139
64.788391 -33.554424 3.82377
8.618988 -4.4638424 -1.8867195
10.431424 -5.4071364 -1.8609446
12.683428 -6.5800824 -1.7544312
15.904934 -8.2549028 -1.5677575
22.059223 -11.458849 -1.3027468
33.344967 -17.336105 -0.65600103
6.8134956 -3.5544419 -2.0591643
64.7332 -33.784176 1.2745492
7.683712 -4.0118265 -2.0011647
64.656708 -33.772976 3.8229327
8.6207552 -4.5029907 -1.8905357
9.6859922 -5.0637145 -1.731104
12.646311 -6.6169534 -1.7524813
15.886612 -8.3159142 -1.5688033
21.962475 -11.50612 -1.2993972
33.0186 -17.313105 -0.65076536
6.8078852 -3.5818017 -2.061235
64.621948 -34.013657 1.2746888
7.6731091 -4.0404382 -2.0020645
64.520752 -33.989151 3.8218858
8.5858774 -4.5229897 -1.8863379
9.1877279 -4.8441396 -1.6450651
12.614358 -6.656424 -1.7512627
15.829297 -8.3564367 -1.5660143
21.939838 -11.592044 -1.300444
32.781189 -17.334776 -0.64727485
6.7970486 -3.6064494 -2.0617526
64.527557 -34.252148 1.2751775
7.6589589 -4.0671978 -2.0020645
64.422882 -34.225414 3.8231421
8.5631018 -4.5492482 -1.8848113
9.6591253 -5.135848 -1.7326683
12.573521 -6.6910901 -1.7488252
15.780687 -8.4013405 -1.5640969
21.849888 -11.64226 -1.2975131
32.593437 -17.38135 -0.64476168
6.7724938 -3.6237736 -2.0581291
64.425232 -34.486618 1.2755266
7.6481504 -4.0957479 -2.0029643
64.303017 -34.450081 3.8231421
8.5610142 -4.5865283 -1.8878642
9.5645399 -5.1284609 -1.7189021
12.543092 -6.731185 -1.7478503
15.742487 -8.451663 -1.5632254
21.749294 -11.686318 -1.2939543
32.553699 -17.506382 -0.64518058
6.7785053 -3.6574826 -2.0638232
64.403008 -34.764488 1.2774813
7.6303778 -4.1205678 -2.0020645
64.192924 -34.680027 3.82377
8.5518618 -4.6201172 -1.8893907
12.512535 -6.7711487 -1.7468753
15.705881 -8.5027695 -1.5625281
21.70837 -11.762165 -1.2939543
32.453724 -17.598938 -0.6444127
6.7690907 -3.6829684 -2.0648584
64.295311 -34.996735 1.2777605
7.6108127 -4.144382 -2.0007145
64.120583 -34.930645 3.8267009
8.551198 -4.6583929 -1.8928252
9.6481733 -5.2603545 -1.7404901
12.481853 -6.8109803 -1.7459003
15.676105 -8.5575409 -1.5625281
21.614599 -11.809143 -1.2908142
32.32542 -17.675659 -0.64308631
6.7578874 -3.707504 -2.065376
64.197296 -35.234421 1.2782491
7.6048412 -4.1756134 -2.0029643
63.94574 -35.125408 3.8235607
8.5228405 -4.6815977 -1.890154
9.5587807 -5.2549834 -1.7276624
12.431913 -6.8401546 -1.7422442
15.635664 -8.6064425 -1.5614822
21.552254 -11.872954 -1.2895581
32.270531 -17.79225 -0.64322591
6.7432137 -3.7301354 -2.0648584
64.094917 -35.469917 1.278668
7.5868101 -4.2002454 -2.0020645
63.885639 -35.383244 3.8273289
8.5064459 -4.7113194 -1.890154
9.481637 -5.2557569 -1.7170249
12.406226 -6.8825455 -1.7420006
15.584621 -8.6493664 -1.5593904
21.423376 -11.899624 -1.2843245
32.194241 -17.897011 -0.64294666
6.7200294 -3.7480054 -2.0617526
63.935783 -35.673946 1.27797
7.5857148 -4.2343016 -2.0056636
55.701935 -31.105246 3.3435352
8.5002337 -4.7467265 -1.8924437
9.6494637 -5.3929024 -1.7508147
12.369998 -6.9190259 -1.7402943
15.529993 -8.690094 -1.5569501
21.388678 -11.978236 -1.2847432
32.03389 -17.954531 -0.64099199
6.6968021 -3.7657583 -2.0586467
63.807377 -35.894939 1.2779001
7.5606985 -4.2550201 -2.0029643
55.680035 -31.348488 3.3487689
8.5024309 -4.7869644 -1.8966415
9.5255995 -5.3673997 -1.7317297
12.359603 -6.9699645 -1.7422442
15.485683 -8.7364197 -1.5555557
21.284126 -12.017472 -1.280975
31.936201 -18.046566 -0.6402939
6.6718521 -3.7824421 -2.0550234
7.5305448 -4.2727308 -1.9989151
63.559589 -36.062866 3.8298409
8.4873762 -4.8175826 -1.8970231
9.4484091 -5.3674431 -1.7210922
12.305863 -6.9963861 -1.7381008
15.458556 -8.7923908 -1.5559043
21.228163 -12.08379 -1.2801377
31.181103 -17.75655 -0.62633193
6.6485453 -3.7999566 -2.0519176
63.554634 -36.324463 1.2777605
7.52141 -4.3005819 -2.0002646
63.433323 -36.284512 3.8298409
8.4653969 -4.8442554 -1.8958783
9.4356995 -5.4016895 -1.7220308
12.275704 -7.0332074 -1.7371258
15.408758 -8.8353968 -1.5539868
21.153326 -12.134243 -1.2780442
31.552488 -18.114185 -0.63505816
6.6760845 -3.8451228 -2.0643408
63.462105 -36.566059 1.2784586
7.5046639 -4.3258371 -1.9998149
63.306282 -36.505714 3.8298409
8.4509869 -4.873281 -1.8962599
9.2012138 -5.3101826 -1.6826093
12.25108 -7.0760155 -1.7371258
15.374199 -8.8834553 -1.5534639
21.083176 -12.192009 -1.2763693
31.042538 -17.965788 -0.62605274
6.6442447 -3.8577335 -2.0586467
63.36174 -36.803425 1.2790171
7.4844637 -4.3490701 -1.9984653
63.206097 -36.742535 3.8315158
8.444108 -4.9086714 -1.8985497
9.3789778 -5.4565039 -1.7185892
12.216011 -7.1127429 -1.7356633
15.312108 -8.9190159 -1.5503262
21.012882 -12.249435 -1.2746947
30.993452 -18.082096 -0.62633193
6.5607128 -3.8399179 -2.036906
7.4625111 -4.3712287 -1.9966656
63.108475 -36.981117 3.8333998
8.4387798 -4.9450645 -1.9012209
9.3309069 -5.4722209 -1.7132704
12.192821 -7.1563463 -1.7359071
15.282599 -8.9734192 -1.5505006
20.911449 -12.288306 -1.2711359
30.792252 -18.109077 -0.62353957
6.5456057 -3.8618138 -2.0363884
7.437139 -4.3913064 -1.9939661
63.023708 -37.227592 3.8361213
8.4333 -4.9814816 -1.9038923
9.5124025 -5.6233783 -1.7501891
12.150681 -7.188756 -1.7334697
15.22718 -9.0125036 -1.5480603
20.858116 -12.355119 -1.2705078
30.766695 -18.238886 -0.62430751
6.5088387 -3.8708141 -2.0291414
7.4217653 -4.4172401 -1.9939661
8.4124861 -5.0088797 -1.9031291
9.4044752 -5.6039672 -1.7339199
12.115285 -7.2250257 -1.7320073
15.204182 -9.0707054 -1.5489318
20.777136 -12.405328 -1.2682049
30.321762 -18.11846 -0.61655867
6.4538636 -3.8686795 -2.0162005
62.889729 -37.713303 1.2799944
7.3962736 -4.4371047 -1.9912667
8.3949499 -5.0382142 -1.9031291
9.340827 -5.6103163 -1.7257853
12.083184 -7.2631807 -1.7310323
15.151937 -9.1114025 -1.5468401
20.685791 -12.448941 -1.2652742
30.737967 -18.513071 -0.62633193
6.4188247 -3.878197 -2.0094712
7.3874111 -4.466929 -1.9930664
8.3823519 -5.0705357 -1.9042739
9.2806301 -5.6183357 -1.7182763
12.044176 -7.2970848 -1.7290823
15.099594 -9.151845 -1.5447483
20.65587 -12.529359 -1.2661116
30.290257 -18.387812 -0.61851329
6.3936987 -3.8935459 -2.0058477
7.3634534 -4.4876175 -1.9908168
8.3780107 -5.1079407 -1.9073268
9.1226892 -5.5663271 -1.6926211
12.011853 -7.3349452 -1.7281073
15.053952 -9.1961861 -1.5433538
20.554071 -12.565963 -1.2625527
30.000729 -18.355671 -0.61390585
25.576962 -15.704299 0.52388632
7.3344598 -4.5051341 -1.9872177
25.513096 -15.677351 1.5693462
8.3701668 -5.143321 -1.9096165
9.2209902 -5.6705728 -1.714522
11.976033 -7.3705864 -1.726645
15.003098 -9.2371883 -1.5414364
20.459072 -12.606203 -1.2594125
25.61655 -15.79641 -0.52531743
6.3499317 -3.9279242 -2.0006714
27.147614 -16.799454 0.55725533
7.3186893 -4.5307093 -1.9872177
8.338809 -5.164238 -1.9065636
9.061779 -5.6163516 -1.6885538
11.92999 -7.3997903 -1.7237202
14.972456 -9.2905531 -1.5416108
20.414944 -12.677541 -1.2594125
27.201931 -16.905373 -0.55903548
6.277164 -3.9132736 -1.9820364
27.003969 -16.841204 0.5555101
7.3044829 -4.5572596 -1.9876676
8.3257275 -5.1964321 -1.9077084
9.1191874 -5.6960878 -1.7029458
11.91082 -7.4455972 -1.7246951
14.931489 -9.3374786 -1.5407393
20.302847 -12.706344 -1.2552257
27.135979 -16.995977 -0.55889589
6.2389293 -3.9197447 -1.9742718
26.64196 -16.744884 0.54926217
7.2852311 -4.5806551 -1.9867678
8.3108625 -5.2275538 -1.9084717
9.0290356 -5.6836863 -1.6898053
11.891476 -7.4913607 -1.7256701
14.87689 -9.3757315 -1.5384731
20.23134 -12.760088 -1.253551
26.717989 -16.864315 -0.55149609
6.2137833 -3.9342651 -1.9706483
26.461716 -16.76074 0.546749
7.2659039 -4.603971 -1.9858679
8.2991962 -5.260736 -1.9099981
9.0925436 -5.7680774 -1.7054487
11.851847 -7.5243125 -1.7237202
14.822209 -9.4137192 -1.5362071
20.166449 -12.817774 -1.2522949
29.652185 -18.861435 -0.61341721
6.1918697 -3.950736 -1.9680601
7.2350078 -4.6198664 -1.9818188
8.2675467 -5.281219 -1.9069452
9.0723534 -5.7997818 -1.7054487
11.828854 -7.5677772 -1.7242076
14.784225 -9.4621792 -1.5356841
20.077854 -12.860083 -1.2495735
29.522192 -18.923819 -0.61209083
6.1722331 -3.9670689 -1.9659895
7.2196479 -4.6438332 -1.9818188
8.2499876 -5.3086061 -1.9069452
9.0995741 -5.8597803 -1.7142091
11.797019 -7.6026592 -1.7232326
14.742719 -9.5046759 -1.5346384
20.008247 -12.909266 -1.2478987
29.3484 -18.950022 -0.60978711
6.1421332 -3.9780881 -1.9608132
7.2148409 -4.6764264 -1.9849681
8.2182293 -5.3288269 -1.9038923
9.1287756 -5.9237666 -1.7235951
11.773738 -7.6459551 -1.7237202
14.689404 -9.5430546 -1.5325466
19.926224 -12.95508 -1.2455959
6.1168857 -3.9921129 -1.9571897
7.1739998 -4.6855974 -1.9782196
8.2045078 -5.360703 -1.905037
9.0104971 -5.8918133 -1.7051359
11.760265 -7.6957016 -1.7256701
14.645999 -9.5877237 -1.5315007
19.887564 -13.028934 -1.2460146
28.466194 -18.663254 -0.59414977
6.0738597 -3.994334 -1.9478723
7.16574 -4.7159672 -1.9804692
8.1775475 -5.3839121 -1.9031291
8.9783297 -5.9156222 -1.7029458
11.733331 -7.7367058 -1.7256701
14.607452 -9.635499 -1.5309777
19.805294 -13.074068 -1.2437118
29.158363 -19.262928 -0.60999656
6.058269 -4.0144439 -1.9473546
59.319511 -39.322315 1.2422622
7.1346173 -4.7312589 -1.9764199
8.1619768 -5.4145942 -1.9038923
8.9428148 -5.9370928 -1.70013
11.719481 -7.7864037 -1.72762
14.558796 -9.6765041 -1.5294089
19.719624 -13.116574 -1.2411997
29.011042 -19.311403 -0.60832113
6.0361862 -4.0302033 -1.9447664
59.181892 -39.529133 1.2422622
7.1180582 -4.7561345 -1.9764199
8.1364965 -5.4386878 -1.9023658
8.8629274 -5.9287333 -1.6888667
10.831149 -7.2508221 -1.6003884
14.514998 -9.7206125 -1.5283631
19.663763 -13.178658 -1.2405716
29.182602 -19.572948 -0.61334735
6.0108609 -4.0437007 -1.9411429
59.07341 -39.755573 1.2428906
7.1078792 -4.7853055 -1.9782196
8.1011791 -5.456089 -1.8985497
8.8733006 -5.9806113 -1.6948112
10.720196 -7.2308631 -1.587714
14.464461 -9.7600746 -1.5266199
19.587849 -13.227098 -1.2386875
29.319551 -19.813536 -0.6176756
5.9967089 -4.0646586 -1.9411429
59.013729 -40.015411 1.2445661
7.0862937 -4.8068051 -1.9768698
8.070713 -5.4766178 -1.8958783
8.8981276 -6.0426216 -1.7035716
10.681755 -7.2593131 -1.5857641
14.41877 -9.8026657 -1.5253998
19.515137 -13.277415 -1.2370129
29.071697 -19.794214 -0.61390585
5.9745073 -4.0801187 -1.9385546
58.853874 -40.207623 1.2441472
7.0453382 -4.8150182 -1.9701214
8.0612707 -5.5114055 -1.8981681
8.8557863 -6.0591445 -1.6995043
10.705488 -7.3302002 -1.5930762
14.374603 -9.8461819 -1.524354
19.442314 -13.327388 -1.2353381
29.127747 -19.981544 -0.61655867
5.9697781 -4.1075182 -1.9416605
58.739517 -40.430958 1.2447056
7.0236731 -4.836267 -1.9687717
8.0436001 -5.5406237 -1.8985497
8.8508472 -6.1012311 -1.7026329
10.671665 -7.3618884 -1.5918574
14.323748 -9.8849812 -1.5226108
19.349655 -13.363393 -1.2324072
28.988731 -20.035341 -0.61509264
5.9538164 -4.1272316 -1.9411429
58.6539 -40.674492 1.2458924
7.0035453 -4.8585324 -1.9678718
8.0096941 -5.5585933 -1.895115
8.7451277 -6.0734959 -1.6863638
10.57907 -7.3526444 -1.5818642
14.287519 -9.9337826 -1.5224365
19.296335 -13.426291 -1.2319885
28.980978 -20.179832 -0.61641902
5.9251189 -4.1380339 -1.9364842
58.514843 -40.881283 1.2459623
6.9849463 -4.8818336 -1.9674219
7.9838071 -5.5820193 -1.8935887
8.7967072 -6.1549459 -1.7004429
10.610253 -7.4293795 -1.590395
14.23807 -9.9733076 -1.5208677
19.223185 -13.475224 -1.2303138
28.923454 -20.290058 -0.61669827
5.8916783 -4.1453519 -1.9302725
58.41103 -41.112907 1.2467999
6.9678631 -4.9061856 -1.9674219
7.9787183 -5.6200285 -1.8970231
8.8010025 -6.203824 -1.7054487
10.589122 -7.4698043 -1.5911263
14.195031 -10.017202 -1.519996
19.149927 -13.523808 -1.228639
28.718544 -20.296259 -0.61383605
5.8740206 -4.1636577 -1.9292372
58.267162 -41.316551 1.2467999
6.9411573 -4.9237127 -1.9647225
7.9430418 -5.6364846 -1.8932071
8.793788 -6.2448006 -1.7082645
10.57431 -7.5147696 -1.5928324
19.089582 -13.581309 -1.2278017
27.927505 -19.883747 -0.5984081
5.8437295 -4.1729102 -1.9240609
6.9191728 -4.9445143 -1.9633728
7.9201245 -5.6618919 -1.8924437
8.8104944 -6.3030434 -1.7157733
10.594821 -7.5851464 -1.5999008
5.8669553 -4.2018766 -0.63135618
19.016085 -13.629245 -1.2261269
27.92642 -20.022856 -0.59980428
5.8244228 -4.1898985 -1.922508
6.8932476 -4.9606009 -1.9606735
7.8891597 -5.6814728 -1.8897724
8.8055716 -6.3437724 -1.7189021
10.606647 -7.6469407 -1.6055069
5.7892385 -4.1768665 -0.62455803
18.95459 -13.680541 -1.2250801
26.877234 -19.413012 -0.57872176
5.8073678 -4.206923 -1.9214727
6.8396006 -4.9583254 -1.9503256
7.8543835 -5.6960783 -1.8859563
8.7977629 -6.3849125 -1.721718
10.518854 -7.6395898 -1.5962448
5.7173276 -4.1538815 -0.61828285
18.880875 -13.72783 -1.2234055
29.043957 -21.132668 -0.62696028
5.7801633 -4.2180591 -1.9173316
6.7766128 -4.9488411 -1.9372785
7.8328676 -5.7223015 -1.8855747
8.7578802 -6.4027596 -1.7182763
10.509747 -7.6891546 -1.5989259
5.6384826 -4.1267452 -0.61131036
18.803837 -13.772409 -1.2215214
28.940979 -21.212635 -0.62633193
5.7654047 -4.2382097 -1.9173316
6.7357502 -4.9551439 -1.9305301
7.8160076 -5.7519355 -1.8863379
8.7609262 -6.4520345 -1.7232823
5.6568995 -4.1691017 -0.86283505
5.6416831 -4.1594071 -0.61322778
18.739576 -13.826106 -1.2204746
28.606148 -21.121113 -0.62067741
5.7567854 -4.262908 -1.9194021
6.729372 -4.9867482 -1.9336793
7.8021898 -5.7838597 -1.8878642
8.6923428 -6.4484448 -1.7142091
5.647923 -4.1945176 -0.61549383
18.665552 -13.872373 -1.2187999
5.66748 -4.2136483 1.6304452
28.853157 -21.459515 -0.62765831
5.6587529 -4.2102275 1.8898968
5.7279334 -4.2725806 -1.9147433
6.6931853 -4.9962187 -1.9282805
7.7677956 -5.800488 -1.8844297
8.5178738 -6.3652306 -1.6841737
5.6760883 -4.2431669 0.87014717
5.6673965 -4.2397542 1.1210095
5.6268654 -4.2094331 -0.61479658
5.6806092 -4.2511845 1.3791674
5.7830415 -4.3294172 -0.37859833
5.7709785 -4.3235307 -0.12586676
5.7021732 -4.2844257 -1.9111199
5.7673769 -4.3349929 0.12593657
6.6258621 -4.9820752 -1.9138836
5.7492614 -4.3245187 0.37702829
7.7443628 -5.8252072 -1.8836665
5.6962819 -4.2862244 0.62368649
8.5382156 -6.4269996 -1.6926211
5.6002464 -4.2185559 -0.86088508
5.6105471 -4.22785 -0.61462229
5.7662988 -4.3483744 -0.37849367
5.7717171 -4.3540411 1.6691369
5.7309833 -4.3264518 1.9240609
5.6717792 -4.2926455 -1.9059435
5.7840958 -4.3792405 0.12663467
5.8223786 -4.4098234 -1.686233
5.8073602 -4.400043 0.38184318
5.8117647 -4.4033804 -1.4173293
5.7511511 -4.3590364 0.63135618
5.8036032 -4.4003868 -1.1535479
5.7364783 -4.351069 0.8840403
5.6234407 -4.2668767 -0.86673486
5.7226253 -4.3437095 1.1379044
5.5386224 -4.2040434 -0.60834706
5.7227163 -4.3453526 1.3967218
5.7160959 -4.341898 -0.37619087
5.6882124 -4.3222842 1.6493411
5.7342863 -4.3588734 -0.12572713
5.6804776 -4.3195357 1.9121553
5.647542 -4.3053899 -1.9028376
5.7496929 -4.3848519 0.1262158
5.7883582 -4.4159365 -1.6808342
5.7475095 -4.3863602 0.37891236
5.7760692 -4.4081564 -1.4123683
5.7010598 -4.3524866 0.62752134
5.7740784 -4.4098277 -1.150732
5.6928625 -4.3493743 0.87965298
5.6274381 -4.3009453 -0.86965966
5.6823206 -4.3444619 1.1328986
5.5239143 -4.223351 -0.60834706
5.6638494 -4.3319068 1.3860366
5.7342153 -4.387311 -0.378389
5.6498775 -4.324347 1.6425927
5.6920447 -4.3581967 -0.12513375
5.6346917 -4.3158441 1.9018024
5.6294146 -4.3227248 -1.9018024
5.6962929 -4.3756595 0.12537809
5.7497301 -4.418304 -1.6740857
5.6917567 -4.373755 0.37619087
5.7404122 -4.4127374 -1.4074073
5.6795149 -4.3675022 0.62682408
5.7289019 -4.4070716 -1.1447875
5.6540475 -4.3510594 0.87599689
5.5903692 -4.3036098 -0.86624736
5.6616211 -4.3584614 1.131647
5.518609 -4.2499013 -0.60939294
5.6284752 -4.3360744 1.3810756
5.6777349 -4.3756022 -0.37566754
5.610055 -4.3250051 1.6353942
5.5974026 -4.3168082 1.8940378
5.6112351 -4.3399839 -1.9007671
5.6627698 -4.3798432 0.12495923
5.7119274 -4.4194584 -1.6673372
5.6385489 -4.3642569 0.37367877
5.6985846 -4.4123158 -1.4009198
5.6374574 -4.3665595 0.62386078
5.7033238 -4.4175773 -1.1425974
5.5713601 -4.3184757 -0.86551613
5.6042237 -4.3455157 1.1231996
5.5923481 -4.3378696 1.375733
5.6663489 -4.3968544 -0.37587687
5.5787487 -4.330441 1.6304452
5.6464534 -4.3845749 -0.12478471
5.5990815 -4.3493571 1.8997319
5.5907154 -4.3538208 -1.8986967
5.6474466 -4.3995838 0.12495923
5.7118368 -4.4513493 -1.6718361
5.62328 -4.3839126 0.37367877
5.7025008 -4.445673 -1.4054991
5.6229463 -4.3852301 0.62386078
5.6940989 -4.4423194 -1.1438489
5.6133461 -4.3808947 0.87429076
5.6438751 -4.4063067 -0.87916553
5.6092606 -4.3808575 1.1272669
5.6489482 -4.4134421 -0.62717271
5.6003776 -4.3754945 1.3814572
5.6667032 -4.4289064 -0.37692359
5.5927672 -4.3726935 1.6389934
5.6531663 -4.4215059 -0.12527338
5.5808225 -4.3664947 1.8986967
5.5701609 -4.3707047 -1.8971437
5.6540794 -4.4365525 0.1254479
5.7131262 -4.4844952 -1.6767852
5.6330771 -4.4232502 0.37535352
5.6985202 -4.4762459 -1.4085521
5.6146688 -4.4119649 0.62473232
5.6917558 -4.4741464 -1.1466647
5.6151872 -4.4139571 0.8769719
5.6768332 -4.4640193 -0.88672143
5.612565 -4.4150672 1.1310214
5.6648226 -4.4577761 -0.63065898
5.5904732 -4.4008489 1.3829837
5.6629858 -4.4595313 -0.37776098
5.581296 -4.3967805 1.6403431
5.643981 -4.4461617 -0.125413
5.5807199 -4.3979053 1.903873
5.550323 -4.386528 -1.8955908
5.6503305 -4.4671669 0.12572713
5.5759015 -4.4099059 -1.641243
5.6418881 -4.4636946 0.37702829
5.525816 -4.371861 -1.3696271
5.6304793 -4.4562664 0.62821859
5.6745548 -4.4927607 -1.1463519
5.6114202 -4.4443684 0.87892181
5.6806607 -4.5008225 -0.88989002
5.6056337 -4.4429703 1.1328986
5.6710873 -4.4948478 -0.63309932
5.592 -4.4337535 1.3871815
5.6645966 -4.4929242 -0.37891236
5.5949192 -4.4392505 1.6488912
5.6511412 -4.485466 -0.12593657
5.5736408 -4.4255381 1.9069788
5.536489 -4.4070783 -1.8961084
5.6456528 -4.4955835 0.12597147
5.4187179 -4.3164229 -1.599402
5.6325207 -4.4883399 0.37744695
5.4475703 -4.3409605 -1.3539807
5.6211224 -4.4808612 0.62891585
5.6742821 -4.524857 -1.1494806
5.6082869 -4.4738321 0.88087165
5.6835346 -4.5354819 -0.89281487
5.6147914 -4.4822288 1.1379044
5.6771617 -4.5320182 -0.63553965
5.6041026 -4.4752979 1.3940506
5.6676044 -4.5276294 -0.38016844
5.5778675 -4.4575362 1.6484413
5.6463828 -4.513906 -0.1261809
5.5898423 -4.4703045 1.9178492
5.5150433 -4.4215436 -1.8940378
5.6580048 -4.5377827 0.12659976
5.405139 -4.3365312 -1.599852
5.6363006 -4.5219917 0.37870303
5.4170732 -4.3476605 -1.3501645
5.6675916 -4.5503492 0.63588828
5.4366732 -4.3665128 -1.1044275
5.4758062 -4.4010878 -0.86259133
13.35671 -10.739071 -1.4994273
17.820492 -14.338287 -1.1987028
5.5040841 -4.4444094 -1.8955908
5.3801165 -4.34586 -1.5967026
5.3621664 -4.3344545 -1.3402424
5.3899069 -4.3584337 -1.0978571
5.3917398 -4.3630295 -0.85162306
5.4502883 -4.4135566 -0.61357641
5.5124998 -4.4655271 -0.37179467
5.4834886 -4.4451971 -0.12321399
5.4773235 -4.452888 -1.8914497
45.402195 -36.923683 1.0214894
5.3467741 -4.3498549 -1.5913037
5.3355818 -4.342298 -1.3371896
5.3470902 -4.3547673 -1.0922256
5.3641672 -4.3717909 -0.84967309
5.3862085 -4.3913193 -0.60799843
5.4164062 -4.4190874 -0.36635172
5.4214687 -4.4263706 -0.12216685
5.4662313 -4.4756513 -1.8930025
45.334911 -37.132629 1.0228856
5.3044243 -4.346261 -1.5832055
5.3112817 -4.3534293 -1.3348998
5.2982554 -4.3458447 -1.0853424
5.3151178 -4.3627806 -0.84431088
5.3184934 -4.3671055 -0.60207188
5.3731713 -4.4151435 -0.36446762
5.3998065 -4.4401875 -0.12202723
5.4475942 -4.4922466 -1.8919673
5.25916 -4.3399439 -1.5742074
5.2899971 -4.3669434 -1.3333733
5.2663012 -4.3504739 -1.081901
5.2631369 -4.3509512 -0.8384611
5.2755799 -4.3627887 -0.59893423
5.3300304 -4.4109516 -0.36258355
5.3842745 -4.4590092 -0.12202723
5.424449 -4.5050635 -1.889379
45.154556 -37.514671 1.0247006
5.2319894 -4.3483105 -1.5706083
5.2445283 -4.3602796 -1.3257409
5.235898 -4.3561964 -1.0787722
5.1990991 -4.3286519 -0.83066154
5.251133 -4.3735266 -0.59788835
5.2839165 -4.403955 -0.36049011
5.331821 -4.4470372 -0.12118951
5.3390441 -4.4657173 -1.8650501
45.066277 -37.707985 1.0256779
5.204824 -4.3565412 -1.5670091
5.2142234 -4.3659563 -1.3219248
5.5627031 -4.6593962 0.6348424
5.181293 -4.3414602 -1.0706376
5.1717887 -4.3365703 -0.82871157
5.211411 -4.3713436 -0.59509945
5.2532139 -4.4095321 -0.3594434
5.2978916 -4.4501882 -0.12077066
5.2790985 -4.4469891 -1.849521
45.16069 -38.055779 1.0308439
5.1717057 -4.3596106 -1.5616102
5.1689348 -4.3588185 -1.3142924
5.4672146 -4.6119819 0.6257782
5.1027007 -4.3060136 -1.0574971
5.1414528 -4.3417897 -0.82627422
5.1778564 -4.3740788 -0.59300768
5.2194862 -4.4123693 -0.35818732
5.2640047 -4.4531555 -0.1203518
5.2709093 -4.4716372 -1.8521091
5.1416001 -4.3650246 -1.5571113
5.5321984 -4.6982889 0.38037777
5.117774 -4.346334 -1.3051336
5.4191957 -4.6039481 0.6221177
5.0635552 -4.3033309 -1.0524912
5.5444484 -4.7136917 0.8935461
5.1232419 -4.3571372 -0.82578677
5.1413116 -4.374052 -0.59056729
5.1858025 -4.4150252 -0.35693124
5.2301617 -4.4559407 -0.11993293
5.2949252 -4.5238914 -1.8660854
5.1204076 -4.3778796 -1.5553117
5.4671941 -4.6760302 0.37702829
5.0041003 -4.2799511 -1.2799468
5.0394988 -4.3132734 -1.050614
5.4495502 -4.6658821 0.88087165
5.0959401 -4.3646641 -0.8238368
5.1260118 -4.3919721 -0.59056729
5.1339703 -4.4018993 -0.35441914
5.1902943 -4.4533358 -0.11937446
5.157558 -4.4377661 -1.8231214
5.0223975 -4.3245206 -1.5301172
5.4350095 -4.6797986 0.37587687
4.9742551 -4.2845798 -1.2761306
5.0124416 -4.3205204 -1.0481111
5.400156 -4.6563573 0.87550944
5.0656419 -4.3694601 -0.82139945
5.0925479 -4.3942189 -0.58847558
5.1246204 -4.4250145 -0.35483781
5.1452312 -4.4443798 -0.11867636
5.1274362 -4.4430909 -1.817945
4.9550185 -4.2951994 -1.5139207
4.9355402 -4.2813339 -1.2700247
4.9995785 -4.3384132 -1.0484239
5.0421309 -4.3784246 -0.81993699
5.0591316 -4.3962855 -0.58638382
5.0827866 -4.4183989 -0.35295373
5.1115818 -4.4465637 -0.11825751
5.0515313 -4.4067316 -1.7962043
4.9135699 -4.2894015 -1.5058223
4.9257522 -4.3015509 -1.2711695
4.9739923 -4.3467398 -1.0462338
5.0268173 -4.395998 -0.81993699
5.016767 -4.3903012 -0.58324623
5.0432878 -4.4150653 -0.35127899
5.07798 -4.4485664 -0.11783865
4.9947152 -4.3895092 -1.7817104
4.878077 -4.2885137 -1.4995238
4.9099526 -4.3195758 -1.2711695
5.3739161 -4.7294159 0.62630117
4.949131 -4.3571095 -1.0443566
4.9965439 -4.4003983 -0.81749964
4.9894533 -4.3972473 -0.58185172
5.0090966 -4.4176664 -0.35002291
5.0654192 -4.4689112 -0.11790846
5.0025082 -4.4274025 -1.7899926
4.8477383 -4.2934432 -1.4950247
4.8830886 -4.3262734 -1.2681167
5.3707943 -4.7600389 0.62786996
4.9220676 -4.3638744 -1.0418537
4.9714727 -4.4107776 -0.81603718
4.962153 -4.4040565 -0.58045721
4.960793 -4.4059467 -0.34772015
5.0161233 -4.458221 -0.11714055
5.0634589 -4.5129623 -1.8174274
4.8385391 -4.3155274 -1.4968243
5.3814807 -4.8014674 0.37797031
4.8679581 -4.3432918 -1.2681167
5.3690104 -4.7920246 0.6296131
4.9009109 -4.3757672 -1.0406022
5.3521209 -4.7803082 0.88111544
4.9175587 -4.3937168 -0.80970001
4.9318943 -4.4080739 -0.57871413
4.9334736 -4.4125838 -0.34688276
4.97967 -4.4570327 -0.11665189
5.0879297 -4.566741 -1.8319213
9.8605137 -8.853548 0.2313142
4.8002486 -4.3115559 -1.4896258
5.3825154 -4.8362417 0.37922639
4.8337827 -4.3432002 -1.2631556
5.3611412 -4.8187284 0.63065898
4.8738551 -4.3822813 -1.0380992
5.3590164 -4.8202009 0.88501525
4.8933372 -4.4028888 -0.80823755
4.8957458 -4.4066019 -0.5762738
4.9328809 -4.4431448 -0.34792948
4.9373455 -4.4502888 -0.1160236
5.0762568 -4.5883598 -1.8334742
9.882946 -8.9361944 0.23257077
4.7909503 -4.3335142 -1.4914254
5.3848534 -4.8724213 0.3805871
4.8185921 -4.3600469 -1.2631556
5.3531504 -4.8454347 0.63170481
4.8468142 -4.3886604 -1.0355963
5.3612847 -4.8562031 0.88818389
4.8691125 -4.4119453 -0.80677515
4.8360472 -4.383522 -0.57104445
4.893672 -4.4388671 -0.34625471
4.8921671 -4.4406161 -0.1153255
4.7744842 -4.3459692 -1.7299466
4.7585063 -4.3344641 -1.4860266
5.3878617 -4.9077358 0.38194785
4.7859297 -4.3609724 -1.2585762
5.3538742 -4.8801975 0.63379657
4.819788 -4.3949046 -1.0330933
5.3618999 -4.8909411 0.89110869
4.8331532 -4.4101825 -0.80336279
4.8148303 -4.3950033 -0.57034713
4.8427558 -4.423594 -0.34374261
4.8656049 -4.4460235 -0.11504627
4.7450438 -4.349555 -1.7247702
4.7239985 -4.3317819 -1.4797281
5.3913031 -4.9454145 0.38341326
4.773571 -4.3803067 -1.2593395
5.3573546 -4.9177189 0.63623691
4.799366 -4.40552 -1.0318419
5.3573489 -4.919436 0.89305866
4.7951112 -4.4046993 -0.79946297
4.7759905 -4.3902102 -0.56755817
4.7957158 -4.4098868 -0.34143981
4.8529983 -4.4656882 -0.11511607
4.7163963 -4.3521652 -1.7195939
5.4498887 -5.0307736 0.12946194
4.6973953 -4.3376684 -1.4761288
5.3608036 -4.9520063 0.3824712
4.7417135 -4.3801265 -1.25476
5.362967 -4.95574 0.63885158
4.7636509 -4.4034739 -1.0274616
5.3561764 -4.9529324 0.89573973
4.7534761 -4.3971462 -0.79507565
4.7497067 -4.3951979 -0.56616372
4.7715006 -4.4184585 -0.34081176
4.8256474 -4.4717283 -0.11483683
4.6728721 -4.3423009 -1.709241
5.4015374 -5.0211754 0.12872896
4.6679549 -4.3407683 -1.4716297
5.380044 -5.0046973 0.385088
4.700521 -4.372582 -1.2478909
5.3587632 -4.9866457 0.64042038
4.7337923 -4.4066157 -1.024333
5.3504763 -4.9824204 0.89768964
4.7177634 -4.3947692 -0.79166335
4.7197595 -4.3981681 -0.56442058
4.7618914 -4.4405355 -0.34123048
4.7690716 -4.4503446 -0.1138595
4.674613 -4.3744259 -1.7154527
5.3971162 -5.052299 0.1290431
4.6442394 -4.3490438 -1.4689304
4.6680355 -4.3728571 -1.2433115
5.3573155 -5.0203071 0.6423378
4.695323 -4.4014969 -1.019327
5.3475318 -5.0146461 0.90012699
4.6763339 -4.386764 -0.78727603
4.6695094 -4.3818951 -0.56023711
4.7230668 -4.4352555 -0.33955571
4.7418509 -4.4560094 -0.11358026
4.6311965 -4.3642182 -1.7050999
4.6120172 -4.3491855 -1.4635316
5.3725781 -5.0681748 0.38707677
4.6413183 -4.3783474 -1.2402586
5.3528004 -5.0512838 0.64390665
