# .PCD v0.7 - Point Cloud Data file format
VERSION 0.7
FIELDS x y z
SIZE 4 4 4
TYPE F F F
COUNT 1 1 1
WIDTH 1528
HEIGHT 1
VIEWPOINT 0 0 0 1 0 0 0
POINTS 1528
DATA ascii
7.5635791 4.8222485 -2.0708995
8.9353151 5.6946158 -2.0595925
10.743663 6.8418384 -2.017379
13.520403 8.6034966 -1.9677025
19.420193 12.352988 -2.0136464
33.047756 21.005121 -2.0521977
6.569602 4.1595535 -2.0834932
7.578721 4.7947731 -2.0704496
8.9468422 5.6581464 -2.0576842
10.767481 6.8042917 -2.017379
13.545316 8.5530729 -1.9669714
19.459826 12.28299 -2.0132976
33.164799 20.917349 -2.0549192
6.5709944 4.1283755 -2.0793524
7.5954132 4.7682872 -2.0704496
8.9582224 5.6216655 -2.0557761
10.774432 6.7561674 -2.0142503
13.559953 8.4962502 -1.9647778
19.573505 12.259402 -2.0206187
33.278248 20.826874 -2.0574312
6.5870056 4.1064334 -2.07987
7.607048 4.7386565 -2.0690999
8.9694595 5.5851703 -2.0538683
10.784532 6.7101703 -2.0117474
13.589526 8.4488688 -1.9647778
19.636484 12.203626 -2.0227103
33.408428 20.746414 -2.0609901
6.6029415 4.0844331 -2.0803876
7.60531 4.7008014 -2.0641508
8.9905701 5.5548611 -2.0542498
10.80621 6.6714435 -2.0114346
13.583453 8.3794956 -1.9596591
19.662006 12.124545 -2.0209675
33.538452 20.6653 -2.064549
6.6204534 4.0633793 -2.081423
7.6208558 4.6755567 -2.0641508
8.9948425 5.5142059 -2.0508151
10.828272 6.6355743 -2.0114346
13.607782 8.3323278 -1.9591717
19.67701 12.039215 -2.0181785
33.681774 20.599812 -2.0691547
6.623992 4.0353737 -2.0783172
7.6387935 4.6499414 -2.0646007
9.0046921 5.4792476 -2.0489073
10.84124 6.5915809 -2.0095575
13.619823 8.2744675 -1.9567344
19.720234 11.975959 -2.018527
33.818367 20.521481 -2.0731323
6.6297717 4.0072289 -2.0757289
7.6549792 4.6232467 -2.0646007
9.0254459 5.4487948 -2.0492887
10.860802 6.5516543 -2.0089316
13.641816 8.222785 -1.9557593
19.755093 11.902931 -2.0178297
33.958218 20.444534 -2.0773189
6.6486883 3.9870436 -2.0772817
7.662714 4.5914879 -2.0623512
9.0427246 5.4162498 -2.0489073
33.361053 19.974096 3.4018629
10.863267 6.5015273 -2.0051773
13.675549 8.1781693 -1.9564906
19.817047 11.846163 -2.0199213
34.025951 20.323816 -2.0771098
6.6625662 3.9638095 -2.0772817
7.6753411 4.5627255 -2.0614514
9.0649529 5.3866553 -2.0496705
33.348347 19.808689 3.3934958
10.880795 6.4605494 -2.0042386
13.683528 8.1182241 -1.9535657
19.871979 11.785062 -2.0213161
34.148243 20.235456 -2.0802498
55.285725 32.734974 -1.1214917
6.6746974 3.9395483 -2.0767641
7.6929007 4.5368929 -2.0619013
9.0549479 5.3380318 -2.0431828
33.688507 19.851974 3.4210372
10.904984 6.4235287 -2.0045516
13.68783 8.0563164 -1.9501534
19.89926 11.707534 -2.0199213
34.253101 20.136385 -2.0823433
6.6867409 3.9152505 -2.0762465
7.7086897 4.5100141 -2.0619013
9.065052 5.3014388 -2.0412748
10.923927 6.3834329 -2.0039258
13.698728 7.9984756 -1.947716
19.946886 11.642024 -2.0206187
34.316284 20.012663 -2.0819247
6.6903448 3.8860617 -2.0731406
7.7193313 4.4801421 -2.0605516
9.0801067 5.2677903 -2.0405114
10.93589 6.3393154 -2.0020485
13.726562 7.9506111 -1.947716
20.001202 11.580307 -2.0220132
34.479282 19.946768 -2.0875769
6.7021942 3.8617215 -2.072623
7.7264791 4.4483051 -2.0583022
9.106946 5.2409606 -2.0424197
10.949392 6.2961774 -2.0004842
13.743907 7.8967113 -1.9462537
20.04496 11.512398 -2.0223618
34.614532 19.864058 -2.0915544
6.725698 3.8440528 -2.0757289
7.7402663 4.4203429 -2.0578523
9.1234827 5.2081642 -2.042038
10.964437 6.2540054 -1.9992328
13.745872 7.8373284 -1.9428412
20.085022 11.442362 -2.0223618
34.742672 19.776711 -2.0951133
6.7333665 3.8188705 -2.0741758
56.22691 31.876474 1.1281934
7.7531867 4.393692 -2.0574024
9.1355762 5.1749792 -2.0408931
10.983397 6.2166414 -1.9989198
13.761422 7.7858338 -1.9413787
20.143665 11.387465 -2.0244534
34.835884 19.677116 -2.0967879
6.7426267 3.7946241 -2.0731406
7.759222 4.3631797 -2.0551529
9.1372852 5.1359963 -2.0374587
11.005675 6.1811485 -1.9992328
13.791974 7.7397032 -1.9418663
20.188272 11.324498 -2.0251508
34.93927 19.582979 -2.0990908
6.7457094 3.7654169 -2.0700347
7.7761078 4.3370152 -2.0556028
9.1551571 5.1040716 -2.0374587
11.016832 6.1369238 -1.9973555
13.794625 7.6779933 -1.938454
20.203306 11.240391 -2.0227103
35.042332 19.480297 -2.1011841
6.765574 3.7455881 -2.0721054
7.7894912 4.308907 -2.0551529
9.1746368 5.0730305 -2.0378401
11.019162 6.0879297 -1.9939139
13.82482 7.6317091 -1.9389415
20.242413 11.169814 -2.0227103
35.183582 19.39835 -2.1055803
6.7802978 3.7228835 -2.072623
7.7976513 4.2779388 -2.0533531
9.1922855 5.0409803 -2.0378401
11.036883 6.0475273 -1.9932882
13.823515 7.5681558 -1.9350417
20.291769 11.10482 -2.0237563
35.212528 19.254347 -2.1032777
6.7915564 3.6982675 -2.0721054
7.8125362 4.2506957 -2.0533531
9.1943064 5.0004187 -2.0344057
11.050982 6.0051937 -1.9920367
13.835894 7.5122747 -1.9330916
20.33741 11.037726 -2.0244534
35.31815 19.15225 -2.1055803
6.8027258 3.6736183 -2.0715878
7.8256121 4.2224712 -2.0529034
9.1944265 4.958972 -2.0305893
11.054489 5.9572082 -1.9889081
13.855035 7.4601779 -1.9321167
20.389854 10.974217 -2.0258482
35.441074 19.059128 -2.1089299
6.8035855 3.6434672 -2.0679643
7.8351507 4.1923695 -2.0515537
9.2082176 4.9249973 -2.0298262
11.073476 5.9176507 -1.9885952
13.879244 7.410831 -1.9318731
20.399916 10.887961 -2.0230591
35.553204 18.959742 -2.1116514
6.8196754 3.6215062 -2.0689995
73.233841 38.889946 1.447363
7.8421216 4.1627145 -2.0497539
9.2392282 4.9001808 -2.0328791
11.073839 5.8707218 -1.9851536
13.901988 7.3638315 -1.9316292
20.441319 10.818554 -2.0234077
35.661789 18.866013 -2.1143727
6.828228 3.5970721 -2.0679643
7.8462586 4.1298666 -2.0470545
9.2432642 4.8631186 -2.0302079
11.083772 5.8265185 -1.9832764
13.913548 7.3078775 -1.9296793
20.49119 10.758121 -2.0248022
35.787563 18.772949 -2.1179316
6.8441668 3.5750055 -2.0689995
7.8633666 4.1056266 -2.0479543
9.2567015 4.82901 -2.0294447
11.099531 5.7879019 -1.9826506
13.927141 7.2561979 -1.9282169
20.542761 10.693883 -2.0261967
35.87796 18.668947 -2.1196065
6.8548899 3.5502031 -2.0684819
7.8818226 4.0785713 -2.0488544
9.2578087 4.788548 -2.02601
11.10312 5.7381139 -1.9795219
13.953645 7.2051005 -1.9282169
20.56934 10.616632 -2.0251508
35.96035 18.544634 -2.1204438
6.8552113 3.5200741 -2.0648584
7.894279 4.0501423 -2.0484045
9.2727203 4.7553048 -2.0256283
11.1266 5.7011209 -1.9801477
13.982243 7.1581616 -1.9287045
20.609823 10.546576 -2.0254996
36.088875 18.451736 -2.124212
6.8726206 3.4987543 -2.0664113
7.8996811 4.0181494 -2.0461547
9.2892628 4.7229099 -2.0256283
11.135865 5.6568813 -1.9782705
14.007147 7.1093068 -1.9287045
20.646509 10.474575 -2.0254996
36.192261 18.345507 -2.1265149
6.8796186 3.4721298 -2.0648584
7.9101787 3.9887924 -2.0452549
9.3092003 4.6922212 -2.0263917
11.130842 5.6055388 -1.9738904
14.010596 7.0496659 -1.9257796
20.668705 10.395284 -2.0241048
36.359592 18.271065 -2.1325858
6.8986058 3.4515569 -2.0669291
7.9188261 3.9585404 -2.0439053
9.3079567 4.650928 -2.0225754
11.160948 5.5719419 -1.9757676
14.024463 6.9953966 -1.9243171
20.708433 10.324845 -2.0244534
6.9054208 3.4248784 -2.065376
7.9325948 3.930876 -2.0439053
9.3135805 4.6131783 -2.0202856
11.169705 5.5276947 -1.9738904
14.034561 6.9393568 -1.9223672
20.758635 10.259563 -2.0258482
36.575806 18.060997 -2.1378195
6.8999982 3.3922281 -2.0601997
7.9497671 3.9048784 -2.044805
9.329628 4.580637 -2.0202856
11.174745 5.481708 -1.9713873
14.056911 6.8894606 -1.9221234
20.762117 10.171256 -2.0227103
36.638615 17.933239 -2.1378195
6.9239526 3.3740473 -2.0638232
7.9545894 3.8728416 -2.0425556
9.3473244 4.5489035 -2.0206673
11.188484 5.4400735 -1.9704487
14.086233 6.8429494 -1.9228547
20.801085 10.100457 -2.0230591
36.79084 17.848816 -2.1430531
6.9269905 3.3456545 -2.061235
7.9557719 3.8391242 -2.0394061
9.368453 4.5188041 -2.0218122
11.205622 5.400135 -1.9701359
14.110033 6.7937407 -1.9228547
20.843388 10.031256 -2.0237563
36.762928 17.677 -2.1378195
6.9473391 3.3256269 -2.0638232
7.9708843 3.8121691 -2.0398562
54.750313 26.173241 3.1803517
9.3735409 4.4809961 -2.0195224
11.215492 5.3567276 -1.9685715
14.124704 6.7401676 -1.921636
20.896263 9.9670095 -2.0254996
36.914551 17.591532 -2.1430531
6.9431958 3.2939048 -2.0591643
7.9841413 3.7843239 -2.0398562
55.03894 26.08736 3.192075
9.3855762 4.4465699 -2.0187593
11.221623 5.3116322 -1.9663814
14.14097 6.6874242 -1.9206611
20.905708 9.8820925 -2.0230591
6.9424148 3.2638931 -2.055541
8.0001755 3.7594819 -2.040756
9.39571 4.4112754 -2.0176144
11.23739 5.2735486 -1.9660686
14.170257 6.6438675 -1.921636
20.889557 9.7853861 -2.0181785
37.098553 17.370344 -2.146821
6.9619541 3.2449353 -2.0581291
7.9973493 3.7241309 -2.0367069
9.4174051 4.3834095 -2.019141
11.236024 5.2251301 -1.9626271
14.196961 6.5960393 -1.9221234
20.950806 9.7294807 -2.0209675
6.9802551 3.2238522 -2.0601997
7.9961433 3.689662 -2.0331075
9.3969946 4.3340626 -2.0115087
31.678535 14.604006 3.0518456
11.239841 5.1792665 -1.9601241
31.621681 14.564414 4.2746892
14.201869 6.5381379 -1.9196861
20.955675 9.6429787 -2.0181785
31.615213 14.534692 -1.8235942
31.622513 14.524678 -0.60741353
6.9809251 3.1946449 -2.0570939
31.6271 14.466673 0.60706449
8.0054312 3.6601052 -2.0322077
31.62995 14.454608 1.8225476
9.4067106 4.2987838 -2.0103636
31.620579 14.443675 3.0413866
11.257854 5.1399975 -1.9601241
31.62899 14.434156 4.2688394
14.21738 6.4852314 -1.9187111
20.992836 9.5714188 -2.018527
31.752996 14.463991 -1.8286185
31.720346 14.435735 -0.60832113
6.990274 3.1694615 -2.0565763
8.0234842 3.6345489 -2.0335574
9.4145021 4.2626901 -2.0088372
31.65266 14.324988 3.0396438
11.272128 5.0990376 -1.9594984
14.229078 6.430655 -1.9172486
21.037016 9.5029964 -2.0195727
6.985436 3.1379149 -2.0519176
8.0414553 3.6089151 -2.0349073
9.4221601 4.2265844 -2.0073106
11.27724 5.0540066 -1.9573083
14.262311 6.3858109 -1.9187111
21.05551 9.4229994 -2.0181785
37.695087 16.853922 -2.1639874
7.0069356 3.1182263 -2.0550234
8.0451012 3.5768623 -2.0326576
9.4368553 4.1936707 -2.0073106
11.282176 5.0089965 -1.9551181
14.277252 6.3327775 -1.9177362
21.077347 9.344594 -2.0171325
37.753677 16.722265 -2.1639874
7.0142431 3.0921879 -2.053988
8.0468349 3.5440507 -2.0299582
9.4532337 4.1614928 -2.0076923
11.28874 4.9648209 -1.953241
14.292003 6.2797036 -1.9167612
21.142666 9.2853985 -2.0202701
37.811825 16.590368 -2.1639874
7.0303063 3.0700023 -2.055541
8.0555859 3.51438 -2.0290585
9.4569063 4.1237593 -2.0054026
11.306003 4.9253826 -1.953241
51.841858 22.573755 6.9426532
14.306555 6.2266111 -1.9157863
21.142067 9.1972284 -2.0171325
37.869503 16.458286 -2.1639874
7.026793 3.0393131 -2.0513999
8.080327 3.4916482 -2.0322077
9.4532175 4.0829453 -2.0015864
11.319499 4.8843184 -1.9526151
14.335495 6.1797743 -1.9167612
21.177702 9.1249437 -2.0174811
37.926727 16.325987 -2.1639874
7.035584 3.0140038 -2.0508821
8.0835075 3.4595892 -2.0299582
9.4656076 4.0491476 -2.001205
11.318315 4.8370156 -1.9494866
14.364284 6.1328101 -1.9177362
21.205759 9.0494051 -2.0171325
38.075352 16.232651 -2.1692209
7.0407262 2.9871643 -2.0493293
8.0937405 3.4305885 -2.0295084
9.4778757 4.0153179 -2.0008233
11.324216 4.7928553 -1.9476093
14.385603 6.0826354 -1.9177362
21.229881 8.9722204 -2.0164354
38.223774 16.138496 -2.1744545
7.0546737 2.9640641 -2.0503645
8.0948849 3.3977916 -2.026809
53.830357 22.584002 3.059351
9.4918346 3.9822068 -2.0008233
11.344521 4.754827 -1.948235
14.399421 6.0293193 -1.9167612
21.264744 8.8996019 -2.016784
38.279873 16.004978 -2.1744545
7.0721121 2.9423871 -2.0524352
8.1102962 3.3710084 -2.027709
9.5020523 3.947541 -2.0000601
11.353752 4.7121668 -1.9469837
14.413044 5.9759808 -1.9157863
21.280956 8.819212 -2.0153892
38.520039 15.947668 -2.1849217
7.0787668 2.9162128 -2.0513999
8.119627 3.3433547 -2.0272589
9.5012484 3.9083757 -1.997007
11.365661 4.6729898 -1.9463578
14.436456 5.929657 -1.9162737
21.304237 8.7418537 -2.0146921
7.065146 2.883235 -2.0446706
8.124032 3.3120468 -2.0254593
9.5196104 3.8790715 -1.9981518
11.365438 4.6265817 -1.943542
14.468102 5.8837113 -1.9177362
21.325729 8.6681509 -2.0139949
7.0823326 2.8614485 -2.046741
8.1301203 3.2814817 -2.0241096
9.5276318 3.8436122 -1.997007
11.368692 4.5817146 -1.941352
14.477501 5.8287272 -1.9162737
21.378035 8.6025877 -2.0160866
38.682224 15.55014 -2.1849217
7.0868959 2.834558 -2.0451882
8.1288595 3.2480187 -2.0209603
9.524581 3.8037801 -1.9935726
11.393792 4.5456595 -1.9429164
14.490381 5.775219 -1.9152987
21.39683 8.5234823 -2.0150406
7.1093216 2.8147795 -2.0488117
8.1347094 3.2174795 -2.0196106
9.5396271 3.771229 -1.9939542
11.394888 4.5000629 -1.9404132
14.491989 5.7173142 -1.9128615
21.444981 8.4560642 -2.016784
38.882751 15.316327 -2.1901553
7.1101103 2.7864194 -2.0462234
8.1495199 3.1904829 -2.0205104
9.5454206 3.7350426 -1.9924276
11.405008 4.4580998 -1.9394747
14.52295 5.6710281 -1.9143238
21.515203 8.3970871 -2.0206187
39.029018 15.216792 -2.1953888
7.1107864 2.7580957 -2.0436354
8.162426 3.1627185 -2.0209603
9.5547371 3.7002888 -1.9916644
11.407605 4.4132695 -1.9372847
14.531549 5.6160016 -1.9128615
21.711655 8.3865385 -2.0363066
39.15271 15.107774 -2.1993663
7.1167645 2.7318709 -2.0425999
8.1643171 3.1307197 -2.0187106
9.5584288 3.6633978 -1.9897563
11.415561 4.3705997 -1.9360331
14.554774 5.5666571 -1.9133489
21.845016 8.350544 -2.0460682
39.246258 14.986676 -2.2016692
7.1316743 2.7090716 -2.044153
8.1660872 3.0987432 -2.0164614
9.5840082 3.6348863 -1.9924276
11.42336 4.3279228 -1.9347818
14.5704 5.5144224 -1.9128615
21.866579 8.2714138 -2.0453708
39.186226 14.807261 -2.1953888
7.1428967 2.684839 -2.0446706
8.1768532 3.0702209 -2.0164614
9.5856104 3.5972681 -1.9901379
11.434698 4.2866373 -1.9341559
14.596043 5.4688568 -1.9138362
21.854267 8.1796751 -2.0415361
39.305023 14.695555 -2.199157
7.1499491 2.6604652 -2.044153
8.1869888 3.0430903 -2.0164614
9.5827627 3.5599937 -1.987085
11.4507 4.2493839 -1.9344687
14.595486 5.4135242 -1.911399
21.840164 8.0919342 -2.0377011
39.334816 14.55819 -2.1981106
7.1387925 2.6293938 -2.0384588
8.1970358 3.0159223 -2.0164614
9.5963583 3.5288713 -1.9874666
11.440624 4.2025309 -1.9304014
14.621748 5.3652744 -1.9123739
21.80842 7.993701 -2.0321233
39.439129 14.44829 -2.2012506
7.1574569 2.6065178 -2.0410471
8.2020187 2.9852929 -2.0151114
9.603693 3.4916651 -1.9863218
11.45038 4.1585507 -1.9294629
14.636655 5.312851 -1.9118865
21.793112 7.9018998 -2.0281141
39.574455 14.333558 -2.2058561
7.1646948 2.5808611 -2.0405295
8.20924 2.9538894 -2.0142117
9.6158237 3.458118 -1.9863218
11.45925 4.116549 -1.9285244
14.637344 5.2524676 -1.9094491
21.753046 7.8015714 -2.0218389
39.624237 14.195357 -2.2058561
7.1772995 2.5571342 -2.0415647
8.2139931 2.9232535 -2.012862
9.6204357 3.4219015 -1.9847952
11.469829 4.0751982 -1.9278985
14.651849 5.2000098 -1.9089615
21.723812 7.7056031 -2.0166094
7.1752501 2.5282114 -2.0384588
34.852432 12.273475 0.64497113
8.2259836 2.8952162 -2.0133121
9.6249142 3.3856907 -1.9832687
11.476526 4.0325251 -1.9266472
14.666165 5.1475153 -1.9084741
21.701691 7.6125937 -2.0120773
51.682213 18.098881 -0.95583338
7.1712599 2.4987051 -2.0348353
34.775856 12.117063 0.64280701
8.237381 2.8685606 -2.013762
9.632966 3.3507802 -1.9825056
11.489837 3.994442 -1.9266472
14.694408 5.1027555 -1.9099365
21.654722 7.5113249 -2.0052793
38.017109 13.179456 -2.1087205
51.934044 17.983788 -0.95932388
7.1868129 2.477427 -2.036906
34.689381 11.951297 0.64043355
8.239974 2.8372493 -2.0119622
9.6365986 3.3162694 -1.9809792
11.486898 3.9485285 -1.9238312
14.708373 5.0501523 -1.9094491
21.621094 7.4194202 -1.9998757
38.168678 13.082964 -2.1145823
7.1899314 2.4504535 -2.0353529
34.62867 11.795308 0.63854867
8.2406006 2.8053346 -2.0097127
9.6443987 3.2813437 -1.9802158
11.489387 3.9046016 -1.921954
14.714635 4.994947 -1.9079866
21.595915 7.3266253 -1.9951692
37.321281 12.647084 -2.0651772
7.198442 2.4253392 -2.0353529
34.540764 11.630973 0.63617516
8.2503443 2.7765501 -2.0097127
9.6539335 3.24703 -1.9798342
11.504819 3.8650982 -1.9222668
14.720686 4.9397664 -1.9065242
21.56469 7.2321963 -1.9899398
37.289444 12.491364 -2.0609901
7.201364 2.3983707 -2.0338001
34.459724 11.469905 0.63394123
8.2599869 2.7477317 -2.0097127
9.6558933 3.2102168 -1.9779261
11.510743 3.8224223 -1.9210155
14.74161 4.8895979 -1.9070116
21.521719 7.1343021 -1.9836646
37.256985 12.336002 -2.0568032
28.140482 9.3065786 -0.51735914
7.2041874 2.3714046 -2.0322473
34.396973 11.315811 0.63205642
8.2732306 2.7201018 -2.0106125
9.6614437 3.1746554 -1.9767814
11.510878 3.7779095 -1.9188254
14.758589 4.8381062 -1.9070116
21.493477 7.04177 -1.9787838
28.051741 9.1795559 -1.5468417
28.077757 9.1772356 -0.51561391
7.2160954 2.34744 -2.0332825
34.314556 11.156094 0.62982243
8.2734089 2.6881931 -2.008363
9.6556616 3.1354563 -1.9733468
11.5146 3.7346559 -1.917261
14.790494 4.7914572 -1.9089615
21.445898 6.9433746 -1.97216
27.996195 9.053318 -1.5420268
27.987841 9.0398283 -0.51337999
7.2256794 2.3240869 -2.0338001
34.225716 11.00186 0.62751871
8.2767115 2.6589563 -2.0070133
9.677763 3.1053288 -1.9756364
11.52692 3.6964538 -1.917261
14.787395 4.7363315 -1.9065242
21.416868 6.8514781 -1.9672793
27.966745 8.9360914 -1.5386772
27.990992 8.9384565 -0.51289129
7.2341499 2.2975862 -2.0338001
34.433529 10.929588 0.63059032
8.2789717 2.6262436 -2.0052137
9.6797228 3.0668747 -1.9737284
11.532859 3.6517925 -1.9160095
14.785728 4.6761189 -1.9040867
21.384844 6.7549267 -1.9620501
27.896458 8.8010721 -1.533025
27.939653 8.8093386 -0.51135552
7.231462 2.2675896 -2.0306942
34.610752 10.846355 0.63310349
8.2866821 2.5953014 -2.0047638
9.6735067 3.0277867 -1.9702938
11.54051 3.6077323 -1.9150709
14.817927 4.6266246 -1.9060366
21.351234 6.6624393 -1.9568207
27.865993 8.684617 -1.5296755
27.89156 8.6819201 -0.50988948
7.2319508 2.2400484 -2.0286238
34.766834 10.762146 0.63526762
8.293829 2.5657814 -2.0043139
9.6896448 2.9957387 -1.9714386
11.537934 3.5627608 -1.912568
14.833986 4.5748749 -1.9060366
21.296295 6.5638018 -1.9496739
27.8465 8.5720358 -1.5269539
27.879646 8.5715714 -0.5091216
7.2397265 2.2147887 -2.0286238
34.957176 10.687483 0.63805997
8.300869 2.5362511 -2.0038638
9.7019196 2.9624724 -1.9718202
11.54085 3.5195911 -1.9110037
14.86126 4.5265331 -1.9074991
21.275242 6.4760742 -1.9456648
27.803642 8.4526978 -1.5229765
27.881132 8.4709263 -0.50863296
7.2474146 2.189502 -2.0286238
35.126427 10.611975 0.64050329
8.296175 2.5047653 -2.0007145
9.7046833 2.9263184 -1.9702938
11.544893 3.4790177 -1.9097521
14.857182 4.4715018 -1.9050617
21.255735 6.3891673 -1.9418299
27.785614 8.346653 -1.5204644
27.876049 8.3632269 -0.50800467
7.2620392 2.1676683 -2.0306942
35.305054 10.531621 0.64308631
8.3030014 2.4752324 -2.0002646
9.7124519 2.8935621 -1.9699122
11.558862 3.4392579 -1.9100651
14.865086 4.4173617 -1.9040867
21.215691 6.3004894 -1.936252
27.780107 8.2394085 -1.5185802
27.813042 8.2386017 -0.50632924
7.2602959 2.1395769 -2.0281062
35.483551 10.450114 0.64566922
8.3153315 2.4473329 -2.0011647
9.6980076 2.852442 -1.9649512
11.555634 3.3944316 -1.907562
14.880415 4.3654418 -1.9040867
21.170637 6.2067699 -1.9301511
27.877705 8.1625843 -1.5223484
27.891531 8.156064 -0.50723672
7.2565908 2.1109812 -2.0250003
8.3144646 2.4155791 -1.9989151
9.713563 2.8202121 -1.966096
11.571206 3.3551826 -1.9081879
14.89175 4.3123646 -1.9035993
21.144323 6.1190014 -1.9257932
28.028828 8.1007061 -1.5290475
28.092747 8.1085558 -0.51037818
7.2676287 2.0867059 -2.0260355
8.3153524 2.3843906 -1.9971154
9.7195721 2.7852082 -1.9653327
11.561957 3.3087895 -1.9047463
14.91053 4.2614508 -1.9040867
21.098503 6.026 -1.9196924
28.195219 8.0422688 -1.5365838
28.293972 8.0597429 -0.51351964
7.2711506 2.0602727 -2.0250003
8.3198748 2.3542907 -1.9962157
9.7349024 2.7528689 -1.9664776
11.573436 3.2684131 -1.9047463
14.921494 4.2082953 -1.9035993
21.065712 5.9371862 -1.9148116
28.334633 7.9751778 -1.5426549
28.460535 7.9998956 -0.51603276
7.2838802 2.0364375 -2.0265532
8.3261671 2.3247085 -1.9957658
9.7274332 2.714119 -1.963043
11.56765 3.2232194 -1.9019306
14.924618 4.1529942 -1.9021369
21.049839 5.8534694 -1.9114997
28.547041 7.9275331 -1.5527033
28.646297 7.9443274 -0.51889497
7.2834945 2.0089467 -2.0244827
8.3398666 2.2971804 -1.9971154
9.7160263 2.6744187 -1.9588453
11.584545 3.1843889 -1.9028691
14.950509 4.1040211 -1.9035993
21.010582 5.7636113 -1.906096
28.828812 7.8974857 -1.56652
28.859018 7.8949475 -0.52224582
7.2792788 1.9804652 -2.0213768
8.3497152 2.2685676 -1.9975653
9.7328815 2.6425419 -1.9603716
11.582243 3.1403155 -1.900679
14.968575 4.0528498 -1.9040867
20.963259 5.6720276 -1.8999952
39.356728 10.634006 -2.1365633
7.2936106 1.9570478 -2.0234473
8.3425245 2.2353709 -1.9939661
9.7420464 2.6085539 -1.9603716
11.585502 3.0978227 -1.8994274
14.978795 3.9995544 -1.9035993
20.942505 5.5880246 -1.8963346
39.378166 10.492455 -2.135726
7.2929273 1.929598 -2.0213768
8.3385868 2.2047064 -1.9912667
9.7529917 2.5750306 -1.9607532
11.586161 3.0568695 -1.8978633
14.980459 3.9468222 -1.9021369
20.907928 5.5007081 -1.891454
39.432064 10.366881 -2.1367726
7.2992859 1.9054046 -2.0213768
8.3462315 2.1755877 -1.9912667
9.7443771 2.5382221 -1.9573188
11.589112 3.0144207 -1.8966117
14.98646 3.8925061 -1.9011619
20.887486 5.4213281 -1.8879676
39.537613 10.247203 -2.1405408
7.2946672 1.8770233 -2.018271
21.411167 5.5094028 0.38590762
8.3590622 2.1493564 -1.9926165
9.7341642 2.4993079 -1.9535027
11.60287 2.9769576 -1.8972374
15.003131 3.8437765 -1.9016495
20.840658 5.3315897 -1.8820411
39.521069 10.103183 -2.1378195
7.2952328 1.8514023 -2.0167181
8.364625 2.1196835 -1.9921664
9.7538166 2.4699128 -1.9557924
11.605533 2.9344981 -1.895986
15.010682 3.7899275 -1.9009181
20.817654 5.2522187 -1.8783807
39.652927 9.9895697 -2.1430531
7.3091483 1.8277986 -2.0187886
8.3700819 2.0900023 -1.9917165
9.7509499 2.432996 -1.9535027
11.594621 2.8887186 -1.8925444
15.021894 3.7370243 -1.9006745
20.79332 5.1689496 -1.8745457
21.423607 5.3176804 -1.1568341
21.350662 5.2916746 -0.38395295
7.3136091 1.8018098 -2.018271
8.3602962 2.056581 -1.9876676
9.7593842 2.3989415 -1.9535027
11.595041 2.8458707 -1.89098
15.01171 3.6788983 -1.8977495
20.749311 5.0811653 -1.8689677
39.721703 9.7124968 -2.1430531
7.3179765 1.7758156 -2.0177534
21.309155 5.1670451 0.38273126
8.363637 2.0264657 -1.9867678
9.7619724 2.3634763 -1.9523578
11.604905 2.8053761 -1.89098
15.02832 3.6274099 -1.8982371
20.710754 4.9951534 -1.8639127
39.805847 9.5859499 -2.1457746
7.3260098 1.7507073 -2.018271
8.3763456 1.9986172 -1.9881173
9.7567959 2.3261964 -1.9496864
11.61847 2.7657678 -1.8916059
15.048615 3.5767612 -1.899212
20.6796 4.9113231 -1.8595549
39.78854 9.4349508 -2.1430531
7.3151507 1.7211434 -2.0136123
8.3870649 1.9702592 -1.9890171
9.7610331 2.2912295 -1.9489232
11.597281 2.7179852 -1.8865999
15.053278 3.5224042 -1.8982371
20.642296 4.8264117 -1.8546741
39.762875 9.2823915 -2.1399126
7.3227 1.6973138 -2.0141299
8.3935528 1.9424335 -1.9890171
9.776228 2.2606192 -1.9504496
11.61008 2.680398 -1.8872255
15.057138 3.4706786 -1.8972621
20.624067 4.7462888 -1.8515366
39.797337 9.1513672 -2.1401222
7.3307557 1.6708908 -2.0146475
8.3964815 1.912259 -1.9881173
9.7691336 2.2212875 -1.9473966
11.612121 2.6360803 -1.8859742
15.065289 3.4172232 -1.8967746
20.59193 4.6632609 -1.8471787
39.787754 8.99576 -2.1378195
7.3403134 1.6461385 -2.0156829
8.3996315 1.880618 -1.9872177
9.7806587 2.1880324 -1.9481598
11.623179 2.5959575 -1.886287
15.073839 3.3611152 -1.8962871
20.563356 4.5813828 -1.8431696
39.850105 8.8637476 -2.1394939
7.3479013 1.6209202 -2.0162005
8.409627 1.8535938 -1.9881173
9.769063 2.1496568 -1.9443438
11.627866 2.5565536 -1.8856614
15.077147 3.309411 -1.8953122
20.540298 4.50105 -1.8396834
39.848064 8.7247248 -2.1378195
7.3324704 1.5920339 -2.0105064
8.4084282 1.8225782 -1.9863179
9.7723026 2.116416 -1.9435806
11.619341 2.5121944 -1.8828454
15.080845 3.2550824 -1.8943372
20.496681 4.4203148 -1.8344539
29.830608 6.422359 -1.5991776
7.3417606 1.5672407 -2.0115416
8.3880558 1.7875274 -1.9800191
9.7873087 2.0839331 -1.945107
11.61838 2.4695637 -1.8812811
15.088231 3.2015996 -1.8938497
20.463261 4.3384056 -1.8300962
29.751236 6.2966928 -1.5937347
7.352859 1.5427918 -2.0130947
8.3827991 1.7558415 -1.9773197
9.7926025 2.0493517 -1.9447254
11.61726 2.4269755 -1.8797168
15.079883 3.1448557 -1.8914124
20.452923 4.2616696 -1.8278301
29.984219 6.236722 -1.6050392
7.3581996 1.5171143 -2.0130947
8.3926964 1.727353 -1.9782196
9.780467 2.0111997 -1.9409093
11.619857 2.3852141 -1.8787781
15.07132 3.0882235 -1.888975
20.416925 4.1798544 -1.823298
30.131039 6.1576338 -1.6117383
7.3539834 1.4895041 -2.0105064
8.4005852 1.6984304 -1.9786695
9.7855034 1.9766605 -1.9405276
11.631986 2.3454165 -1.8794039
15.082008 3.0355921 -1.888975
20.396233 4.1014848 -1.8201605
30.348171 6.0917177 -1.6222055
7.3458753 1.4611847 -2.0068829
8.4026394 1.6683434 -1.9777697
9.7846413 1.9409602 -1.9390012
11.6401 2.3048072 -1.8794039
15.096408 2.9836931 -1.8894625
20.355694 4.0194712 -1.8152797
30.721972 6.0552583 -1.6410464
7.3604107 1.4373868 -2.0094712
8.3950224 1.6363904 -1.9746205
9.7836475 1.9052944 -1.9374746
11.618988 2.2585044 -1.8747108
15.126218 2.934763 -1.8918999
20.318747 3.9385288 -1.8107476
30.782139 5.9555759 -1.6431398
7.3653831 1.4116869 -2.0094712
8.3908329 1.6067078 -1.9723709
9.7902384 1.8711334 -1.9374746
11.632236 2.2210705 -1.8756495
15.108567 2.8793793 -1.8884875
20.310839 3.8634877 -1.8088303
41.252094 7.8394117 -2.2006223
7.3719225 1.38761 -2.0099888
8.3983049 1.57777 -1.9728208
9.792531 1.8379307 -1.9367114
11.632151 2.1790004 -1.874398
15.106819 2.8244374 -1.8870251
20.280453 3.7880597 -1.8049954
33.19379 6.1880722 -1.7695835
7.3672228 1.3601167 -2.0074008
8.4037609 1.5484465 -1.9728208
9.787303 1.801602 -1.9344217
11.653286 2.1408787 -1.876588
15.13611 2.7752707 -1.8894625
20.258278 3.7107778 -1.8018578
33.258411 6.0800757 -1.7718863
7.3586187 1.3319813 -2.0037773
8.4110327 1.5194507 -1.9732707
9.7896671 1.7667317 -1.9336585
11.639302 2.0963447 -1.8731465
15.133983 2.7203076 -1.888
20.22208 3.6312411 -1.7975
33.727665 6.0442629 -1.7957515
74.888138 13.393566 -1.3279188
7.3670282 1.3069599 -2.0048125
8.4047718 1.4880408 -1.9705712
9.7957754 1.7325461 -1.9336585
11.642658 2.0550132 -1.8725207
15.135568 2.6660893 -1.8870251
20.201273 3.5547652 -1.7945366
30.546026 5.3641124 -1.6253456
7.3772545 1.2822336 -2.0063653
8.4041557 1.4576924 -1.9692216
9.8036966 1.6986837 -1.9340401
11.634191 2.0116646 -1.8700178
15.144782 2.6132362 -1.8870251
20.20178 3.482192 -1.7934909
30.533073 5.2520294 -1.6236709
7.3702588 1.2545274 -2.0032594
8.4091921 1.4283493 -1.9692216
9.7998886 1.6628073 -1.932132
11.645036 1.9717034 -1.8706435
15.138152 2.5577052 -1.8850751
20.194164 3.4083416 -1.7917477
30.649694 5.161994 -1.6289045
7.3822155 1.2300644 -2.0053301
8.416049 1.3993043 -1.9696715
9.7862673 1.6253701 -1.9283159
11.653797 1.9313626 -1.8709565
15.125444 2.5012956 -1.8823941
20.178419 3.3332784 -1.7893074
29.126463 4.8009796 -1.5470511
7.3654909 1.2008667 -1.9996361
8.4189587 1.3696113 -1.9692216
9.7996311 1.5924615 -1.9298422
11.654616 1.889731 -1.8700178
15.143882 2.4500637 -1.8836126
20.174196 3.2602742 -1.787913
31.308069 5.0483794 -1.6619809
7.3868079 1.1778849 -2.0042949
8.4159899 1.3389882 -1.9674219
9.7915583 1.556085 -1.927171
11.645535 1.8465593 -1.8675148
15.160183 2.3984308 -1.8845876
20.18742 3.1901579 -1.7880871
29.652493 4.6752877 -1.5732189
7.3832388 1.1509079 -2.0022242
8.4129114 1.3084027 -1.9656224
9.8008099 1.5225012 -1.9279342
11.640198 1.8040791 -1.8656377
15.160616 2.3442798 -1.8836126
20.192526 3.1187534 -1.7875642
31.393873 4.8375931 -1.6647022
7.3948503 1.1262901 -2.0042949
8.4154997 1.2787371 -1.9651723
9.8002424 1.4873992 -1.9267894
11.660095 1.7655088 -1.8678278
15.153006 2.288969 -1.8816628
20.193439 3.0467677 -1.7866927
31.667322 4.7666168 -1.6783096
7.3872719 1.0987667 -2.001189
8.4218407 1.2496376 -1.9656224
9.7976055 1.452027 -1.9252628
11.654463 1.7230601 -1.8659505
15.168758 2.2372229 -1.8826377
20.192125 2.9745133 -1.7856468
33.568905 4.9330835 -1.7781667
7.3815031 1.0715839 -1.9986008
8.4222927 1.2196753 -1.9647225
9.7948427 1.4166961 -1.9237365
11.650629 1.6809599 -1.8643861
15.172545 2.1836982 -1.8821504
20.198442 2.9034393 -1.7852982
33.787575 4.8447986 -1.788843
7.3851991 1.0458091 -1.9986008
8.4264984 1.1902664 -1.9647225
9.8016729 1.3827688 -1.924118
11.644691 1.6386268 -1.8625089
15.160417 2.1279666 -1.8797129
20.188723 2.8301539 -1.783555
29.432871 4.1155834 -1.5575182
7.3868904 1.019761 -1.9980831
8.4190197 1.1592519 -1.962023
9.8006039 1.3477457 -1.922973
11.658167 1.5990455 -1.8637605
15.171686 2.0755682 -1.8802004
20.182688 2.7575023 -1.7821606
36.12014 4.9221649 -1.9104719
7.3942351 0.99448276 -1.9991184
8.4189548 1.130806 -1.9611233
9.7994118 1.3127425 -1.9218283
11.655574 1.5593257 -1.8625089
15.162745 2.0231411 -1.8782505
20.192188 2.6870487 -1.7821606
29.52356 3.9235501 -1.5608677
7.3840837 0.9682005 -1.995495
8.428647 1.1021713 -1.9624729
9.7920303 1.2787157 -1.9195386
11.653111 1.5176129 -1.8612576
15.157905 1.9686629 -1.876788
20.181231 2.6175056 -1.7804176
34.568203 4.471211 -1.8267344
7.3855019 0.94217646 -1.9949772
8.418911 1.0710193 -1.9593236
9.804225 1.2455193 -1.9210651
11.658339 1.4769235 -1.8612576
15.164682 1.9157503 -1.876788
20.174431 2.5450437 -1.7790229
29.970337 3.7702038 -1.5830581
7.3887458 0.91638857 -1.9949772
8.428401 1.0423486 -1.9606735
9.8065653 1.2110453 -1.9206835
11.643815 1.4338131 -1.8581288
15.175218 1.8632838 -1.8772755
20.155504 2.4712257 -1.7765826
30.058649 3.6747668 -1.5870357
7.3938179 0.89082056 -1.995495
8.4145737 1.0108275 -1.9566242
9.8107319 1.1768039 -1.9206835
11.644827 1.3926876 -1.8575031
15.157976 1.8074838 -1.8743507
20.132353 2.3970804 -1.7737937
37.175594 4.4131927 -1.9619706
7.4045568 0.8659085 -1.9975655
8.4161158 0.9812212 -1.9561743
9.8011284 1.1409686 -1.918012
11.657467 1.352939 -1.8587546
15.14053 1.7518195 -1.8714259
20.124763 2.3249559 -1.7723991
7.3960171 0.8387484 -1.9944596
8.4252987 0.95249599 -1.9575242
9.7992001 1.1060861 -1.9168673
11.658193 1.3117992 -1.8581288
15.146552 1.6989545 -1.8714259
20.107018 2.2518151 -1.7701331
28.995832 3.2370255 -1.5290475
7.3912191 0.81208402 -1.9923891
8.4343834 0.92371458 -1.9588737
9.7893391 1.070382 -1.914196
11.648953 1.2695951 -1.8559387
15.172126 1.6482199 -1.8738631
20.0791 2.1777422 -1.7669954
29.185669 3.1551173 -1.538468
7.3959293 0.7864812 -1.9929067
8.4278669 0.8932423 -1.9566242
9.8008261 1.0370281 -1.9157225
11.641527 1.2276844 -1.8540615
15.169889 1.5944226 -1.8728882
20.080635 2.1070206 -1.7664726
29.279932 3.0619521 -1.5428642
7.3967085 0.76046026 -1.9923891
8.4173632 0.8624295 -1.9534749
9.7985268 1.0022086 -1.9145776
11.641812 1.1866368 -1.8534358
15.155613 1.5394571 -1.8704509
20.07201 2.0352998 -1.7650781
31.476295 3.180609 -1.6580033
7.3993177 0.73463786 -1.9923891
8.4143591 0.83393288 -1.9521253
9.7902431 0.96684361 -1.9122878
11.639785 1.1474456 -1.8524972
15.148782 1.4880222 -1.8689884
20.059162 1.9632864 -1.7633349
31.55028 3.0824182 -1.6613528
7.3959436 0.70954478 -1.9908361
8.4230385 0.80511427 -1.9534749
9.7973032 0.93474758 -1.913051
11.651586 1.1075528 -1.8537486
15.169695 1.4366274 -1.8709384
20.057631 1.8960016 -1.7626377
30.03371 2.8284411 -1.5809648
7.3906813 0.68301076 -1.9887657
8.4257975 0.77570522 -1.9534749
9.7926874 0.89982176 -1.9115247
11.653414 1.0666968 -1.8534358
15.178569 1.3840374 -1.8714259
20.024443 1.8223685 -1.7591513
37.430927 3.3933113 -1.9697162
7.3930202 0.65720981 -1.9887657
8.4245729 0.74594301 -1.9525751
9.7938137 0.86546278 -1.9111431
11.633453 1.0239308 -1.8496813
15.195174 1.3320822 -1.8728882
20.022743 1.7517591 -1.7584542
30.478525 2.6558144 -1.6033645
7.3971944 0.63156176 -1.9892832
8.4057655 0.71472085 -1.9476261
9.790906 0.83076996 -1.9099981
11.636956 0.98332423 -1.8496813
15.187862 1.27803 -1.8714259
20.004908 1.6798689 -1.7563624
7.4051294 0.60621482 -1.9908361
8.3984985 0.6845811 -1.9453768
9.7917891 0.79642659 -1.9096165
11.644256 0.94301355 -1.8503071
15.196187 1.2253289 -1.8719133
44.663139 3.5935214 7.0968065
20.006678 1.6097038 -1.7560139
36.361458 2.9128082 -1.9117279
7.3994966 0.57975686 -1.9887657
8.4105501 0.65602016 -1.9476261
9.7788506 0.76103008 -1.9065636
11.645507 0.90221161 -1.8499942
15.192457 1.1716623 -1.8709384
19.99231 1.5383238 -1.7542707
36.494873 2.7953126 -1.9182175
7.3956962 0.5534898 -1.9872128
8.4166756 0.62694514 -1.9485261
9.7794905 0.72674286 -1.9061821
11.644646 0.86126119 -1.8493685
15.212291 1.1197928 -1.8728882
19.983648 1.4675109 -1.7530506
44.754372 3.263006 -0.78326398
7.3937292 0.52739722 -1.9861774
44.859177 3.1998203 0.78500926
8.4128771 0.59861773 -1.9471762
9.7839251 0.69274235 -1.9065636
11.639555 0.82208705 -1.8481169
15.207999 1.0687871 -1.8719133
19.968777 1.396351 -1.7513075
37.2104 2.5954936 -1.9548528
7.391583 0.50261164 -1.9851422
8.4032497 0.56845623 -1.9444768
9.7802925 0.65989465 -1.9054186
11.63447 0.78092021 -1.8468655
15.207677 1.0154262 -1.8714259
19.969318 1.3298635 -1.7509588
33.56427 2.2234569 -1.7628845
7.3971477 0.4770574 -1.9861774
8.4050884 0.54058862 -1.9444768
9.7746992 0.62525183 -1.9038923
11.642911 0.74270868 -1.8478041
15.187187 0.96348506 -1.8685009
19.959921 1.2592756 -1.7497386
30.162888 1.8976979 -1.5838956
7.3929825 0.45088238 -1.9846245
8.4070129 0.50977665 -1.9444768
9.7709427 0.59077448 -1.9027474
11.645554 0.70003277 -1.8478041
15.178727 0.90710038 -1.8670385
19.948286 1.1886415 -1.7483442
30.361042 1.7984627 -1.5939441
7.386797 0.42462787 -1.982554
8.4029045 0.48009586 -1.9431273
9.7631454 0.55610311 -1.9008393
11.638066 0.65882224 -1.8462398
15.179818 0.85400283 -1.8667948
19.938387 1.118225 -1.7471241
30.387077 1.6935754 -1.5949907
7.3998089 0.39946336 -1.9856598
8.3967457 0.45034161 -1.9413276
9.7689486 0.52222699 -1.9016025
11.632404 0.61777157 -1.8449883
15.188654 0.80132717 -1.8675259
19.93421 1.0481963 -1.7464267
30.703951 1.6037676 -1.6113197
7.3934407 0.37324274 -1.9835893
8.4079981 0.42151845 -1.9435771
9.7648287 0.48783195 -1.9004576
11.636462 0.57726347 -1.8453012
15.179462 0.74771386 -1.8660635
19.941729 0.97879672 -1.7467754
28.71846 1.3995492 -1.506857
0.67926252 0.03191429 -0.18220863
8.3880053 0.39116964 -1.9386281
9.7547064 0.45319417 -1.8981681
11.636434 0.53655261 -1.8449883
15.170082 0.69417471 -1.8646011
19.925121 0.90828753 -1.7450323
0.66392952 0.02887205 -0.17806751
8.4029484 0.36247331 -1.9417773
9.7542658 0.41906351 -1.8977863
11.644156 0.49617979 -1.8459269
15.17638 0.64138782 -1.8650886
19.936132 0.83906013 -1.7457294
29.242374 1.220511 -1.5338624
0.66402626 0.026554152 -0.17806751
8.4177933 0.33368143 -1.944927
9.7478228 0.38469997 -1.8962599
11.626079 0.45476148 -1.8427982
15.158689 0.58763546 -1.8626511
19.915049 0.76854718 -1.7436377
29.414106 1.1248319 -1.5426549
0.68921232 0.025151825 -0.18479681
0.67966223 0.024684858 -0.15701583
9.7628412 0.35116279 -1.8989313
11.625549 0.41613716 -1.8424854
15.160555 0.53736722 -1.8626511
19.909645 0.6987412 -1.7429405
29.701113 1.0371888 -1.5575182
0.6931535 0.022994084 -0.18583208
0.6700058 0.021992406 -0.15476632
9.7541399 0.31846306 -1.8970231
11.624957 0.37548703 -1.8421725
15.166307 0.48457372 -1.8631387
19.897913 0.63227558 -1.7417203
29.820333 0.93715119 -1.5635892
0.7028845 0.020861421 -0.18842028
0.66423476 0.019482257 -0.15341662
9.7453804 0.28413343 -1.895115
11.630146 0.3350167 -1.8427982
15.148063 0.43106177 -1.8607013
19.898006 0.56275344 -1.7415459
28.545677 0.79735434 -1.4965991
0.70488423 0.018458152 -0.1889379
0.65650636 0.01696202 -0.15161701
9.7325745 0.24975885 -1.8924437
11.627295 0.29432037 -1.8421725
15.145508 0.37808669 -1.8602139
19.877943 0.49275407 -1.7396286
28.508354 0.69672298 -1.4945058
0.68176812 0.015471731 -0.18272625
0.66435462 0.014844234 -0.15341662
9.7373133 0.21587341 -1.8932071
11.634175 0.25385791 -1.843111
15.142765 0.32512742 -1.8597264
19.84767 0.42268005 -1.7368397
30.251839 0.63368547 -1.5857797
0.66443449 0.012757859 -0.17806751
0.66245401 0.012488521 -0.15296671
9.7399693 0.18191656 -1.8935887
11.609316 0.21277738 -1.8390437
15.139837 0.27219912 -1.8592389
19.841053 0.35325846 -1.7361423
0.66447496 0.010438295 -0.17806751
0.65859479 0.010231269 -0.15206692
9.7425079 0.14794384 -1.8939703
11.613907 0.17433995 -1.8396695
15.136687 0.22192973 -1.8587514
19.820253 0.28367922 -1.7342249
29.1371 0.41194135 -1.5271634
0.67223281 0.0083309682 -0.18013807
0.65083206 0.0078382352 -0.1502673
9.7370558 0.11557239 -1.8928252
11.61642 0.13381845 -1.8399823
15.143324 0.16916119 -1.8594825
19.819094 0.21793339 -1.7340508
29.238214 0.31130067 -1.5323969
0.66646248 0.0059326198 -0.17858516
0.65280312 0.00569678 -0.1507172
9.7256212 0.08148174 -1.8905357
11.610875 0.095244452 -1.8390437
15.139833 0.11891504 -1.8589951
19.811762 0.14869486 -1.7333534
29.438808 0.21581152 -1.5428642
0.65875113 0.0036791759 -0.1765146
0.65671647 0.0034388949 -0.15161701
9.7278013 0.049237218 -1.8909173
11.609161 0.054713029 -1.8387309
15.14214 0.066071063 -1.8592389
19.786247 0.08289133 -1.7310873
29.738968 0.1141921 -1.5585649
0.66841918 0.0013997346 -0.17910279
0.65672427 0.0012609439 -0.15161701
9.7259502 0.015274879 -1.8905357
11.613229 0.016217666 -1.8393567
15.146247 0.015857514 -1.8597264
19.768486 0.013806146 -1.7295187
29.950893 0.01567607 -1.5696601
0.66069245 -0.0010378141 -0.17703223
0.64113438 -0.0012308911 -0.14801779
9.7220144 -0.020361766 -1.8897724
11.601354 -0.028347513 -1.8374794
15.134287 -0.042263009 -1.858264
19.776371 -0.058677848 -1.7302158
30.174425 -0.10006255 -1.5813835
0.66454846 -0.0033636107 -0.17806751
0.65281838 -0.0035321221 -0.1507172
9.7140312 -0.054253951 -1.8882459
11.599209 -0.068831898 -1.8371665
15.134047 -0.095091261 -1.858264
19.764091 -0.12763271 -1.7291698
28.408356 -0.19337252 -1.4888535
0.64521486 -0.0055180849 -0.17289113
0.65475082 -0.0058282083 -0.15116711
9.7078934 -0.088108458 -1.8871011
11.608774 -0.10941336 -1.8387309
15.135607 -0.14793777 -1.8585076
19.751574 -0.19650257 -1.728124
30.620354 -0.31532246 -1.6048299
0.64325994 -0.0077470075 -0.17237349
0.65667504 -0.0081378268 -0.15161701
9.7016382 -0.12192079 -1.8859563
11.59647 -0.14978179 -1.8368537
15.131027 -0.20071732 -1.8580201
19.718891 -0.26501885 -1.7253351
28.693892 -0.39565933 -1.5039263
0.64516062 -0.010022364 -0.17289113
0.65274566 -0.010368102 -0.1507172
9.7031155 -0.1558166 -1.8863379
11.586001 -0.19009809 -1.8352894
15.13222 -0.2535665 -1.858264
19.709877 -0.33371407 -1.7246377
26.695375 -0.46130884 -1.3992543
0.66057372 -0.012568329 -0.17703223
0.64101529 -0.012420041 -0.14801779
9.7025127 -0.18968585 -1.8863379
11.589217 -0.23061822 -1.8359152
15.11338 -0.30602455 -1.8560703
19.69664 -0.40226826 -1.7235919
27.037056 -0.56162465 -1.4172579
0.66632515 -0.01477197 -0.17858516
0.6468178 -0.014565401 -0.1493675
9.6959419 -0.22172485 -1.8851929
11.58251 -0.2668891 -1.8349764
15.106391 -0.35336378 -1.8553391
19.695198 -0.46758246 -1.7235919
27.059006 -0.65185696 -1.4185139
0.66240406 -0.017114282 -0.17754988
0.65844852 -0.017242083 -0.15206692
9.6832886 -0.25694829 -1.8829032
11.573556 -0.30912834 -1.833725
15.104994 -0.40872914 -1.8553391
19.69136 -0.53971124 -1.7234175
27.343929 -0.759009 -1.4335867
0.67006093 -0.019769892 -0.17962041
0.65838093 -0.0196553 -0.15206692
9.6842957 -0.29080662 -1.8832849
11.576294 -0.35166547 -1.8343508
15.107363 -0.4642109 -1.8558265
19.683384 -0.60825902 -1.7228948
27.508801 -0.85969293 -1.4423791
0.66805702 -0.022045009 -0.17910279
0.65441674 -0.021709241 -0.15116711
9.6851835 -0.32467517 -1.8836665
11.563219 -0.38965273 -1.8324735
15.105741 -0.51430613 -1.8558265
19.669191 -0.67655218 -1.7218487
27.589632 -0.95380896 -1.4467753
0.67763323 -0.024610827 -0.18169098
0.64849466 -0.023779219 -0.14981739
9.6762056 -0.35650146 -1.88214
11.571659 -0.43038061 -1.8340379
15.086 -0.56636167 -1.8536329
19.668833 -0.74184895 -1.7220231
27.81765 -1.0589219 -1.4589173
0.69105536 -0.02751404 -0.18531445
0.65035945 -0.026007444 -0.1502673
9.6650934 -0.38987985 -1.8802319
11.580036 -0.46915105 -1.8356022
15.064204 -0.61557502 -1.8511955
19.361546 -0.7979489 -1.6953535
28.296907 -1.1711498 -1.4842478
0.69868064 -0.030138537 -0.18738499
0.65805233 -0.028616115 -0.15206692
9.6617861 -0.42184269 -1.8798503
11.572407 -0.50930953 -1.8346636
15.069897 -0.66850704 -1.8521705
19.135866 -0.85222155 -1.6758306
28.508135 -1.2795897 -1.4955524
0.67348433 -0.0314073 -0.1806557
0.66573477 -0.031278804 -0.15386651
9.6582947 -0.45547363 -1.8794687
11.562666 -0.54932666 -1.8334121
15.069454 -0.72120166 -1.8524141
19.053171 -0.91518945 -1.6688582
28.687029 -1.3879738 -1.5051823
0.6714412 -0.033661284 -0.18013807
0.64810514 -0.032718185 -0.14981739
9.6507635 -0.48888659 -1.8783239
11.552788 -0.58928204 -1.8321607
15.056932 -0.77329034 -1.8511955
19.025982 -0.9804613 -1.6667664
26.300486 -1.3645416 -1.380204
0.66360325 -0.035590995 -0.17806751
19.373203 -1.0390419 0.3386465
0.64410132 -0.034657791 -0.1489176
9.6587992 -0.52310187 -1.8802319
19.329548 -1.0502343 1.6936104
11.540908 -0.62705338 -1.8305963
19.258568 -1.0497491 2.3681653
15.044374 -0.82267469 -1.8499768
18.980667 -1.0445693 -1.6631058
19.272163 -1.0639851 -1.0115495
19.27079 -1.067283 4.4558306
19.311275 -1.072906 -0.33759937
19.168993 -1.068357 5.1442876
0.67505395 -0.038450539 -0.18117334
19.309566 -1.1032388 0.33759937
0.64008528 -0.036682915 -0.14801779
19.245771 -1.106334 1.0102934
9.6452522 -0.55445272 -1.8779422
19.325958 -1.1143277 1.6936104
11.546537 -0.66779113 -1.8318479
19.187407 -1.1130589 2.3598781
15.035466 -0.87483841 -1.8492455
19.28834 -1.1256697 3.0601714
18.983067 -1.1078539 -1.6636288
19.308208 -1.1335921 -1.0136429
19.193024 -1.1301911 4.4387341
19.267487 -1.1379504 -0.33690125
19.134293 -1.1334351 5.1360054
0.66527396 -0.040223736 -0.17858516
0.6516242 -0.039626736 -0.1507172
9.6256218 -0.58704197 -1.8745077
11.546107 -0.70821291 -1.8321607
15.040246 -0.9278056 -1.8502206
18.979084 -1.1741104 -1.6636288
0.66127366 -0.042299081 -0.17754988
0.65731609 -0.042276319 -0.15206692
9.6313505 -0.62114346 -1.8760341
11.541595 -0.74838424 -1.8318479
15.028993 -0.97978365 -1.8492455
18.988569 -1.2445767 -1.664849
28.060877 -1.8441256 -1.4737808
0.66111422 -0.044722483 -0.17754988
0.64938742 -0.044043068 -0.1502673
9.6211748 -0.6559059 -1.8745077
11.528919 -0.79000598 -1.8302835
15.0235 -1.0321027 -1.8490019
19.023863 -1.3135964 -1.6683351
27.882578 -1.9350696 -1.4647789
0.67058897 -0.0477155 -0.18013807
0.64144653 -0.045866925 -0.14846769
9.6188259 -0.68948603 -1.8745077
11.51624 -0.82953501 -1.8287191
15.023576 -1.0874462 -1.8494893
19.130442 -1.3880684 -1.6780967
28.027042 -2.0434239 -1.472734
0.66849178 -0.049912162 -0.17962041
67.298401 -5.0247569 1.1779677
0.63934761 -0.047848355 -0.14801779
9.610487 -0.72261614 -1.8733629
11.513426 -0.86771971 -1.8287191
15.002072 -1.1359113 -1.8472956
19.471159 -1.4811326 -1.7084268
26.164053 -1.9948411 -1.3751796
0.6586926 -0.051377553 -0.17703223
0.6586045 -0.051601987 -0.15251681
9.6002092 -0.75386691 -1.8718363
11.520173 -0.90868038 -1.8302835
14.998016 -1.1882713 -1.8472956
19.440048 -1.5470359 -1.7061608
28.928314 -2.3071916 -1.5208831
0.6584999 -0.053791441 -0.17703223
0.65453589 -0.053582631 -0.15161701
9.6012945 -0.78937012 -1.8725995
11.499046 -0.94943482 -1.8274676
14.991799 -1.2404534 -1.847052
19.438503 -1.6152151 -1.7065095
29.154526 -2.4328017 -1.5332344
0.66215783 -0.056417715 -0.17806751
0.66404331 -0.056811847 -0.15386651
9.5926132 -0.82237703 -1.8714547
11.495663 -0.98956823 -1.8274676
15.000996 -1.2965893 -1.8487581
19.428776 -1.6827143 -1.7061608
26.977028 -2.3459513 -1.4191419
0.65810829 -0.058387291 -0.17703223
0.65026373 -0.057805702 -0.1507172
9.5994616 -0.85672909 -1.8733629
11.492318 -1.0276837 -1.8274676
14.97091 -1.3440198 -1.8455895
19.410877 -1.7494502 -1.705115
27.148125 -2.4515643 -1.4285624
0.6733008 -0.061986156 -0.18117334
0.65587938 -0.060613181 -0.15206692
9.588748 -0.8878333 -1.8718363
11.484727 -1.0674276 -1.8268418
14.948339 -1.3946102 -1.8433958
19.397036 -1.8130677 -1.7044177
27.298483 -2.5612392 -1.4369361
0.66346496 -0.063416958 -0.17858516
0.6498552 -0.062230531 -0.1507172
9.5719109 -0.91998404 -1.8691651
11.502753 -1.1075891 -1.8302835
14.953512 -1.4451278 -1.8446145
19.390589 -1.8807651 -1.7044177
25.894339 -2.5161495 -1.3634565
0.66517341 -0.065806925 -0.17910279
0.65351236 -0.064883642 -0.15161701
9.5649004 -0.95133203 -1.8684019
11.475229 -1.1453801 -1.826529
14.932575 -1.4957336 -1.8426646
19.368383 -1.9434646 -1.7030232
28.055431 -2.8250334 -1.4777583
0.66878325 -0.068522222 -0.18013807
65.009712 -6.6607671 1.1406893
8.2427444 -0.84598911 -1.9129838
9.5615215 -0.98471397 -1.8684019
11.469403 -1.1832243 -1.8262162
14.945303 -1.5470831 -1.8448583
19.361483 -2.0110607 -1.7030232
26.460651 -2.753114 -1.39423
0.65701342 -0.069634631 -0.17703223
8.2376499 -0.87598848 -1.912534
9.5619297 -1.0184997 -1.8691651
11.472845 -1.2260935 -1.8274676
14.929663 -1.6007917 -1.8436395
19.350019 -2.0815845 -1.7026746
26.736332 -2.8808904 -1.4093028
7.2588577 -0.7962563 -1.9566721
8.2209826 -0.90324825 -1.9093846
9.5522795 -1.0528939 -1.8680203
11.458458 -1.2670498 -1.8259033
14.916093 -1.6520222 -1.8426646
19.324814 -2.147136 -1.7011058
26.999521 -3.0093963 -1.4237474
7.2541146 -0.82137233 -1.9561545
8.219553 -0.93359345 -1.9098345
9.5368414 -1.0848997 -1.8657305
11.463778 -1.3081594 -1.8274676
14.9198 -1.7078102 -1.8438834
19.31918 -2.2148061 -1.70128
27.417437 -3.15291 -1.4463567
7.2435274 -0.84579259 -1.9540838
63.574333 -7.4232755 1.1172333
8.2202826 -0.96129799 -1.9107343
9.5407953 -1.1190977 -1.8672569
11.441721 -1.3440932 -1.8246518
14.898281 -1.7554183 -1.8419334
19.289566 -2.2796569 -1.6993626
27.795578 -3.2898235 -1.4668723
7.2349286 -0.86911708 -1.9525309
8.2072029 -0.98882073 -1.9084847
9.5350828 -1.1504947 -1.8668753
11.429114 -1.3830749 -1.8234003
14.897976 -1.8081299 -1.8426646
19.293768 -2.3450532 -1.7004085
27.775995 -3.3858612 -1.4664536
7.2280169 -0.89389223 -1.9514956
8.1920986 -1.0160241 -1.9057853
9.5232143 -1.1828034 -1.8653487
11.416377 -1.4219849 -1.8221489
14.899451 -1.8611066 -1.8436395
19.271626 -2.4106553 -1.6991882
28.259436 -3.544945 -1.4926215
7.2267685 -0.91936105 -1.9520133
8.1981668 -1.0458467 -1.9080348
9.5112381 -1.2150433 -1.8638223
11.425058 -1.4635837 -1.8243389
14.861362 -1.9090575 -1.8397398
19.257166 -2.477149 -1.6986655
29.023384 -3.7437274 -1.533653
7.2177687 -0.94383013 -1.9504604
64.021645 -8.3831434 1.1270415
8.1906013 -1.0739504 -1.9071351
9.4991541 -1.2472142 -1.8622959
11.414005 -1.5026823 -1.8234003
14.858543 -1.9614412 -1.8402272
19.230623 -2.5420041 -1.6970965
28.970541 -3.8397665 -1.5315596
7.2106018 -0.96850479 -1.9494252
64.180267 -8.6318922 1.1303575
8.188735 -1.1027945 -1.9075849
9.5005798 -1.2811518 -1.8634408
11.40869 -1.5425155 -1.8234003
14.855893 -2.011236 -1.8407148
19.197943 -2.6059003 -1.6950049
29.689198 -4.0405221 -1.5702882
7.2092638 -0.99267411 -1.9499428
64.327606 -8.8689823 1.1334641
8.1773109 -1.1288774 -1.9057853
9.4982224 -1.3129188 -1.8638223
11.401555 -1.5800681 -1.8230875
14.849141 -2.0604885 -1.8407148
19.197088 -2.6706464 -1.6957021
30.083126 -4.195787 -1.5918506
7.2001934 -1.0157659 -1.9483899
8.1696625 -1.1554424 -1.9048855
9.4918737 -1.3441335 -1.8634408
11.406032 -1.619257 -1.8246518
14.818275 -2.1089525 -1.8377899
19.180239 -2.7331672 -1.6950049
30.282583 -4.3260283 -1.6031551
7.1966038 -1.0408931 -1.9483899
64.645714 -9.3616629 1.1401657
8.1675081 -1.1842324 -1.9053354
9.4774094 -1.3758481 -1.8615327
11.392491 -1.6579236 -1.8234003
14.799037 -2.1589458 -1.8363274
19.150866 -2.7972229 -1.6932617
28.461061 -4.1672401 -1.507485
7.1910157 -1.0657243 -1.9478723
8.1691084 -1.2135943 -1.9066852
9.4645348 -1.4094185 -1.8600061
11.390542 -1.6982632 -1.8240261
14.783558 -2.2094173 -1.8353524
19.124722 -2.8650336 -1.6918672
26.423079 -3.9678164 -1.400301
7.175602 -1.0903323 -1.9447664
8.1588249 -1.2426471 -1.9053354
9.4670696 -1.4452832 -1.8615327
11.388146 -1.740597 -1.8246518
14.771436 -2.2629857 -1.834865
19.094398 -2.9320862 -1.690124
26.467583 -4.0737505 -1.4034412
7.1715574 -1.1166248 -1.9447664
8.1522903 -1.2722417 -1.9048855
9.4561462 -1.4774114 -1.8603877
11.362175 -1.7792691 -1.8215232
14.771292 -2.3157637 -1.83584
19.087986 -2.9993389 -1.6904728
7.1773539 -1.1419181 -1.9473546
