# .PCD v0.7 - Point Cloud Data file format
VERSION 0.7
FIELDS x y z
SIZE 4 4 4
TYPE F F F
COUNT 1 1 1
WIDTH 1558
HEIGHT 1
VIEWPOINT 0 0 0 1 0 0 0
POINTS 1558
DATA ascii
1.9561785 8.2302999 -2.2667372
2.321862 9.7537184 -2.3147464
2.8340678 11.896186 -2.3770986
3.4544933 14.478044 -2.3574677
4.6803331 19.585306 -2.4724853
6.6881161 27.965536 -2.5156634
9.6154604 40.143837 -2.1633594
3.3547266 13.994983 3.3225269
1.984898 8.2234211 -2.2667372
2.357271 9.751236 -2.3160961
2.8741941 11.880495 -2.3759537
3.5031531 14.458217 -2.3562162
4.7411761 19.537985 -2.4685855
6.7603102 27.837465 -2.5062504
9.6969919 39.869385 -2.1503799
3.3934224 13.941531 3.3126292
2.0108304 8.205184 -2.2636313
2.388664 9.7395802 -2.3151963
2.9128354 11.858952 -2.3736639
3.5520194 14.450358 -2.356842
4.809258 19.535648 -2.4702919
6.8526783 27.794353 -2.5045075
9.8128757 39.771084 -2.146821
3.4293554 13.888579 3.3027315
2.0370951 8.1947222 -2.2625961
2.4226449 9.7311831 -2.3151963
2.9530916 11.853037 -2.3744273
3.5990882 14.424456 -2.3546519
4.8904195 19.57074 -2.4768727
6.9535208 27.785727 -2.5059018
9.934186 39.66684 -2.1430531
3.468817 13.840608 3.2941833
2.0661728 8.1834545 -2.2615609
2.4532592 9.7094412 -2.312047
2.9950736 11.836424 -2.3732824
3.6485393 14.397762 -2.3524618
4.941134 19.484282 -2.4680982
7.0367308 27.707216 -2.5010211
10.05882 39.548866 -2.1386569
3.5118279 13.797585 3.2869847
2.094728 8.1761923 -2.2615609
2.4864058 9.6909466 -2.3097975
3.0349107 11.82019 -2.3721375
3.7007391 14.392592 -2.3537133
5.0159841 19.479496 -2.4698043
7.1204715 27.63232 -2.496489
10.109984 39.177013 -2.1204438
3.5468102 13.734299 3.2748375
2.1217954 8.1632204 -2.2600081
2.5170593 9.6769886 -2.3084476
3.07516 11.805726 -2.3713744
3.745461 14.368771 -2.351836
5.0765386 19.447392 -2.4678545
7.2118506 27.58802 -2.494746
10.27522 39.27853 -2.1277709
3.5888844 13.709265 3.2716882
2.1522977 8.1692171 -2.2636313
2.5488372 9.6606073 -2.3066483
3.1087828 11.774583 -2.3671765
3.7925684 14.34415 -2.3499587
5.1433706 19.425713 -2.4673669
7.2856474 27.47794 -2.4870763
10.366157 39.068684 -2.1183503
3.6297188 13.670282 3.2653894
2.1787338 8.1482096 -2.2600081
2.5810258 9.6460056 -2.3052983
3.1534398 11.768799 -2.3683214
3.84409 14.326338 -2.349333
5.211668 19.409557 -2.4676106
7.3701315 27.410013 -2.4832413
10.528003 39.099842 -2.1221185
3.6838517 13.671941 3.2689886
2.2026117 8.1237736 -2.2553494
2.6143274 9.6289568 -2.3034987
3.1929545 11.752036 -2.3671765
3.8894117 14.295677 -2.3465173
5.285377 19.399904 -2.4688294
7.459002 27.34053 -2.4794066
10.625472 38.920288 -2.1143727
2.2364731 8.1305475 -2.2594905
2.6427443 9.6009846 -2.2989998
3.2354877 11.738361 -2.3667948
3.9423041 14.283231 -2.3468301
5.3530684 19.381334 -2.4688294
7.5469646 27.287443 -2.4769661
12.613535 45.544762 -2.476747
2.2665362 8.1342516 -2.2625961
2.6778159 9.597332 -2.3003495
3.2717595 11.718113 -2.364887
3.9848578 14.252958 -2.3440144
5.4185448 19.354887 -2.4678545
7.6255813 27.220058 -2.4731314
10.828958 38.602856 -2.1011841
2.290185 8.1095591 -2.2579374
2.7085695 9.5846472 -2.2994497
3.309428 11.695289 -2.3625972
4.0364099 14.254869 -2.3465173
5.4805284 19.329172 -2.4668794
7.7020569 27.128105 -2.4672046
2.3101616 8.0777731 -2.2512081
2.7430811 9.5788822 -2.3003495
3.3471141 11.680473 -2.3618338
4.0768785 14.208414 -2.3411984
5.544683 19.298475 -2.4654171
7.7831736 27.071777 -2.4644158
2.3437231 8.0882149 -2.2563846
2.7716112 9.5524054 -2.2963004
3.3867745 11.664948 -2.3610706
4.1088014 14.133398 -2.3311865
5.6192212 19.303782 -2.4685855
7.8675756 27.010017 -2.4612782
2.3719401 8.0799847 -2.2563846
2.7983463 9.520236 -2.2909014
3.4274697 11.653055 -2.3610706
4.1581149 14.118969 -2.3311865
5.6826444 19.27072 -2.4668794
7.9539237 26.955635 -2.4588377
2.3984768 8.066102 -2.2548318
2.8315592 9.5104103 -2.2909014
3.4670019 11.637257 -2.3603075
4.2243109 14.161158 -2.3405728
5.7470417 19.241253 -2.4656608
8.0399752 26.900982 -2.4563975
2.4249451 8.0521317 -2.2532787
2.8619289 9.4911394 -2.2886522
3.4990988 11.596889 -2.354583
4.2954297 14.218183 -2.3524618
5.8101444 19.207777 -2.4639544
8.1176739 26.819359 -2.4515169
11.364181 37.498032 -2.0534537
2.4457138 8.0195951 -2.2465494
2.8945227 9.4853249 -2.2895517
3.5378351 11.578973 -2.3534384
4.3725843 14.302092 -2.368731
5.8726411 19.184608 -2.4634671
8.2007389 26.756567 -2.448379
2.4711573 8.0077486 -2.2455142
2.9264627 9.4714403 -2.2886522
3.5791154 11.576555 -2.3553464
4.451685 14.381094 -2.3843744
5.9413409 19.169682 -2.4641984
8.2763672 26.670692 -2.4431498
15.931442 51.244465 -0.93670553
2.501065 8.0004807 -2.2460318
2.9560182 9.4500074 -2.2859526
3.6197586 11.557739 -2.3542016
4.5362911 14.466461 -2.4012692
5.9975185 19.114733 -2.459811
8.3550901 26.59602 -2.4389663
2.5272307 7.986177 -2.2444789
2.9888661 9.4335356 -2.2846029
3.6547439 11.528189 -2.3507669
4.6190228 14.552214 -2.4181643
6.0693455 19.098295 -2.4605422
8.4357834 26.528725 -2.4354801
2.5539079 7.973628 -2.2434435
3.0201352 9.4235716 -2.2846029
3.6919665 11.506014 -2.3488588
4.6781278 14.570668 -2.4237959
6.1296115 19.068613 -2.4593234
8.5149126 26.45739 -2.4316452
2.5737886 7.9448991 -2.2377496
3.0518115 9.4092646 -2.2837031
3.7288818 11.489976 -2.3480957
4.7143145 14.509161 -2.4162872
6.1985803 19.054657 -2.4602985
8.5865755 26.379745 -2.4271131
4.230947 12.959934 3.652972
2.6015079 7.9358654 -2.2377496
3.0809846 9.3874474 -2.2810037
3.7671318 11.471292 -2.3469508
4.7513485 14.451335 -2.4094038
6.2867837 19.098896 -2.4688294
8.6611357 26.296633 -2.4222324
4.2652564 12.912067 3.6436548
2.6273706 7.9212341 -2.2361965
3.1143506 9.3784838 -2.2814536
3.8034396 11.446893 -2.344661
4.7961559 14.41779 -2.4065881
6.3389826 19.033518 -2.4632235
8.7377653 26.220871 -2.4180489
4.3054004 12.882442 3.6395135
2.6543851 7.9101853 -2.2356789
3.1439683 9.3583193 -2.2792041
3.8402383 11.424245 -2.3427529
4.8414178 14.385983 -2.4040852
6.398416 18.99058 -2.4605422
8.8114262 26.137346 -2.4131682
16.653788 49.286469 -0.90808362
4.3367333 12.827073 3.6281254
2.6801195 7.8953819 -2.2341261
3.1772408 9.3491325 -2.279654
3.8775678 11.403335 -2.3412266
4.8858724 14.352166 -2.4012692
6.4717164 18.988798 -2.4632235
8.8935995 26.08003 -2.4107277
4.3729949 12.794341 3.6229494
2.7026432 7.8713627 -2.229985
3.2050629 9.3293295 -2.2774045
3.914793 11.382305 -2.3397002
4.9321575 14.332149 -2.4006436
6.5372229 18.974743 -2.4641984
8.9547052 25.962183 -2.4027095
4.4075332 12.749784 3.6146669
2.730633 7.8678312 -2.2315381
3.2344089 9.3088818 -2.2751548
3.9460728 11.350715 -2.3358839
4.981504 14.312981 -2.4003308
6.5936246 18.923687 -2.4605422
9.0354977 25.917297 -2.401315
4.4328823 12.679614 3.599138
2.7580822 7.8582506 -2.2315381
3.2623591 9.2846651 -2.2720056
3.9882777 11.344279 -2.3374104
5.0104456 14.235879 -2.3903189
6.6424937 18.851875 -2.454205
9.1100063 25.840504 -2.3971314
15.260802 43.239014 -2.4030578
4.4294691 12.52928 3.5608325
2.7842016 7.8449349 -2.2305026
3.2901845 9.2603655 -2.2688563
4.0232468 11.317341 -2.334739
5.046865 14.18108 -2.3840616
6.692265 18.783697 -2.4483552
9.1787491 25.748489 -2.3915534
4.4146514 12.350022 3.5142453
2.8115668 7.8351688 -2.2305026
3.3198514 9.2414885 -2.2670567
4.0547557 11.281058 -2.3301597
5.0903201 14.146648 -2.3812459
6.7443419 18.722868 -2.4434805
9.2510147 25.667555 -2.3870213
4.4354119 12.272761 3.4966455
2.835608 7.816227 -2.2279146
16.912733 46.593895 0.86522055
3.3554192 9.2390022 -2.2693062
4.0947828 11.26868 -2.3305411
5.1335893 14.112086 -2.3784299
6.7974162 18.665642 -2.4390934
9.3187237 25.575209 -2.3814435
4.4643064 12.219099 3.485775
2.861542 7.8026528 -2.2268791
3.3836212 9.2162561 -2.2666068
4.1313829 11.246947 -2.3290148
5.1800957 14.086663 -2.3771784
6.8570485 18.626894 -2.4371433
9.3914204 25.49765 -2.37726
4.4921999 12.163576 3.4743869
2.8874202 7.7889934 -2.2258439
3.407629 9.1824675 -2.2612078
4.1672029 11.223253 -2.3271067
5.2257843 14.059241 -2.3756142
6.9033403 18.55261 -2.4305623
9.463665 25.419905 -2.3730764
4.5238242 12.11886 3.4661047
2.9166267 7.7842937 -2.2273967
3.4369264 9.1632175 -2.2594085
4.2022185 11.197609 -2.3248169
5.2671905 14.020571 -2.3721726
6.909359 18.372328 -2.4100883
9.5298939 25.327042 -2.3674986
4.5640516 12.097575 3.4645519
2.9410398 7.7668414 -2.2253263
3.4716518 9.1584539 -2.2612078
4.2322216 11.159012 -2.3198559
5.3287239 14.03534 -2.3778043
6.9522958 18.292427 -2.4027762
9.6026707 25.252649 -2.3636637
4.5924911 12.045466 3.4541991
2.9646828 7.7475052 -2.222738
18.794415 49.089138 0.91750795
3.5008137 9.1389999 -2.2594085
4.2739611 11.151502 -2.3213823
5.3748503 14.009277 -2.3765526
6.9961743 18.216164 -2.3959515
9.6764622 25.181784 -2.3601775
4.6199274 11.991505 3.4433289
2.9903138 7.7335062 -2.2217028
18.915138 48.892693 0.91506457
3.5305855 9.1212711 -2.2580585
4.3071866 11.12187 -2.3183293
5.4194388 13.979379 -2.3746755
7.0396047 18.139814 -2.3891268
9.7426758 25.092129 -2.354948
4.6512427 11.948301 3.435564
3.0186985 7.7266192 -2.222738
3.5553036 9.090744 -2.2535596
4.3474169 11.110422 -2.3190925
5.4667592 13.956698 -2.3740497
7.0898433 18.081863 -2.3847394
9.8156471 25.020874 -2.3514619
4.6893845 11.923006 3.432976
3.0456529 7.7160339 -2.222738
3.5891609 9.0837164 -2.2549093
4.376071 11.069618 -2.31375
5.5052648 13.911817 -2.3696697
7.1353674 18.012712 -2.3788898
9.8970594 24.971638 -2.3500674
4.7224121 11.885021 3.4267642
3.0618336 7.6784396 -2.2149734
3.6222904 9.0747528 -2.2558093
4.4103136 11.043337 -2.3114603
5.5508628 13.885177 -2.368418
7.1967297 17.984009 -2.3784022
9.9589834 24.874056 -2.3441408
4.761714 11.863084 3.4252112
3.0915031 7.6748729 -2.2170439
3.6503036 9.0530157 -2.2535596
4.4466348 11.022412 -2.3103154
5.5889397 13.840075 -2.364038
7.2445798 17.92197 -2.3735275
10.003911 24.735706 -2.3343792
4.8030977 11.846389 3.4252112
3.1102645 7.6443524 -2.21135
3.6789443 9.0329981 -2.25176
4.4813709 10.997735 -2.3084073
5.624537 13.789386 -2.3587191
7.3010964 17.881868 -2.3715777
10.071364 24.654522 -2.3300216
3.1413372 7.6441693 -2.2144558
3.7037792 9.0038824 -2.2477109
4.516747 10.974761 -2.3068807
5.6636043 13.747752 -2.3549647
7.3498549 17.82324 -2.3671904
10.154319 24.611851 -2.3293245
3.1687438 7.6349416 -2.2149734
3.7351885 8.9908981 -2.2477109
4.5542784 10.957114 -2.3064992
5.7085271 13.720601 -2.3537133
7.3998013 17.76816 -2.3632903
10.249371 24.598324 -2.3314161
3.1916399 7.6149259 -2.2123852
3.7650356 8.9742136 -2.2468112
4.5826178 10.917619 -2.3015382
5.7525635 13.691483 -2.3521488
7.4525476 17.720259 -2.3603656
10.301179 24.48159 -2.3237462
3.215945 7.5984011 -2.2108324
3.7924972 8.9562931 -2.2454615
4.6176376 10.894324 -2.3000119
5.788671 13.650514 -2.3483946
7.501967 17.673521 -2.3574409
10.368636 24.403313 -2.3197372
3.2426405 7.591248 -2.2118676
3.8222077 8.9394169 -2.2445617
4.6498761 10.869927 -2.2981036
5.8292909 13.613879 -2.3455787
7.5573535 17.632631 -2.3554909
10.436947 24.339495 -2.3169482
17.545101 40.876678 -2.3312531
3.2675877 7.5763364 -2.2108324
3.8479843 8.9134951 -2.2414124
4.6885672 10.855433 -2.2984853
5.8744287 13.588007 -2.34464
7.6062398 17.576998 -2.3515911
10.509186 24.273659 -2.3141594
21.116695 48.681255 -0.92623413
5.2028699 11.988674 3.5018218
3.2940161 7.5648832 -2.2108324
3.8712869 8.8821449 -2.2369132
4.7185864 10.821004 -2.2946692
5.9162893 13.554747 -2.3424499
7.6468897 17.50304 -2.3452539
10.5731 24.189363 -2.3096273
17.785215 40.650726 -2.3253915
21.308971 48.658531 -0.92721146
3.3180683 7.5480332 -2.2092795
3.902266 8.8685789 -2.2369132
4.7484179 10.786499 -2.290853
5.9516172 13.506899 -2.3377569
7.7143455 17.490774 -2.3472037
10.64138 24.115856 -2.3061409
17.689754 40.051262 -2.2946179
5.1317143 11.602242 3.3993294
3.3342109 7.5134487 -2.2025502
3.9324059 8.8531227 -2.2364633
4.7852468 10.768063 -2.2904713
5.9890924 13.464383 -2.3340025
7.7624388 17.434721 -2.3433039
10.715762 24.056725 -2.3040493
5.3006477 11.883118 3.0039964
3.3635747 7.5088177 -2.2046208
3.9585042 8.8286724 -2.2337639
4.8203921 10.745921 -2.2893264
6.0263491 13.42177 -2.3302481
7.8199911 17.400278 -2.342329
10.783336 23.982826 -2.3005631
18.050903 40.108925 -2.3050852
5.3268914 11.830782 2.9954484
5.2729139 11.699989 3.4386699
3.3953347 7.5093536 -2.2082443
3.9852829 8.8059225 -2.2315145
4.8530121 10.7183 -2.2870369
6.0625668 13.37726 -2.3261807
7.8741255 17.35841 -2.340379
10.848878 23.905123 -2.2967281
18.232111 40.136585 -2.3103187
5.3568716 11.787276 2.9891498
5.3041267 11.660409 3.4324584
3.4135082 7.4798799 -2.2030678
4.013566 8.7866411 -2.2301648
4.8855028 10.690578 -2.2847471
6.1059356 13.348832 -2.3249292
7.9181399 17.294724 -2.3355043
10.923954 23.848995 -2.2949848
18.288874 39.891132 -2.2998514
5.3866067 11.743707 2.9828508
5.3464117 11.645333 3.4334936
3.437171 7.462656 -2.201515
4.0401359 8.7637281 -2.2279153
4.9153881 10.657416 -2.2813125
6.1500144 13.322056 -2.3239908
7.9701309 17.248959 -2.3330669
10.983733 23.760077 -2.2901042
5.4103794 11.687695 2.973403
5.3910818 11.635367 3.4360819
3.4599442 7.443604 -2.1994443
4.0690522 8.7460403 -2.2270155
4.9509053 10.636632 -2.2805493
6.1847911 13.275442 -2.3196106
8.0219069 17.203039 -2.3306296
11.046371 23.678265 -2.2859206
5.4354758 11.63519 2.9648547
5.4292121 11.611226 3.4345288
3.4842675 7.4279823 -2.1984091
4.0921059 8.7159071 -2.2229664
4.9846678 10.612176 -2.2790227
6.2268944 13.244832 -2.3180461
8.0819054 17.174934 -2.3306296
11.122175 23.625139 -2.2845263
18.620445 39.516773 -2.2893844
5.4635849 11.58971 2.9581063
5.4647613 11.581722 3.4314229
3.5101695 7.4157772 -2.1984091
4.1133289 8.6821957 -2.2180173
5.0183101 10.587619 -2.2774963
6.2671666 13.210522 -2.3158562
8.1281881 17.117926 -2.3267298
11.185772 23.546576 -2.2806914
5.4906163 11.54241 2.9509079
5.495193 11.541643 3.4252112
3.5335383 7.3982487 -2.1968563
4.1419282 8.6642704 -2.2171178
5.0526991 10.564723 -2.2763515
6.306416 13.174313 -2.3133533
8.1776028 17.067965 -2.3238049
11.252391 23.47505 -2.2775538
5.5173793 11.495065 2.9437094
5.5212293 11.492787 3.4164116
3.5576625 7.3823891 -2.1958208
4.173842 8.6532679 -2.2180173
5.075892 10.518731 -2.2702456
6.3480725 13.143323 -2.3117888
8.2353916 17.035746 -2.3233173
11.323862 23.414103 -2.2754622
3.5791881 7.3612375 -2.1932325
4.20402 8.6386471 -2.2180173
5.1151595 10.506244 -2.2713904
6.3939099 13.121085 -2.3117888
8.2861109 16.989052 -2.3208799
11.381055 23.324299 -2.2705815
3.5989079 7.3365569 -2.1896091
4.229208 8.6176605 -2.2162178
5.1448803 10.474226 -2.2683375
6.4225721 13.069672 -2.3064699
8.3353977 16.947227 -2.3189301
11.443048 23.245098 -2.2667465
3.6274986 7.333241 -2.1921973
4.2514839 8.5871277 -2.2121687
5.1787119 10.455348 -2.2679558
6.469913 13.050712 -2.3070958
8.3786192 16.886021 -2.3145428
11.502346 23.171335 -2.2632601
3.6504855 7.3153501 -2.1906445
4.2796936 8.5687466 -2.2112689
5.2072763 10.421404 -2.2645214
6.5074801 13.012145 -2.3042798
8.4197445 16.821167 -2.3096681
11.568892 23.102537 -2.2604713
3.6699202 7.2904825 -2.187021
4.3095765 8.5537567 -2.2112689
5.2330213 10.382125 -2.2599418
6.5484099 12.980533 -2.3027155
8.4712496 16.7775 -2.307718
11.642274 23.047789 -2.2590768
3.6883471 7.2638474 -2.1828799
4.3394103 8.53866 -2.2112689
5.269228 10.363796 -2.2599418
6.5820374 12.934707 -2.2986481
8.524353 16.737217 -2.3062558
11.691907 22.946648 -2.2531502
3.7128019 7.2492085 -2.1823623
4.3629613 8.5113249 -2.2081196
5.3098536 10.354072 -2.2618499
6.6163158 12.890569 -2.294894
8.5754719 16.69323 -2.3043058
11.764633 22.891527 -2.2517557
3.7398591 7.2396369 -2.1833978
4.3836966 8.4787312 -2.2036204
5.3333387 10.311059 -2.2565072
6.6512856 12.848097 -2.2914524
8.6263809 16.649096 -2.3023558
11.829803 22.822014 -2.2489667
22.023829 42.415745 -0.83422506
3.7651026 7.2265406 -2.1833978
4.4123678 8.4616489 -2.2031708
5.3638439 10.28194 -2.2542176
6.6869535 12.807288 -2.2883236
8.6734161 16.597767 -2.2994308
11.892786 22.748796 -2.2458291
22.114206 42.22879 -0.83206093
3.7867122 7.2065125 -2.1813271
4.4400616 8.4427462 -2.202271
5.3923917 10.249253 -2.2511647
6.7306957 12.782122 -2.2880106
8.7257519 16.556852 -2.2979686
11.960966 22.685999 -2.2437375
22.201723 42.03817 -0.82982707
3.8109384 7.1915436 -2.1808095
4.4695072 8.4271946 -2.202271
5.428133 10.230369 -2.2511647
6.7623053 12.734122 -2.2836306
8.7741652 16.508768 -2.295531
12.028864 22.622997 -2.2416456
22.327658 41.921581 -0.82905912
3.8305573 7.1679735 -2.1777036
4.4924612 8.3995142 -2.1991215
5.4582558 10.200971 -2.2488749
6.8029819 12.703477 -2.2823792
8.8223648 16.460543 -2.2930937
12.098339 22.563313 -2.2399025
20.250263 37.734959 -2.2443755
3.8555567 7.1545572 -2.1777036
4.5143514 8.3700609 -2.1955223
5.4947653 10.183581 -2.2492564
6.8285089 12.644891 -2.2761219
8.8778772 16.426155 -2.2926061
12.159965 22.489401 -2.2367649
20.370445 37.642967 -2.2431192
22.534071 41.606426 -0.82591766
3.8805058 7.1410565 -2.1777036
4.5454049 8.3576746 -2.1964221
5.5227709 10.150545 -2.2462037
6.8735538 12.622711 -2.2764347
8.9237671 16.374147 -2.2896814
12.219324 22.411827 -2.2332788
22.752001 41.6609 -0.82857043
3.902622 7.122385 -2.1761506
4.5736122 8.3400497 -2.1959722
5.5506129 10.117436 -2.2431507
6.9080629 12.581326 -2.2733059
8.9751377 16.332457 -2.288219
12.284039 22.344597 -2.2308383
22.993736 41.756405 -0.83206093
3.9227884 7.100266 -2.1735625
22.888096 41.410446 0.82588279
4.5998697 8.3189163 -2.1946225
5.5858936 10.098001 -2.2431507
6.9462008 12.546765 -2.2714286
9.0263176 16.290611 -2.2867565
12.338785 22.259756 -2.2266548
22.960756 41.354191 -0.82563847
3.9400291 7.0730257 -2.1694212
22.991613 41.256939 0.82441682
4.6260314 8.2977037 -2.1932726
5.623023 10.081868 -2.2439139
6.9726219 12.491397 -2.2657971
9.0792513 16.252075 -2.2857816
12.402798 22.192204 -2.2242146
23.046982 41.187088 -0.82382339
3.9684811 7.0659671 -2.1714919
23.075432 41.086308 0.82253188
4.6449294 8.2670279 -2.1892235
5.6456742 10.039931 -2.2389529
7.0072241 12.456156 -2.263607
9.1292048 16.214956 -2.2848067
12.462588 22.117529 -2.221077
20.862848 37.010483 -2.2265811
23.167038 41.064579 -0.82298571
3.9928372 7.0544519 -2.1720095
23.187172 40.949833 0.82141495
4.6708794 8.245676 -2.1878741
5.6731272 10.010906 -2.2366631
7.0389709 12.411 -2.2598526
9.1798658 16.172634 -2.283344
12.520119 22.048363 -2.2182879
23.2418 40.879749 -0.82082158
4.0107374 7.0287247 -2.168386
23.271294 40.782406 0.81959993
4.7001319 8.2335253 -2.1887739
5.6846619 9.9501324 -2.2275043
7.0722499 12.373867 -2.2573495
9.2255583 16.128323 -2.2813942
12.581175 21.976854 -2.2154989
20.967369 36.611118 -2.2110896
23.340616 40.722034 -0.81928581
4.0297256 7.0022573 -2.1647625
23.381832 40.613029 0.8179943
4.7249012 8.203598 -2.1856244
5.7230506 9.9326334 -2.2282674
7.1118131 12.332932 -2.2548466
9.2675772 16.05839 -2.2765195
12.653664 21.916792 -2.2141044
23.439665 40.549652 -0.81754053
4.0531759 6.9864769 -2.1642449
23.474226 40.462624 0.81652832
4.7501259 8.1845131 -2.1847248
5.7498012 9.8990135 -2.2252147
7.1457272 12.297322 -2.2526565
9.3048077 16.000114 -2.2726197
12.716055 21.848385 -2.2116642
23.552868 40.419212 -0.81656319
4.0733981 6.9679928 -2.1626918
23.558802 40.283772 0.81457365
4.7717719 8.1561108 -2.1815755
5.7756567 9.8680305 -2.2225432
7.181612 12.260378 -2.2504666
9.3445435 15.940135 -2.2687199
12.760212 21.757978 -2.2067833
21.139618 36.017204 -2.1886899
22.107752 37.636593 -0.76190227
4.1025987 6.9620543 -2.1652801
23.66474 40.142719 0.81338686
4.7962551 8.1326885 -2.1797757
5.8000889 9.8309002 -2.2187271
7.2203512 12.228429 -2.2492149
9.3940649 15.897166 -2.2672575
12.813783 21.675568 -2.2029486
21.228588 35.88131 -2.1849217
22.181953 37.462833 -0.7599476
4.1179953 6.9327435 -2.1606214
23.757738 39.980789 0.81178129
4.8206291 8.1091976 -2.1779761
5.8273435 9.7987843 -2.2160556
7.256928 12.192967 -2.2473378
9.4373131 15.843811 -2.2643328
12.910779 21.666653 -2.206609
21.35372 35.806984 -2.1849217
22.257236 37.292454 -0.75806272
4.139195 6.9133534 -2.1590683
23.850908 39.820423 0.81021053
4.8519139 8.0973349 -2.1793258
5.8594961 9.7750139 -2.2152925
7.2852216 12.143845 -2.2429576
9.4802961 15.790352 -2.2614079
12.947354 21.556547 -2.1999853
22.343971 37.14257 -0.75659674
4.160306 6.8939018 -2.1575158
23.933943 39.644485 0.80832565
4.8821659 8.083684 -2.1802256
5.8874874 9.7444201 -2.2130029
7.317349 12.101435 -2.2398291
9.5250845 15.740177 -2.2589705
13.011178 21.49247 -2.1980679
22.438011 37.020382 -0.75561941
4.1833425 6.8776855 -2.1569982
24.032036 39.510223 0.80720872
4.8988147 8.0508032 -2.1757267
5.9194264 9.7204552 -2.2122397
7.3461313 12.058547 -2.2363873
9.5565567 15.674606 -2.2540956
13.065361 21.412907 -2.1945815
22.537901 36.894054 -0.75464207
4.2000723 6.8538914 -2.1538923
24.119629 39.344261 0.80553329
4.9197531 8.0220261 -2.1725771
5.9423909 9.685709 -2.2088051
7.37784 12.015999 -2.2332587
9.5883541 15.603942 -2.2487333
13.113339 21.332125 -2.1907468
22.664463 36.811749 -0.75457227
4.2270122 6.8441229 -2.1554451
24.212687 39.188377 0.80406725
4.9497771 8.0081186 -2.1734772
5.9647999 9.6465435 -2.2046072
7.4135051 11.980092 -2.2313814
9.6343985 15.556878 -2.2467835
13.183531 21.279442 -2.1900494
22.936201 36.963501 -0.75931931
4.2386279 6.8096437 -2.1492336
24.313402 39.045895 0.80288053
4.973577 7.9841762 -2.1716774
5.9953237 9.6206627 -2.2034624
7.4416866 11.932353 -2.2273142
9.6865454 15.519781 -2.2462959
13.233988 21.187048 -2.1855175
21.881083 35.017033 -2.1639874
24.375572 38.978817 -0.80246168
4.2645836 6.7957006 -2.1497512
24.400627 38.882893 0.8012749
4.9931297 7.9535613 -2.1680782
6.0274096 9.5936394 -2.2023175
7.4685502 11.878239 -2.2223082
9.7279663 15.465718 -2.243371
13.303622 21.133976 -2.1848202
17.454967 27.707291 -1.7162007
17.474705 27.72789 -0.57208991
4.2810531 6.7693424 -2.1461277
24.508795 38.739105 0.80015796
5.0191202 7.9302692 -2.1667287
6.0556116 9.5642452 -2.2004094
7.511023 11.853766 -2.2226212
9.7654619 15.399777 -2.2389839
13.364501 21.067223 -2.1827283
17.600826 27.723755 -1.7210158
24.567766 38.682777 -0.79987866
4.3046551 6.7543583 -2.1461277
24.587656 38.580059 0.79855227
5.0422449 7.9086523 -2.1653788
6.0836782 9.5347748 -2.1985013
7.543911 11.818806 -2.2207439
9.7993746 15.340543 -2.2350838
13.407914 20.973434 -2.1778476
22.085155 34.533596 -2.1482863
24.659538 38.529408 -0.79848254
4.3218098 6.7319188 -2.1435394
24.687609 38.440151 0.79743534
5.0645561 7.8828044 -2.1631293
6.1057129 9.4996824 -2.1950669
7.5808487 11.785752 -2.2194924
9.844264 15.292893 -2.233134
13.4666 20.912107 -2.1761045
24.744038 38.365788 -0.79687691
4.3400373 6.7086802 -2.1409512
24.771673 38.276508 0.79582971
5.0930986 7.866715 -2.1635792
6.1441703 9.4865522 -2.196975
7.6101213 11.740986 -2.2160509
18.092089 27.90202 4.0831108
9.8867884 15.241781 -2.2306967
13.528666 20.848265 -2.1743615
22.271318 34.294815 -2.1430531
24.827654 38.202068 -0.79527122
4.3613205 6.6902523 -2.1399159
24.85269 38.109413 0.79415429
5.1162705 7.8423591 -2.1617796
6.1729574 9.4584694 -2.1954484
7.6359386 11.691195 -2.2116706
18.165495 27.802132 4.0777488
9.9307585 15.198941 -2.2292342
13.586099 20.777565 -2.1719213
22.390888 34.216873 -2.1430531
24.919163 38.065979 -0.79415429
4.3856015 6.6789832 -2.1409512
24.945988 37.976654 0.79310721
5.1336856 7.8123221 -2.1581805
6.1999774 9.4313822 -2.1939218
7.6670647 11.654258 -2.2094805
18.231405 27.701937 4.0718989
9.9658318 15.142708 -2.2258217
13.637385 20.705778 -2.169132
24.99021 37.89967 -0.79240906
4.403461 6.6579585 -2.1388805
25.016624 37.810329 0.79136193
5.1498861 7.7806282 -2.1541312
6.2214575 9.3960428 -2.1904874
7.7002163 11.620533 -2.2079163
10.005462 15.08798 -2.2228971
13.686153 20.630552 -2.1659944
25.094698 37.770561 -0.79153645
4.4245343 6.6393313 -2.1378453
25.117386 37.676189 0.79038459
5.1770124 7.7626057 -2.1541312
6.2498622 9.3677349 -2.1889608
7.7330518 11.582085 -2.2057261
10.044829 15.033156 -2.2199721
13.749223 20.569403 -2.1645999
22.611729 33.802536 -2.1313298
25.181885 37.616272 -0.79014027
4.4358382 6.6062026 -2.1321514
25.20414 37.521893 0.78898841
5.2051659 7.7461033 -2.1545811
6.2792411 9.3409719 -2.1878161
7.7602053 11.535351 -2.2019718
10.088372 14.984831 -2.2180221
13.800034 20.482517 -2.1607652
22.602322 33.534599 -2.1193972
25.261606 37.451874 -0.78853464
4.4632688 6.5947013 -2.1337044
25.283413 37.357498 0.78738278
5.2267098 7.71982 -2.1523318
6.3090272 9.3113947 -2.1862895
7.7935615 11.493753 -2.1994689
10.122791 14.923237 -2.2141225
13.855777 20.411146 -2.1583247
22.707148 33.425083 -2.1177223
25.358458 37.313854 -0.78748751
4.4819064 6.5726972 -2.1316338
25.386353 37.215027 0.78633565
5.247282 7.689342 -2.1491826
6.3414941 9.2893133 -2.1862895
7.8236084 11.451797 -2.1966531
10.159491 14.859818 -2.2102227
13.928249 20.356932 -2.1579762
22.798841 33.309368 -2.1154196
25.458897 37.167862 -0.78637052
4.5048738 6.5546331 -2.1311162
5.2751894 7.6725883 -2.1496322
6.3643689 9.249836 -2.1824734
7.8588052 11.413284 -2.1947758
10.193285 14.798103 -2.2063227
13.974342 20.272104 -2.1541414
22.879971 33.166386 -2.1116514
23.814352 34.507992 -0.73184919
4.5221891 6.5333037 -2.1290457
25.593178 36.961262 0.78472996
5.3019414 7.6541262 -2.1496322
6.3894186 9.2206106 -2.1805654
7.8966069 11.387163 -2.1947758
10.235822 14.74939 -2.2043729
14.027851 20.206017 -2.1520495
22.989807 33.090343 -2.1116514
23.928648 34.428837 -0.73184919
4.5383325 6.5079741 -2.1259398
25.642393 36.771221 0.78249609
5.3239512 7.6317048 -2.1482825
6.4226828 9.1998644 -2.1809468
7.9445076 11.375488 -2.1975915
10.268753 14.692587 -2.2009606
14.082317 20.134064 -2.1496093
23.099405 33.013927 -2.1116514
25.709511 36.716999 -0.78239137
4.5576696 6.4897251 -2.1249044
25.729219 36.622578 0.78123957
5.3460784 7.6066961 -2.1464829
6.4463835 9.1688786 -2.1786571
7.9728031 11.33153 -2.194463
10.310838 14.643665 -2.1990106
14.132949 20.064447 -2.1471689
25.787348 36.569431 -0.78106499
4.585876 6.4816599 -2.1274927
25.804333 36.471748 0.77984333
5.3600106 7.5730238 -2.141984
6.4726777 9.1383085 -2.1767492
7.9829249 11.266347 -2.186954
10.353603 14.601294 -2.1977918
14.17752 19.979252 -2.1433339
23.709749 33.399883 -2.1466119
25.887039 36.440075 -0.7802273
4.6017385 6.4585514 -2.1249044
25.908264 36.348888 0.77914524
5.3886771 7.5574389 -2.1428835
6.4965529 9.1044731 -2.174078
8.0290871 11.248061 -2.1888313
10.382582 14.534375 -2.1931608
14.249496 19.93288 -2.1436825
23.827351 33.306267 -2.1461933
25.974504 36.294205 -0.77904052
4.6265054 6.443213 -2.1254222
25.982994 36.172474 0.77740002
5.4117904 7.5313087 -2.1410842
6.5218573 9.0694418 -2.1714065
8.0552597 11.197713 -2.1847639
10.42419 14.48011 -2.1907237
14.301501 19.851418 -2.1405451
23.914217 33.170113 -2.1430531
26.062914 36.137123 -0.77771413
4.6421628 6.4152546 -2.1217985
26.080212 36.028408 0.77635282
5.4427881 7.5161562 -2.1424339
6.5500188 9.041852 -2.1702616
8.0927725 11.163315 -2.1838255
10.460684 14.424355 -2.1877987
14.361342 19.788479 -2.1391504
26.148928 35.990929 -0.7765274
4.6622725 6.3982654 -2.1212809
26.159504 35.886776 0.77516603
5.4607959 7.4886179 -2.1397343
6.5799651 9.0200834 -2.1702616
8.1146088 11.115672 -2.1797581
10.49909 14.376763 -2.1858487
14.401027 19.705355 -2.1353157
26.216192 35.832996 -0.77499157
4.6823235 6.3812108 -2.1207633
26.247593 35.757923 0.77425855
5.4694462 7.4484806 -2.1334357
6.6051936 8.9918823 -2.168735
8.147912 11.083929 -2.1788194
10.52804 14.311241 -2.1814616
14.46865 19.660702 -2.1356642
23.538153 31.961405 -2.0802498
26.312632 35.702641 -0.77415383
4.7022743 6.3617196 -2.1197281
26.381754 35.678951 0.7745378
5.4954147 7.4293423 -2.1334357
6.6283689 8.9577227 -2.1660638
8.175971 11.041134 -2.1760037
10.559017 14.248887 -2.1775615
14.520576 19.587673 -2.133224
4.7186794 6.3375225 -2.1171398
26.417751 35.467964 0.77195483
5.5166597 7.403863 -2.1316364
6.6431651 8.9124985 -2.1607211
8.2156458 11.014109 -2.1763165
10.599195 14.199214 -2.1756117
14.569792 19.51132 -2.1304348
23.760712 31.796299 -2.0802498
26.471407 35.39798 -0.77153605
4.7361374 6.3148289 -2.1150692
26.498205 35.317944 0.77069831
5.548317 7.392354 -2.1338856
6.6648073 8.8766937 -2.1576684
8.2338667 10.958517 -2.1709976
10.639154 14.149433 -2.1736617
14.630622 19.450794 -2.129389
23.871565 31.713158 -2.0802498
26.563534 35.263824 -0.77062845
4.758153 6.2982569 -2.1150692
26.577896 35.167816 0.76944166
5.5658631 7.3620596 -2.1307364
6.7028604 8.8627682 -2.1599579
8.261344 10.915531 -2.1681819
10.676486 14.096393 -2.1712244
14.715278 19.421833 -2.1318295
26.647797 35.119904 -0.76951152
4.780108 6.2816105 -2.1150692
26.670221 35.035046 0.76856905
5.5808969 7.3286366 -2.1266873
6.7242365 8.8268251 -2.1569052
8.2982006 10.885055 -2.1678691
10.70155 14.027472 -2.1663496
14.756396 19.335499 -2.1279945
23.84992 31.228289 -2.0593154
26.72893 34.972652 -0.76832473
4.7996569 6.2618194 -2.1140339
26.748545 34.884613 0.76731253
5.6017017 7.3029237 -2.1248875
6.7442532 8.789279 -2.1534703
8.3289194 10.846626 -2.1659918
10.733512 13.967997 -2.1629374
14.788296 19.230747 -2.1224165
26.819141 34.83794 -0.76741725
4.8131275 6.2319546 -2.1098928
26.843269 34.756203 0.76654458
5.6319275 7.2894931 -2.1266873
6.7680135 8.7536297 -2.150799
8.3601599 10.805089 -2.1638019
10.770059 13.914744 -2.1604998
14.826048 19.141209 -2.1182332
23.977333 30.933693 -2.051151
4.8301086 6.2090154 -2.1078224
26.940992 34.619713 0.76570684
5.6609998 7.2718787 -2.1275871
6.7961178 8.7268515 -2.1500359
8.3893232 10.764935 -2.1616118
10.806363 13.861406 -2.1580625
14.868258 19.057926 -2.114747
24.198236 30.994648 -2.060781
7.0767317 9.0578032 3.0799468
4.8506708 6.1929646 -2.1078224
27.021126 34.486103 0.76472956
5.6658502 7.2285256 -2.1203887
6.8165388 8.6934547 -2.1473646
8.4152231 10.724621 -2.1591089
10.842462 13.813004 -2.1561127
14.926455 19.002245 -2.1140497
24.8193 31.573715 -2.104743
4.8735723 6.1798806 -2.1088579
25.956234 32.901711 0.73150015
5.6801305 7.1974602 -2.1167896
25.980631 32.909008 2.1973777
6.8428946 8.6677217 -2.1466014
8.4495134 10.695107 -2.1587958
10.878298 13.759502 -2.1536753
14.981969 18.94327 -2.1130037
24.904024 31.466181 -2.1030684
26.025572 32.859646 -0.73167473
4.8951159 6.1628299 -2.1088579
5.707643 7.1806402 -2.1176891
6.867002 8.6360979 -2.1446934
8.4831038 10.660913 -2.1578572
10.90648 13.696598 -2.1497755
15.025655 18.86281 -2.1098664
25.013718 31.379051 -2.1030684
7.1768565 8.9935131 3.0830526
4.9081497 6.1351461 -2.1052344
27.259848 34.062401 0.7615183
5.7338939 7.1621938 -2.118139
6.8799224 8.5906229 -2.1393507
8.5190334 10.629694 -2.1575444
10.949252 13.652252 -2.1488004
15.066473 18.779158 -2.10638
25.12059 31.288437 -2.1028588
27.313932 33.99596 -0.76120412
7.1815791 8.9352808 3.0716646
4.9174128 6.1029344 -2.1000578
27.338434 33.91721 0.76040137
5.7527447 7.1345477 -2.1158895
6.916029 8.5741968 -2.1412585
8.5436802 10.584518 -2.1544156
10.991856 13.607769 -2.1478255
15.116911 18.707853 -2.1042881
25.20957 31.175703 -2.1011841
27.37958 33.83514 -0.75973815
7.2017875 8.8966417 3.0670059
4.9472089 6.096231 -2.1036813
27.411278 33.765686 0.75914478
5.7702413 7.1053486 -2.1131902
6.9298253 8.5301924 -2.1362975
8.5668669 10.537772 -2.1509743
11.026764 13.553915 -2.1453881
15.161997 18.630249 -2.1014993
25.285456 31.047245 -2.0984626
27.492474 33.733154 -0.75959855
7.23036 8.868453 3.0659707
4.961122 6.0699515 -2.1005754
27.496061 33.629555 0.7582373
5.7863741 7.0746026 -2.1100409
6.9608006 8.5074711 -2.1366794
8.5985947 10.501687 -2.1497226
11.051353 13.487712 -2.1410007
15.211784 18.558716 -2.0994074
27.546629 33.559689 -0.75785333
7.2490063 8.8282337 3.0607941
27.596243 33.500774 0.75760901
5.8135023 7.0548515 -2.1104908
6.9757037 8.4622068 -2.1317184
8.6194277 10.448771 -2.1453426
11.093129 13.437933 -2.1395385
15.272777 18.487885 -2.0980129
27.6516 33.436935 -0.75736469
7.2813215 8.8016005 3.0607941
4.995616 6.0215268 -2.0964344
5.834362 7.0300169 -2.1091411
6.9978905 8.426012 -2.1290469
8.6488256 10.406476 -2.1431525
11.137433 13.396071 -2.1390507
15.311729 18.403833 -2.0945268
25.397568 30.504747 -2.0802498
7.2996292 8.7612934 3.0556178
5.0215611 6.0099812 -2.098505
5.8600879 7.0085869 -2.1091411
7.0234828 8.3970127 -2.127902
8.6863689 10.377734 -2.1434653
11.173936 13.344935 -2.1371009
15.365644 18.338051 -2.0931323
7.3165097 8.7194786 3.0499237
5.0389771 5.9903374 -2.0974696
27.834826 33.078362 0.75460714
5.8782749 6.9831529 -2.1073413
7.0512915 8.3736744 -2.127902
8.7016392 10.326216 -2.1387722
11.22069 13.31084 -2.1375885
15.408382 18.265676 -2.0906918
27.888641 33.02515 -0.75450248
7.3291798 8.6759815 3.0431943
5.0463257 5.9588561 -2.0922933
28.166679 33.248314 0.76061076
5.8976221 6.9591599 -2.1059918
7.0726681 8.3427629 -2.125994
8.7320032 10.292782 -2.1378336
11.241387 13.241328 -2.1327136
15.472053 18.211777 -2.0906918
25.511045 30.017813 -2.064549
28.293951 33.268806 -0.76232111
7.3556633 8.6459322 3.0416417
5.0718951 5.9447279 -2.0938461
28.607052 33.530098 0.76933694
5.9142857 6.9296379 -2.1032922
7.0879002 8.2988682 -2.1214147
8.7581167 10.247196 -2.1350179
11.261738 13.171835 -2.1278389
15.504438 18.121326 -2.0865083
25.652077 29.96051 -2.0670612
28.670069 33.473598 -0.76930207
7.3807683 8.614337 3.039571
5.1014266 5.9372454 -2.0974696
5.9409175 6.9093914 -2.1037421
7.1129832 8.2696123 -2.1202698
8.7770824 10.197097 -2.1309505
11.294396 13.112418 -2.1249142
15.549397 18.045961 -2.0840681
25.273918 29.311131 -2.0283325
28.988512 33.595398 -0.7745378
7.3984079 8.5711393 3.0338769
5.1158023 5.912097 -2.0948815
5.9637218 6.8871388 -2.1032922
7.1379523 8.2402792 -2.1191249
8.8126211 10.166398 -2.1309505
11.329688 13.060918 -2.1229641
15.570505 17.943424 -2.0784903
25.632742 29.518309 -2.0488482
29.499111 33.946823 -0.78500926
7.4168739 8.5321407 3.0292182
5.1326022 5.8898325 -2.0933285
5.9826045 6.8604031 -2.1014926
7.1628022 8.2108727 -2.11798
8.832469 10.117715 -2.1271961
11.367372 13.012323 -2.1215017
15.625182 17.879957 -2.0774441
25.956503 29.681242 -2.066433
29.906458 34.18594 -0.7928279
5.1505799 5.8689771 -2.0922933
5.9950352 6.8288121 -2.0978935
7.1862359 8.1799212 -2.1164536
8.864666 10.086888 -2.1268833
11.39211 12.953684 -2.1180894
15.674335 17.810354 -2.0757012
26.007286 29.541033 -2.062665
30.369297 34.471462 -0.80190319
6.0188341 6.8078451 -2.0978935
7.2094183 8.1516361 -2.1153085
8.8893461 10.044051 -2.1243804
11.416204 12.89006 -2.1141896
15.702045 17.716766 -2.0711691
26.134102 29.476961 -2.064549
5.1708746 5.8097897 -2.0840108
6.0412674 6.785337 -2.0974436
7.2222672 8.1061029 -2.1103475
8.9234734 10.008451 -2.1237545
11.450548 12.838286 -2.1122396
15.755836 17.652924 -2.0701232
26.204704 29.339273 -2.0616181
31.28071 35.010166 -0.8194952
5.2065978 5.8089662 -2.0902226
6.0686975 6.7660518 -2.0983434
7.2478986 8.077919 -2.1095843
8.9530735 9.971364 -2.122503
11.486922 12.784411 -2.1102896
15.793384 17.571152 -2.0669856
26.320322 29.262466 -2.062665
5.2216673 5.7850194 -2.0881522
6.0688977 6.721303 -2.0906951
7.2734218 8.049654 -2.1088212
8.9635696 9.9167089 -2.1171842
11.529251 12.746252 -2.1102896
15.838582 17.498186 -2.0648937
26.414528 29.172068 -2.0624554
5.2369208 5.7633858 -2.0865991
6.0949464 6.7029595 -2.0915949
7.2987514 8.0240393 -2.1084394
8.9848375 9.8707495 -2.1140556
11.552283 12.682451 -2.1063898
15.877731 17.424952 -2.0624535
26.526957 29.091497 -2.063293
5.2622247 5.7507701 -2.0886698
6.1209373 6.6845188 -2.0924947
7.3081493 7.9782467 -2.1030967
9.0219059 9.8422403 -2.1146812
11.584409 12.628881 -2.1041963
15.933066 17.363554 -2.0617564
26.631052 29.001659 -2.0635023
5.2809596 5.7309446 -2.0881522
6.133667 6.6516495 -2.0888956
7.3306322 7.9469147 -2.1015704
9.0481701 9.8019762 -2.1128042
11.629766 12.589827 -2.10444
15.961132 17.272709 -2.0575728
26.74568 28.923193 -2.064549
5.2917323 5.7025642 -2.0845287
6.1648068 6.6387653 -2.0915949
7.3489728 7.9112101 -2.0988991
9.0715733 9.7587557 -2.1103013
11.660117 12.534622 -2.1020026
16.005045 17.199379 -2.055481
26.879135 28.86474 -2.0670612
5.3168831 5.6897016 -2.0865991
7.3725214 7.8812051 -2.0977542
9.0920801 9.7126122 -2.1071725
11.707876 12.498188 -2.1027339
16.054081 17.131779 -2.0540864
26.99613 28.788216 -2.0683172
5.3393579 5.6739225 -2.0876343
6.1898131 6.5753675 -2.0848465
7.4013314 7.8568535 -2.0981357
9.1120434 9.6694717 -2.1043568
11.731556 12.440516 -2.0995653
16.078236 17.037956 -2.0495543
27.107908 28.715956 -2.0695734
5.3568144 5.6547842 -2.0871167
6.2140698 6.5551333 -2.0852964
7.4205885 7.8251443 -2.0962276
9.1335058 9.6247063 -2.1015408
11.762605 12.386538 -2.0973716
16.143089 16.987516 -2.0502515
27.232744 28.647217 -2.0714574
5.3761721 5.6337137 -2.0865991
6.2382584 6.5348134 -2.085746
7.4356647 7.7836938 -2.0924115
9.1687193 9.5911684 -2.1015408
11.804401 12.343965 -2.0971277
16.180252 16.908028 -2.0474627
27.384521 28.596266 -2.0750163
36.46983 38.07029 -0.92023045
5.3824177 5.6009851 -2.081423
6.2500124 6.4992619 -2.0816972
7.454617 7.7492065 -2.0901217
9.1939249 9.5505638 -2.0996637
11.835791 12.286323 -2.0946906
16.20616 16.811321 -2.0429306
27.53409 28.55225 -2.0787845
5.4069452 5.5853791 -2.0829759
7.482975 7.7218261 -2.0901217
9.2151136 9.5026236 -2.096535
11.875843 12.24208 -2.094203
16.245319 16.734629 -2.0404902
27.67473 28.488394 -2.081506
37.588638 38.680271 -0.94145262
5.4285088 5.5725179 -2.0845287
6.2791409 6.4412227 -2.0767481
7.4989715 7.6898475 -2.0878322
9.2380209 9.4665585 -2.0949705
11.902504 12.188433 -2.0917656
16.303379 16.689215 -2.0411875
27.747349 28.384165 -2.0802498
38.222923 39.072865 -0.95408815
5.4479237 5.5535388 -2.0845287
6.3070488 6.4248261 -2.0785477
7.5271382 7.6650295 -2.0882137
9.2696276 9.4328432 -2.0946577
11.922704 12.124166 -2.0878656
16.361542 16.6322 -2.0411875
38.704315 39.289639 -0.96267474
5.4686351 5.535861 -2.0850463
6.3362856 6.4097013 -2.0807972
7.5386658 7.6233516 -2.0840161
9.2941589 9.3920059 -2.0927804
11.959369 12.076828 -2.0868907
16.388727 16.538158 -2.037004
5.480711 5.5075655 -2.0819407
6.3558731 6.3847809 -2.0798974
7.5416141 7.5706353 -2.0771468
9.3089981 9.3382902 -2.0884004
11.99444 12.027984 -2.0856721
16.446362 16.480846 -2.037004
5.4999037 5.4883995 -2.0819407
6.38199 6.3641958 -2.0807972
9.3275414 9.2918005 -2.0852716
12.031413 11.976934 -2.0844533
16.503786 16.42334 -2.037004
5.5176554 5.4678087 -2.081423
6.391983 6.332027 -2.077198
7.5887022 7.5122752 -2.0756204
9.3414564 9.2441416 -2.0815172
12.045655 11.911851 -2.0800662
16.518503 16.323612 -2.0317745
27.45701 27.123594 -2.0226803
41.318279 40.788059 -1.0134264
5.5440187 5.4576116 -2.0845287
6.4168267 6.312408 -2.0780978
7.6191735 7.4925737 -2.0771468
9.3764839 9.2142477 -2.0821428
12.078662 11.861388 -2.0786037
16.544106 16.240835 -2.0282884
5.5616546 5.4368739 -2.0840108
6.4374261 6.28861 -2.0776479
9.3972778 9.1704273 -2.0796399
12.11431 11.813605 -2.0776286
16.572159 16.155174 -2.0248022
5.577826 5.4147372 -2.0829759
6.457942 6.2647424 -2.077198
7.665658 7.433732 -2.0756204
9.4263964 9.1348162 -2.0790143
12.147713 11.767845 -2.0766537
16.625591 16.094452 -2.0244534
27.667757 26.765152 -2.0174465
5.5971403 5.3975525 -2.0834932
6.4786825 6.2432909 -2.077198
7.6902695 7.4082685 -2.0756204
9.4367161 9.0843248 -2.0746341
12.17809 11.719235 -2.0751913
16.661642 16.022654 -2.0223618
27.684353 26.604069 -2.012213
44.318386 42.574097 -1.0726948
5.6136127 5.3776274 -2.0829759
6.4880881 6.2109933 -2.0735989
7.7076974 7.3759451 -2.0737123
9.4610758 9.0475225 -2.0733826
12.207441 11.665686 -2.0732415
16.703154 15.956306 -2.0209675
5.6393499 5.364655 -2.0855639
6.5196142 6.1977077 -2.0767481
9.4868679 9.0090027 -2.0721312
12.235132 11.610702 -2.0710478
16.735619 15.87597 -2.0181785
27.650286 26.211634 -1.9967215
5.6524258 5.3396292 -2.0834932
6.5412102 6.1749105 -2.0767481
7.7404442 7.3044348 -2.0687513
9.5038891 8.9622774 -2.0690024
12.256797 11.550233 -2.0678792
16.764833 15.792859 -2.0150406
5.6611662 5.3106151 -2.07987
6.5627265 6.1520381 -2.0767481
7.7687573 7.280057 -2.0695145
9.538002 8.9317465 -2.0696282
12.270953 11.48296 -2.0634918
16.796583 15.712461 -2.0122519
5.6796708 5.2908201 -2.07987
6.5798779 6.125114 -2.0753984
9.54597 8.8768826 -2.0646224
12.302238 11.431945 -2.0620294
16.83964 15.642898 -2.0108571
27.630495 25.648891 -1.9757873
5.7137032 5.2853942 -2.0855639
6.5969267 6.0981379 -2.0740488
7.8309278 7.2363029 -2.0725675
9.575449 8.8421631 -2.0643096
12.333314 11.380858 -2.0605671
16.894144 15.584017 -2.0108571
27.719852 25.552294 -1.9757873
43.28825 39.87534 -1.0273185
5.7335396 5.2667251 -2.0860815
6.622479 6.0790281 -2.0753984
7.8460126 7.1996341 -2.069896
9.6062546 8.8086872 -2.0643096
12.352477 11.318958 -2.0571547
16.92787 15.506113 -2.0084169
27.5879 25.253088 -1.9600865
5.7490358 5.2440743 -2.0850463
6.6451001 6.0571856 -2.0758483
7.8580379 7.1603003 -2.0664616
9.6281824 8.7671185 -2.0624323
12.377229 11.262415 -2.0547173
16.981897 15.446924 -2.0084169
5.7673049 5.2239757 -2.0850463
6.6633148 6.0313354 -2.0749483
7.8960843 7.1446834 -2.069896
9.6499376 8.7255058 -2.060555
12.404679 11.208495 -2.0527673
17.02389 15.376864 -2.0070224
27.615265 24.926048 -1.9496193
5.7811971 5.1999345 -2.0834932
6.6774788 6.0039992 -2.073149
7.918057 7.1144514 -2.0691328
9.6729383 8.6881781 -2.0593035
12.435874 11.161991 -2.0517924
17.071524 15.312027 -2.006325
27.549057 24.701008 -1.939152
5.7998481 5.182023 -2.0840108
6.6983976 5.9806519 -2.073149
7.9372101 7.0842342 -2.0679879
9.6928864 8.6451588 -2.0571134
12.456976 11.102668 -2.0488675
17.107328 15.242083 -2.0045822
27.560535 24.53828 -1.9339186
5.819346 5.1630301 -2.0845287
6.7192349 5.9572315 -2.073149
7.9633579 7.0577884 -2.0683696
9.7156124 8.6047201 -2.0555491
12.497145 11.06043 -2.0491114
17.154465 15.176989 -2.0038848
5.8402333 5.1452374 -2.0855639
6.7546129 5.946619 -2.0776479
7.9805794 7.0234618 -2.0664616
9.7366877 8.5629292 -2.0536718
12.522262 11.004943 -2.0469177
17.177397 15.090718 -2.0003986
27.430988 24.081739 -1.912984
5.8465276 5.1146431 -2.081423
6.7753315 5.9230032 -2.0776479
8.0065269 6.996851 -2.0668433
9.7575932 8.5210915 -2.0517945
12.553114 10.954647 -2.0456991
17.223967 15.025422 -1.9997013
27.514864 23.985859 -1.912984
5.8745532 5.1030731 -2.0850463
44.562477 38.696632 1.0301807
6.7944894 5.8980436 -2.077198
8.0412798 6.977869 -2.0695145
9.7738485 8.4753284 -2.0489788
12.594278 10.913358 -2.0461864
17.267279 14.957376 -1.9986554
27.486683 23.792931 -1.9052384
5.8908687 5.0812721 -2.0845287
44.654873 38.504292 1.0292033
6.8047051 5.8653822 -2.0740488
8.0611277 6.9459095 -2.0683696
9.8033676 8.4411669 -2.0489788
12.614238 10.853795 -2.0432615
17.289164 14.871039 -1.9951692
27.475666 23.616117 -1.8987488
5.9203048 5.0707359 -2.0886698
44.758633 38.322159 1.0285052
6.8281002 5.8441262 -2.0749483
8.0853195 6.9177346 -2.0683696
9.8357773 8.4094601 -2.0496047
12.635449 10.79551 -2.0405805
17.337942 14.808006 -1.9948206
27.460701 23.437088 -1.8920496
45.236835 38.581333 -1.0377899
5.9261971 5.0400252 -2.0845287
6.8573666 5.8278298 -2.0776479
8.1049318 6.8856544 -2.0672247
9.868083 8.377635 -2.0502305
12.677599 10.755187 -2.0413115
17.395603 14.752554 -1.995518
27.435692 23.250692 -1.8847226
45.35902 38.412865 -1.0375106
5.9408026 5.0168138 -2.0834932
6.8836269 5.8088827 -2.0794475
8.1304197 6.8585839 -2.0676064
9.8851843 8.3329496 -2.0477273
12.705953 10.703197 -2.0398493
17.410419 14.660936 -1.9913344
27.571697 23.201084 -1.8884909
5.955317 4.9935646 -2.0824583
6.8968768 5.7810178 -2.0776479
8.1648445 6.8389883 -2.0702777
9.9218493 8.3077335 -2.0496047
12.724627 10.646994 -2.0371683
17.455379 14.594955 -1.9906371
27.522818 23.004499 -1.8799077
5.9852023 4.9849172 -2.0871167
6.9095249 5.7506766 -2.0753984
8.1844625 6.8093619 -2.0695145
9.9462299 8.2692633 -2.048666
12.76019 10.60124 -2.0369244
17.491411 14.52682 -1.9892427
27.62755 22.92869 -1.8815826
5.996613 4.9590683 -2.0850463
6.9310594 5.7277627 -2.0758483
8.2051525 6.7782516 -2.0687513
9.9811306 8.239522 -2.0499175
12.789458 10.55032 -2.0357056
17.520496 14.447927 -1.9868023
27.630342 22.768608 -1.8763489
6.0168715 4.9405589 -2.0860815
6.9555316 5.7072401 -2.077198
8.2257271 6.7470808 -2.0679879
10.00525 8.2008715 -2.0489788
12.820069 10.500579 -2.0347307
17.567743 14.384151 -1.9864537
27.613815 22.593597 -1.8698592
6.0221043 4.909759 -2.0819407
6.9844742 5.6903124 -2.0798974
8.2492304 6.7183247 -2.0679879
10.030749 8.1634054 -2.0483532
12.838161 10.440736 -2.031806
17.586924 14.297606 -1.9829674
27.633602 22.449221 -1.8658817
6.0437088 4.8923554 -2.0834932
6.9936914 5.6573167 -2.0767481
8.2695761 6.6870217 -2.0672247
10.056112 8.1258554 -2.0477273
12.866802 10.389626 -2.0305872
17.633627 14.233622 -1.9826188
27.587427 22.252317 -1.8575079
6.0637627 4.8736482 -2.0845287
7.0088348 5.6292143 -2.0753984
8.3020544 6.6654863 -2.0695145
10.090573 8.0956545 -2.0489788
12.892153 10.335955 -2.0288811
17.661428 14.154551 -1.9801785
27.555815 22.06848 -1.8501809
6.0822492 4.8536553 -2.0850463
62.864056 50.147823 1.4036621
7.0360603 5.6107864 -2.0776479
8.316062 6.6291218 -2.0672247
10.13268 8.0714579 -2.0517945
12.918834 10.283475 -2.0274186
17.710733 14.09281 -1.9801785
27.632673 21.972164 -1.8501809
6.103694 4.8359981 -2.0865991
7.0540767 5.5849805 -2.077198
8.3360691 6.5976224 -2.0664616
10.166991 8.0409374 -2.0530462
12.954654 10.238314 -2.0274186
17.741062 14.016076 -1.9780867
27.655912 21.833488 -1.846622
6.1083918 4.8051057 -2.0824583
7.0827203 5.5675507 -2.0798974
8.3698549 6.5769725 -2.0691328
10.182568 7.9956422 -2.0505433
12.998123 10.199154 -2.0286372
17.771063 13.939311 -1.9759949
27.706812 21.717098 -1.8449473
6.1312165 4.7885122 -2.0845287
7.0928955 5.5355983 -2.077198
8.3912125 6.5465102 -2.0687513
10.210418 7.9600468 -2.0505433
13.041469 10.159829 -2.029856
17.832191 13.886982 -1.9773895
27.703623 21.558939 -1.8397137
6.1463685 4.7658954 -2.0840108
7.1060123 5.5060329 -2.0753984
8.4202223 6.5219855 -2.0702777
10.247513 7.9316139 -2.0524204
13.064295 10.104525 -2.0279062
17.87425 13.819779 -1.9766922
27.652275 21.364408 -1.83134
6.1675611 4.7479453 -2.0855639
7.1267319 5.4823842 -2.0758483
8.4336014 6.4853716 -2.0679879
10.257905 7.8825574 -2.0489788
13.094761 10.055237 -2.0271747
17.925541 13.759733 -1.9770409
27.736185 21.275051 -1.8319679
6.1871653 4.728735 -2.0865991
7.1520219 5.462203 -2.0776479
8.4561872 6.4558945 -2.0679879
10.291642 7.8514924 -2.0502305
13.131362 10.010666 -2.0274186
17.948109 13.67775 -1.9742517
27.705416 21.098238 -1.8250597
6.1928606 4.698936 -2.0829759
7.1725969 5.4383836 -2.0780978
8.4771051 6.4251537 -2.0676064
10.31111 7.8095589 -2.048666
13.172561 9.9695559 -2.0283935
18.005276 13.622234 -1.9752978
27.762966 20.989347 -1.8240129
6.2138538 4.680779 -2.0845287
7.1868672 5.4097958 -2.0767481
8.5104609 6.4037886 -2.0702777
10.350941 7.7830124 -2.0511689
13.219973 9.9330559 -2.0303433
18.075022 13.576046 -1.9777381
27.775358 20.846752 -1.8200353
6.2301559 4.6590581 -2.0845287
7.1932182 5.3753452 -2.073149
8.526473 6.3693404 -2.0687513
10.378044 7.7468362 -2.0511689
13.241839 9.8773508 -2.0283935
18.083965 13.484291 -1.9735546
27.761482 20.685226 -1.8143831
6.2463822 4.6372809 -2.0845287
7.2244596 5.3594899 -2.0767481
8.5486555 6.3395362 -2.0687513
10.408198 7.7129126 -2.0517945
13.276231 9.8310776 -2.0283935
18.118116 13.411595 -1.97216
27.778908 20.547829 -1.8108243
6.2625303 4.6154504 -2.0845287
7.2446942 5.335393 -2.077198
8.5644083 6.3050036 -2.0672247
10.438243 7.6788721 -2.0524204
13.31047 9.7846718 -2.0283935
18.155193 13.341187 -1.9711143
27.856911 20.45546 -1.8112429
6.2770448 4.5924187 -2.0840108
7.266417 5.312377 -2.0780978
8.5879507 6.276226 -2.0676064
10.44743 7.629581 -2.0489788
13.354166 9.7451668 -2.029856
18.198423 13.275396 -1.9707656
27.882956 20.325148 -1.8083122
6.2945976 4.57162 -2.0845287
7.28334 5.2858329 -2.0776479
8.6145697 6.2496748 -2.0687513
10.480399 7.597702 -2.0502305
13.394531 9.7031546 -2.0308311
18.215607 13.190751 -1.9676279
27.921366 20.204281 -1.8062186
6.3136525 4.5518775 -2.0855639
7.2938404 5.2546844 -2.0753984
8.6458921 6.2264476 -2.0710409
10.511663 7.5645356 -2.0511689
13.405759 9.640111 -2.0274186
18.268011 13.131743 -1.9683253
27.878178 20.025124 -1.7988917
6.329504 4.529809 -2.0855639
7.315309 5.2314568 -2.0762982
8.664381 6.193944 -2.0702777
10.531577 7.523201 -2.0499175
13.442556 9.5955667 -2.0279062
18.313742 13.067891 -1.9683253
27.931644 19.9161 -1.7978449
