# .PCD v0.7 - Point Cloud Data file format
VERSION 0.7
FIELDS x y z
SIZE 4 4 4
TYPE F F F
COUNT 1 1 1
WIDTH 1477
HEIGHT 1
VIEWPOINT 0 0 0 1 0 0 0
POINTS 1477
DATA ascii
-69.839622 -25.474777 1.2976214
-8.5336733 -3.1110649 -2.0969937
-9.3325319 -3.3986092 -1.9306054
-11.391788 -4.1462722 -1.9200768
-14.49022 -5.2682829 -1.8931185
-19.781425 -7.184217 -1.8412522
-7.3464155 -2.6521168 -2.0928109
-8.5444813 -3.0812576 -2.0969937
-9.343751 -3.3676424 -1.9306054
-11.422919 -4.1125045 -1.9228927
-14.530937 -5.2257314 -1.8960434
-19.829514 -7.1273394 -1.8435181
-7.3610859 -2.6284068 -2.0943637
-8.5643625 -3.0546861 -2.0992434
-9.3554487 -3.3350081 -1.9306054
-11.44837 -4.076582 -1.9247699
-14.562181 -5.1796336 -1.8977495
-19.865536 -7.0620823 -1.8445642
-7.3592863 -2.598834 -2.0912578
-8.5786486 -3.0260708 -2.100143
-9.4022121 -3.3147309 -1.9378562
-11.45135 -4.03266 -1.9228927
-14.591409 -5.1327219 -1.899212
-19.923899 -7.0045948 -1.8477017
-7.3774328 -2.5763142 -2.0938461
-8.5781183 -2.9922557 -2.0974436
-9.4878788 -3.3077424 -1.9531209
-11.47282 -3.9952583 -1.9241441
-14.639235 -5.0921955 -1.9031119
-19.995277 -6.9513555 -1.8520596
-7.3809023 -2.5486565 -2.0922933
-8.5774593 -2.9584796 -2.0947442
-9.5717545 -3.2995586 -1.968004
-11.49977 -3.9596877 -1.9263341
-14.664429 -5.0436463 -1.9040867
-20.043915 -6.889935 -1.8543255
-7.4007235 -2.5266216 -2.0953991
-8.5951109 -2.9310384 -2.0965438
-9.6742706 -3.2971606 -1.9867034
-11.528482 -3.9246173 -1.9288372
-14.678188 -4.9911451 -1.9035993
-20.094252 -6.8289065 -1.8567659
-7.4003463 -2.4976838 -2.0928109
-8.6071367 -2.9016402 -2.0969937
-9.7675819 -3.2909517 -2.0034947
-11.555217 -3.8887615 -1.9310273
-14.721863 -4.9487362 -1.9070116
-20.155739 -6.7714128 -1.8602523
-7.407187 -2.4712248 -2.0922933
-8.6209097 -2.8728099 -2.0978935
-9.8795948 -3.2903354 -2.024102
-11.578093 -3.8515201 -1.9325917
-14.752234 -4.9016981 -1.9087178
-20.19816 -6.7072926 -1.8619952
-7.4231062 -2.4477735 -2.0943637
-68.611168 -22.611296 1.2609713
-8.627183 -2.8414824 -2.0969937
-9.9935846 -3.2895896 -2.0450909
-11.591468 -3.8110783 -1.9325917
-14.788115 -4.8563666 -1.9111552
-20.255529 -6.6479259 -1.8651329
-7.4352794 -2.4230442 -2.0953991
-8.6296377 -2.8089356 -2.0951941
-10.109557 -3.2886961 -2.0664616
-11.625364 -3.7773104 -1.9360331
-14.804976 -4.8047199 -1.9111552
-20.316513 -6.589478 -1.8686191
-7.4528856 -2.4000378 -2.0979872
-8.6431007 -2.7799885 -2.0960939
-10.210689 -3.282228 -2.0847793
-11.646002 -3.7391224 -1.9372847
-14.850013 -4.7621007 -1.9148113
-20.381132 -6.5318971 -1.8724539
-7.4501734 -2.3704934 -2.0948815
-8.6337013 -2.7454062 -2.0915949
-10.283832 -3.2661772 -2.0973725
-11.662104 -3.7016771 -1.9379103
-14.882752 -4.7182279 -1.9170049
-20.4342 -6.470336 -1.8752429
-7.4506216 -2.3434558 -2.0928109
-8.6376534 -2.7135019 -2.0902452
-10.34518 -3.2479343 -2.1076763
-11.682493 -3.6633103 -1.9391619
-14.916183 -4.6715884 -1.9191986
-20.472656 -6.4078937 -1.8768116
-7.4642906 -2.3191531 -2.0943637
-8.6563778 -2.6862216 -2.0924947
-10.390207 -3.2222705 -2.1145453
-11.693322 -3.6219263 -1.9388491
-14.947569 -4.624186 -1.9211485
-20.523451 -6.3452234 -1.8794264
-7.4889627 -2.2981844 -2.0990226
-8.6582499 -2.6537044 -2.0906951
-10.386375 -3.1813796 -2.1114926
-11.726671 -3.5874431 -1.9422905
-14.978806 -4.5766249 -1.9230984
-20.600737 -6.2904186 -1.8844814
-7.4932408 -2.2709079 -2.0979872
-8.6711912 -2.6245923 -2.0915949
-10.382382 -3.1405594 -2.1084394
-11.776943 -3.5579102 -1.9485478
-15.006093 -4.527751 -1.9245608
-20.651182 -6.2270923 -1.887096
-7.4937201 -2.2425225 -2.0959167
-8.6765652 -2.5931938 -2.0906951
-10.366946 -3.0964329 -2.1030967
-11.770361 -3.5111349 -1.9454193
-15.037027 -4.4798727 -1.9265107
-20.710983 -6.1663437 -1.8905823
-73.082169 -21.689548 20.426517
-7.5015016 -2.2163525 -2.0959167
-8.6930399 -2.5650969 -2.0924947
-10.373926 -3.0591159 -2.1023335
-11.771176 -3.4666789 -1.943542
-15.079234 -4.4352012 -1.9299231
-20.762966 -6.1030002 -1.8933713
-7.5091925 -2.1901536 -2.0959167
-8.7000704 -2.5341918 -2.0920448
-10.380771 -3.0217905 -2.1015704
-11.785102 -3.4261193 -1.9438549
-15.125127 -4.3913932 -1.933823
-20.814758 -6.0393686 -1.8961602
-7.5223613 -2.1655295 -2.0974696
-8.686388 -2.4973478 -2.0866458
-10.383708 -2.9833648 -2.100044
-11.886231 -3.4105701 -1.9585598
-15.142271 -4.3391166 -1.9340667
-20.893175 -5.9831357 -1.9013897
-23.706285 -6.7708111 -0.43034145
-7.5335917 -2.1403143 -2.098505
-8.7119265 -2.4717963 -2.0906951
-10.371392 -2.9406738 -2.0954645
-12.006402 -3.3997321 -1.9763933
-15.162307 -4.2904997 -1.9347978
-20.946527 -5.919373 -1.9043529
-23.74593 -6.6970453 -0.43065557
-7.5425076 -2.1158416 -2.0990226
-69.463165 -19.472908 1.259226
-8.7313337 -2.4460492 -2.0933945
-10.35462 -2.8988547 -2.0901217
-12.1679 -3.4019198 -2.0011098
-15.210866 -4.2498107 -1.9391851
-21.006342 -5.8611236 -1.9080135
-73.628563 -20.488216 20.478281
-7.5383115 -2.0877278 -2.0959167
-8.7412758 -2.4176004 -2.0938444
-10.37553 -2.8676393 -2.0924115
-12.30479 -3.3962381 -2.0217593
-15.247838 -4.2056794 -1.9421101
-21.060238 -5.8009596 -1.9111512
-23.836725 -6.5567818 -1.295629
-50.992516 -14.016967 -0.92309266
-7.5470567 -2.0632255 -2.0964344
-8.747365 -2.3880866 -2.0933945
-10.396346 -2.8363194 -2.0947013
-12.449399 -3.3917625 -2.0436602
-71.769058 -19.539587 9.1328888
-15.269362 -4.1571817 -1.9430851
-21.121655 -5.742588 -1.9149859
-23.835207 -6.4714193 -1.2943729
-23.811377 -6.4604874 -0.43065557
-7.5661163 -2.0372455 -2.0995402
-8.7470608 -2.3519514 -2.091145
-10.399576 -2.7943418 -2.0931747
-12.603514 -3.3818183 -2.0668125
-15.32044 -4.1051011 -1.9474722
-21.201288 -5.6769052 -1.9202154
-23.865669 -6.3813992 -1.294687
-23.837122 -6.3648448 -0.43065557
-7.5806499 -2.0128071 -2.1016109
-8.7533331 -2.3209043 -2.0906951
-10.399778 -2.7555089 -2.0912669
-12.752738 -3.3741822 -2.089339
-71.142715 -18.810005 9.0353947
-15.334677 -4.0515976 -1.9474722
-21.267208 -5.6150703 -1.9243988
-23.876213 -6.2949977 -1.294059
-23.876596 -6.28618 -0.43096972
-7.5726781 -1.9824175 -2.0974696
-8.7726936 -2.2932947 -2.0933945
-10.405534 -2.7181973 -2.0905035
-12.867654 -3.3565733 -2.1062338
-15.37178 -4.0040498 -1.9503973
-21.313673 -5.5478249 -1.9268392
-23.973431 -6.2312107 -1.2981411
-7.577682 -1.9554888 -2.096952
-8.7844191 -2.2636282 -2.0942943
-10.428267 -2.6852856 -2.0931747
-12.940515 -3.3273745 -2.1162457
-15.408732 -3.9562943 -1.9533219
-21.367647 -5.4823046 -1.9299767
-7.5975671 -1.9323608 -2.1005754
-8.7960453 -2.2339103 -2.0951941
-10.445189 -2.6508014 -2.0947013
-12.955879 -3.2831533 -2.1168714
-15.430149 -3.9044278 -1.9542971
-21.433012 -5.4194059 -1.9341602
-7.6005187 -1.9048891 -2.0995402
-8.7920618 -2.2018883 -2.0924947
-10.456284 -2.6148009 -2.0950828
-12.951365 -3.2363405 -2.1143684
-15.450715 -3.8551631 -1.9552718
-21.486597 -5.3532319 -1.9372978
-24.040565 -5.9761624 -0.43240082
-7.614296 -1.8815279 -2.1016109
-8.8072624 -2.173054 -2.0942943
-10.466803 -2.5805817 -2.0954645
-12.958745 -3.1901705 -2.1137428
-15.483356 -3.8059413 -1.9577093
-21.543852 -5.2876949 -1.9407841
-24.067104 -5.8936405 -0.43250555
-7.6023688 -1.8490417 -2.0964344
-8.8147936 -2.1422973 -2.0942943
-10.464744 -2.5394237 -2.0931747
-12.947312 -3.1370707 -2.1099885
-15.500405 -3.7528048 -1.9581968
-21.597036 -5.2208815 -1.9439217
-24.085587 -5.8091197 -0.43247062
-7.6068988 -1.8220429 -2.0959167
-8.8263779 -2.1108816 -2.0951941
-10.485001 -2.5056169 -2.0954645
-12.962028 -3.0927703 -2.1106141
-15.559753 -3.7097278 -1.9640466
-21.634514 -5.1500754 -1.9456648
-24.222456 -5.7527332 -0.43456492
-7.6241794 -1.7994699 -2.0990226
-8.8295345 -2.0807085 -2.0942943
-10.495163 -2.4712832 -2.0958462
-12.94529 -3.0434463 -2.1062338
-15.535253 -3.6494832 -1.9594156
-21.698027 -5.0892229 -1.9498483
-7.6338687 -1.7750521 -2.1000578
-8.8325901 -2.0505357 -2.0933945
-10.514775 -2.4391279 -2.0981357
-12.94184 -2.9973812 -2.1040437
-15.578842 -3.6023879 -1.9633152
-21.738956 -5.0188346 -1.9519401
-7.6497393 -1.7492155 -2.1026461
-8.8434935 -2.0205593 -2.0942943
-10.519816 -2.3997021 -2.0973725
-12.960443 -2.9516778 -2.1052952
-15.666812 -3.5651639 -1.9728212
-21.818512 -4.9570451 -1.957518
-7.6482592 -1.7208058 -2.1005754
-8.8584452 -1.9898411 -2.0960939
-10.51855 -2.3608162 -2.0954645
-12.955248 -2.9029636 -2.1027923
-15.836686 -3.5428209 -1.9925638
-21.859016 -4.8860688 -1.9596097
-7.648561 -1.6928453 -2.0990226
-8.8630924 -1.9600333 -2.095644
-10.53823 -2.326622 -2.0977542
-12.970592 -2.861263 -2.1037309
-16.090677 -3.5436528 -2.0230312
-21.918747 -4.8191543 -1.9634446
-7.6616826 -1.669117 -2.1010931
-8.8679762 -1.9286691 -2.0951941
-10.549724 -2.2924991 -2.0985174
-12.972777 -2.8142972 -2.1024795
-16.374563 -3.5462883 -2.0571547
-21.974384 -4.751029 -1.9669307
-7.6677489 -1.6410242 -2.1010931
-8.8670321 -1.8960723 -2.0933945
-10.550376 -2.2521775 -2.0969911
-12.983006 -2.7667272 -2.1024795
-16.627596 -3.540374 -2.0873783
-22.033712 -4.6834083 -1.9707656
-7.6772118 -1.615044 -2.1021285
-8.8853645 -1.865963 -2.0960939
-10.565859 -2.2169483 -2.0985174
-12.996449 -2.7222037 -2.1031051
-16.869745 -3.5273442 -2.1161394
-22.081127 -4.6129909 -1.9735546
-7.6846938 -1.5886283 -2.1026461
-23.640461 -4.887105 0.42137089
-8.9029551 -1.8388526 -2.0987935
-10.573533 -2.1800528 -2.0985174
-13.013144 -2.6806848 -2.1043568
-16.980515 -3.4917779 -2.1285703
-22.136129 -4.5438976 -1.9770409
-7.6785617 -1.5608252 -2.0995402
-23.622103 -4.7973905 0.42074263
-8.9093199 -1.8077641 -2.0987935
-10.584554 -2.1457577 -2.0992808
-13.014678 -2.6336765 -2.1031051
-17.002329 -3.4344482 -2.1297889
-22.18623 -4.47756 -1.9801785
-7.6934352 -1.5359052 -2.1021285
-23.618273 -4.7151146 0.42039359
-8.9076204 -1.7766845 -2.0969937
-10.603531 -2.1111 -2.1015704
-13.02334 -2.5905032 -2.1031051
-17.013622 -3.378051 -2.1297889
-22.24081 -4.4078341 -1.9836646
-23.671314 -4.687048 -1.2646462
-7.6984859 -1.5103841 -2.1021285
-23.607117 -4.6272516 0.41990492
-8.9137688 -1.7455801 -2.0969937
-10.614326 -2.0766792 -2.1023335
-13.036182 -2.5457847 -2.1037309
-17.021414 -3.3178778 -2.1293013
-22.291267 -4.3370266 -1.9868023
-23.593424 -4.5860972 -1.2596219
-7.715353 -1.4843454 -2.1052344
-8.9217196 -1.7148242 -2.0974436
-10.612226 -2.0359094 -2.1004255
-13.045425 -2.4979875 -2.1037309
-17.042641 -3.2603061 -2.1305199
-22.363026 -4.27002 -1.9918574
-7.7147913 -1.4563313 -2.1036813
-23.627831 -4.455986 0.41969547
-8.937521 -1.6839148 -2.0996931
-10.613481 -1.9977663 -2.0992808
-13.073479 -2.4560819 -2.1068597
-17.060329 -3.198921 -2.1312513
-22.380482 -4.1883979 -1.9920316
-7.7124796 -1.4266399 -2.1016109
-23.633411 -4.3716636 0.41952097
-8.9395123 -1.6520005 -2.0987935
-10.628454 -1.9602741 -2.1008072
-13.066852 -2.4052906 -2.1043568
-17.051868 -3.1357553 -2.1288137
-22.438078 -4.1181617 -1.9958665
-54.478924 -9.9692822 -0.96672368
-7.7188244 -1.4027483 -2.1021285
-23.643841 -4.2925529 0.41945112
-8.9449415 -1.6223466 -2.0987935
-10.648082 -1.9293264 -2.1034784
-13.07823 -2.3649304 -2.1049824
-17.046545 -3.076375 -2.126864
-22.486198 -4.0540123 -1.999004
-7.7217717 -1.375457 -2.1016109
-23.64687 -4.2078915 0.41924173
-8.9467115 -1.5904305 -2.0978935
-10.660552 -1.8931755 -2.1046233
-13.082517 -2.3185749 -2.1043568
-69.336868 -12.275884 8.6458988
-17.053268 -3.0161605 -2.1263764
-22.535528 -3.9817355 -2.0021417
-7.749362 -1.352482 -2.1078224
-8.9522085 -1.5591908 -2.0978935
-10.667095 -1.8559541 -2.1046233
-13.104154 -2.2752593 -2.1065466
-17.047531 -2.9568789 -2.1244266
-22.663157 -3.9227557 -2.0122519
-7.7347631 -1.3235182 -2.1026461
-8.9650145 -1.5308073 -2.0996931
-10.663513 -1.8189193 -2.1027153
-13.125257 -2.2341115 -2.1087368
-17.057241 -2.9003344 -2.1244266
-22.672112 -3.8469133 -2.0119033
-7.7314887 -1.2965831 -2.1005754
-8.9758072 -1.5020344 -2.1010427
-10.675297 -1.7845187 -2.1038601
-13.120903 -2.1886239 -2.1068597
-17.07118 -2.841423 -2.1249142
-22.971693 -3.8194175 -2.0373526
-7.7474055 -1.2714642 -2.1036813
-8.9752254 -1.4697509 -2.0996931
-10.689211 -1.7485114 -2.1053865
-13.120666 -2.1415401 -2.1056082
-17.088829 -2.7830918 -2.1258888
-25.108744 -4.0847254 -2.2256091
-42.331089 -6.871304 -2.2475154
-7.7537036 -1.2447189 -2.1041989
-8.9764538 -1.4377959 -2.0987935
-10.69525 -1.7111856 -2.1053865
-13.135862 -2.0969725 -2.1068597
-17.086679 -2.721554 -2.1244266
-25.05595 -3.9864101 -2.2196825
-42.354816 -6.7234983 -2.2475154
-7.7618189 -1.2182448 -2.1052344
-8.9756422 -1.4055488 -2.0974436
-10.699218 -1.6735407 -2.105005
-13.147008 -2.0517159 -2.1074855
-17.107843 -2.6637256 -2.1258888
-25.014587 -3.8903444 -2.2148015
-42.378025 -6.5756207 -2.2475154
-7.7679338 -1.1914363 -2.105752
-8.9997568 -1.3771569 -2.1019428
-10.699172 -1.6352931 -2.1038601
-13.169711 -2.0081935 -2.1099885
-17.140589 -2.6075742 -2.1288137
-25.039837 -3.8047993 -2.2158475
-42.400719 -6.4276524 -2.2475154
-7.7567611 -1.1620239 -2.1016109
-9.0062017 -1.3475951 -2.1023927
-10.712582 -1.5990951 -2.1053865
-13.168482 -1.9633476 -2.1087368
-17.13736 -2.5489666 -2.1273515
-24.982014 -3.7068481 -2.2095723
-7.7701287 -1.1376942 -2.1041989
-9.0089226 -1.3158655 -2.1019428
-10.723927 -1.5625429 -2.1065314
-13.175255 -1.9173654 -2.1087368
-17.150082 -2.4897048 -2.1278389
-24.935648 -3.6110549 -2.2043431
-7.7818966 -1.1103009 -2.1062696
-9.0059671 -1.2817408 -2.100143
-10.737356 -1.5243284 -2.108058
-13.188063 -1.8698978 -2.1096754
-17.166954 -2.4279373 -2.1288137
-24.909258 -3.51407 -2.2008567
-7.787827 -1.0820371 -2.1067872
-9.0183268 -1.2497916 -2.1019428
-10.742612 -1.4868408 -2.108058
-13.200697 -1.8223555 -2.1106141
-17.183191 -2.3690827 -2.1297889
-24.933216 -3.4287274 -2.2019026
-42.784164 -5.8683105 -2.2632165
-7.7932863 -1.0564649 -2.1073048
-9.0243521 -1.2201395 -2.1023927
-10.741647 -1.4504178 -2.1069131
-13.212542 -1.779361 -2.1115527
-17.206692 -2.3142042 -2.1317387
-24.928652 -3.3439069 -2.2005081
-7.7871704 -1.0293496 -2.1047165
-9.041873 -1.1919917 -2.1055419
-10.758077 -1.4163264 -2.1092029
-13.216411 -1.7352823 -2.1112397
-17.206791 -2.2531002 -2.1307638
-24.900091 -3.2560544 -2.197022
-7.7945495 -1.0026538 -2.105752
-9.0324488 -1.1586843 -2.1023927
-10.755164 -1.3777695 -2.1076763
-13.222387 -1.6891341 -2.1112397
-17.234243 -2.1955321 -2.1332014
-24.927118 -3.1711278 -2.1984165
-7.8037519 -0.97615868 -2.1073048
-9.0325689 -1.1266675 -2.1014926
-10.771598 -1.3416742 -2.109966
-13.236045 -1.6439461 -2.1124914
-17.245743 -2.135843 -2.1336887
-24.957808 -3.0865471 -2.2001595
-7.8109479 -0.94938052 -2.1083403
-9.0422516 -1.0958343 -2.1028426
-10.762572 -1.3024149 -2.1072946
-13.241703 -1.5977331 -2.1124914
-17.241266 -2.0742121 -2.1322262
-24.972387 -2.9998839 -2.2005081
-7.8084583 -0.92142999 -2.1067872
-61.727524 -7.2731619 1.0849113
-9.0479565 -1.0644916 -2.1032922
-10.765103 -1.2646091 -2.1069131
-13.255047 -1.55242 -2.1137428
-17.25629 -2.0149367 -2.1332014
-24.978748 -2.9122336 -2.2001595
-41.76511 -4.8545542 -2.2035534
-7.8097081 -0.89394593 -2.1062696
-61.752537 -7.0576468 1.0849113
-9.0535536 -1.0331248 -2.1037421
-10.779206 -1.2281352 -2.1088212
-13.262346 -1.5063674 -2.1140556
-71.540733 -8.1130953 8.8404026
-17.271109 -1.9555817 -2.1341763
-25.01252 -2.8277087 -2.2022512
-42.023937 -4.7360244 -2.2163234
-7.8070202 -0.86604029 -2.1047165
-62.047104 -6.8719978 1.0896585
-9.059042 -1.0017275 -2.104192
-10.787331 -1.1909318 -2.1095843
-13.269488 -1.4602767 -2.1143684
-17.277828 -1.895286 -2.1341763
-25.006392 -2.7386456 -2.2008567
-7.8292036 -0.84084803 -2.1098928
-9.0565014 -0.97105956 -2.1028426
-10.801182 -1.1543152 -2.1114926
-13.278186 -1.416684 -2.1149943
-71.002121 -7.5628676 8.7672815
-17.291912 -1.838819 -2.1351511
-25.019762 -2.6517596 -2.2012053
-7.8338704 -0.81508046 -2.1104105
-9.0637121 -0.93984026 -2.1037421
-10.804951 -1.1184903 -2.1114926
-13.290911 -1.3711363 -2.1162457
-17.278481 -1.7764173 -2.1327136
-25.052202 -2.5712166 -2.2032971
-42.26519 -4.3229532 -2.2265811
-7.82898 -0.78695714 -2.1083403
-9.0648394 -0.90958589 -2.1032922
-10.812696 -1.0811576 -2.1122558
-13.299314 -1.3274465 -2.1168714
-17.307981 -1.7214669 -2.1356385
-25.07292 -2.4849367 -2.2043431
-7.8355246 -0.75999689 -2.1093752
-9.0758715 -0.87710518 -2.105092
-10.804678 -1.0422763 -2.109966
-13.292293 -1.2775621 -2.1149943
-17.333935 -1.6599104 -2.1380758
-25.065575 -2.3958836 -2.2029486
-41.005947 -3.9050944 -2.1587536
-58.237545 -5.5255761 -1.0211054
-7.8304358 -0.73192173 -2.1073048
-58.771793 -5.4831347 1.0303203
-9.0769377 -0.84523821 -2.1046422
-10.819981 -1.0056444 -2.1122558
-13.292738 -1.230791 -2.1143684
-17.327763 -1.5982991 -2.1366136
-25.08172 -2.3091035 -2.2036457
-40.720993 -3.7345712 -2.1430531
-7.8425636 -0.7054491 -2.1098928
-57.029922 -5.119885 0.99946439
-9.079833 -0.81355053 -2.1046422
-10.835157 -0.96891838 -2.1145453
-13.304823 -1.1850837 -2.1156199
-17.345102 -1.5388563 -2.1380758
-25.08169 -2.2208343 -2.2029486
-40.932735 -3.6099508 -2.1535201
-58.258766 -5.1174808 -1.0208262
-7.8488274 -0.67840165 -2.1109281
-57.14706 -4.9293871 1.0012097
-9.0884418 -0.78235 -2.1059918
-10.844341 -0.93159449 -2.1156902
-13.316751 -1.1393073 -2.1168714
-17.342455 -1.4776309 -2.1371009
-25.09326 -2.1336062 -2.2032971
-41.462521 -3.51085 -2.1807349
-58.200558 -4.907702 -1.0194998
-7.8511472 -0.65100163 -2.1109281
-56.892891 -4.707449 0.99646264
-9.0911179 -0.75062048 -2.1059918
-10.83383 -0.89260888 -2.113019
-13.332459 -1.0937848 -2.1187487
-17.351463 -1.4174039 -2.1375885
-25.112471 -2.046972 -2.2043431
-41.394894 -3.3596432 -2.176548
-58.169495 -4.7006607 -1.0186621
-7.8475947 -0.62313312 -2.1093752
-9.1072817 -0.7199589 -2.1091411
-10.844709 -0.85540354 -2.1145453
-13.324381 -1.0463142 -2.1168714
-17.368179 -1.3577549 -2.1390507
-25.11549 -1.9589959 -2.2039945
-41.139542 -3.1944079 -2.1625221
-57.372097 -4.43469 -1.0044209
-7.8497224 -0.595734 -2.1093752
-57.52256 -4.3554406 1.006934
-9.1077948 -0.68801707 -2.1086912
-58.741791 -4.4374466 3.0872984
-10.84763 -0.81754035 -2.1145453
-13.327951 -0.99979669 -2.1168714
-17.376776 -1.29742 -2.1395385
-25.130121 -1.8719059 -2.2046916
-41.3297 -3.0640733 -2.1719425
-57.829212 -4.2771688 -1.0121697
-7.8613887 -0.56902874 -2.1119635
-57.169704 -4.1380992 1.0005115
-9.102252 -0.65724897 -2.1068916
-10.869998 -0.78107929 -2.1183615
-13.331194 -0.95559365 -2.1168714
-17.388899 -1.2403535 -2.1405134
-25.156378 -1.785578 -2.2064347
-41.096577 -2.9097912 -2.1591723
-57.815865 -4.0732985 -1.0116811
-7.8786497 -0.54402059 -2.1161046
-9.1161556 -0.62627333 -2.109591
-58.323006 -3.9965219 3.0637472
-10.860777 -0.74422318 -2.1160717
-13.348245 -0.90999329 -2.1190615
-17.385202 -1.1791097 -2.1395385
-25.142578 -1.696413 -2.2046916
-40.835468 -2.74809 -2.144937
-57.769871 -3.8674495 -1.0106339
-7.8651695 -0.51413208 -2.1119635
-57.979412 -3.7900105 1.0141943
-9.1182861 -0.59445018 -2.109591
-10.871269 -0.7049194 -2.1175983
-13.369232 -0.86220747 -2.1218774
-17.412983 -1.119945 -2.1424632
-25.164253 -1.6096615 -2.2060859
-40.693779 -2.5887549 -2.136982
-57.65929 -3.6579344 -1.0084699
-7.8707724 -0.48691458 -2.1129987
-58.048801 -3.5809264 1.0151716
-9.1242933 -0.56126285 -2.1104908
-10.881501 -0.66745037 -2.1191249
-13.370189 -0.81541419 -2.1215644
-17.424898 -1.0565963 -2.1434383
-25.185627 -1.5227733 -2.2074807
-40.618835 -2.4416666 -2.1325858
-7.8704958 -0.45932284 -2.1124811
-9.1222143 -0.53077585 -2.109591
-10.875925 -0.62900651 -2.1175983
-13.372818 -0.77107209 -2.1215644
-17.452087 -1.0001696 -2.146363
-25.174875 -1.4339426 -2.2060859
-40.774269 -2.3153336 -2.1403315
-7.8739042 -0.43332854 -2.1129987
-9.124011 -0.49893206 -2.109591
-10.885792 -0.59336674 -2.1191249
-13.375428 -0.72438711 -2.1215644
-17.439613 -0.93839055 -2.1444132
-25.167557 -1.3498106 -2.2050402
-41.005482 -2.1848919 -2.1520548
-57.650497 -3.0516078 -1.007702
-7.881156 -0.40613699 -2.1145515
-9.1256981 -0.46708 -2.109591
-10.887797 -0.55536169 -2.1191249
-13.377875 -0.67769659 -2.1215644
-17.446749 -0.87770826 -2.1449006
-25.203951 -1.2635527 -2.2078292
-40.657787 -2.024065 -2.1334233
-57.688763 -2.851732 -1.0081906
-7.8805962 -0.3785331 -2.1140339
-9.1272726 -0.43522227 -2.109591
-10.897512 -0.51772517 -2.1206512
-13.395946 -0.63173586 -2.1240675
-17.453671 -0.81699163 -2.1453881
-25.200251 -1.1751889 -2.2071321
-40.66061 -1.8819542 -2.1332138
-57.370762 -2.6352932 -1.0024662
-7.8741508 -0.35067841 -2.1119635
-9.1404161 -0.40387318 -2.1122904
-10.889447 -0.47925326 -2.1187432
-13.392149 -0.58471256 -2.1231289
-17.472284 -0.7567488 -2.1473379
-25.168369 -1.0856702 -2.2039945
-40.678905 -1.7405124 -2.133842
-57.807163 -2.4531722 -1.0099359
-7.8733959 -0.32311091 -2.1114457
-9.1339817 -0.37164971 -2.1104908
-10.904786 -0.44179517 -2.1214147
-13.380291 -0.53740954 -2.1209388
-17.470852 -0.69559187 -2.1468506
-25.199877 -0.99891961 -2.2064347
-40.409325 -1.5876837 -2.1193972
-7.8937807 -0.29635206 -2.1166222
-9.1274347 -0.33947396 -2.1086912
-10.910186 -0.40387258 -2.1221778
-13.401826 -0.49142385 -2.1240675
-17.473173 -0.63460666 -2.1468506
-25.203211 -0.91094887 -2.2064347
-40.35474 -1.4444844 -2.116257
-7.8909059 -0.26866224 -2.115587
-58.565487 -1.9837507 1.0228506
-9.1421976 -0.30807039 -2.1118405
-10.90368 -0.36552304 -2.1206512
-13.407409 -0.44477034 -2.1246932
-17.479151 -0.57679033 -2.1473379
-25.194288 -0.82257688 -2.2053888
-40.203835 -1.298581 -2.1080925
-7.8820987 -0.2421985 -2.1129987
-9.1470642 -0.27787006 -2.1127403
-10.891095 -0.32895043 -2.11798
-13.416708 -0.40054259 -2.1259446
-17.480967 -0.5188235 -2.1473379
-25.220774 -0.73972505 -2.2074807
-40.467449 -1.1727729 -2.1216998
-7.8770647 -0.21590008 -2.1114457
-58.665314 -1.5976797 1.0243864
-9.1557283 -0.24774627 -2.1145399
-58.254978 -1.5661702 3.0541174
-10.907826 -0.29325414 -2.121033
-13.414013 -0.35594365 -2.1253188
-17.498547 -0.45821562 -2.1492879
-25.179272 -0.65494514 -2.2036457
-39.680466 -1.0182803 -2.0802498
-7.8835645 -0.18854104 -2.1129987
-58.422642 -1.3870029 1.0200583
-9.1526403 -0.21569541 -2.1136403
-10.918597 -0.25540617 -2.122941
-13.427023 -0.30939373 -2.1271961
-17.504007 -0.39722106 -2.1497755
-25.221243 -0.5679515 -2.2071321
-39.683777 -0.87976229 -2.0802498
-7.8919001 -0.16117677 -2.1150692
-9.1533384 -0.18374516 -2.1136403
-60.09761 -1.1958994 3.1502061
-10.923347 -0.2173668 -2.1237042
-13.424071 -0.26244521 -2.1265705
-17.497349 -0.33596951 -2.1488004
-25.239008 -0.480212 -2.2085266
-40.465405 -0.75578898 -2.1210721
-7.9001412 -0.13376041 -2.1171398
-9.1500263 -0.15172586 -2.1127403
-60.70052 -0.99595487 3.1816077
-10.920115 -0.17917377 -2.122941
-13.432805 -0.21570812 -2.1278217
-17.502386 -0.2749522 -2.1492879
-25.244514 -0.39216366 -2.2088752
-40.599598 -0.61653417 -2.1279802
-7.8870382 -0.10600101 -2.1135163
-9.1621914 -0.11994036 -2.1154397
-10.928526 -0.1411555 -2.1244676
-13.441378 -0.16891968 -2.1290734
-17.515148 -0.21399663 -2.1507504
-25.245729 -0.30404681 -2.2088752
-39.802654 -0.46545866 -2.0861113
-60.70285 -0.68869257 -1.0596403
-7.8854289 -0.078450024 -2.1129987
-58.992199 -0.57660115 1.0297618
-9.1625538 -0.08795736 -2.1154397
-10.921099 -0.10293262 -2.122941
-13.449787 -0.12207083 -2.1303248
-17.515787 -0.15285973 -2.1507504
-25.270544 -0.21612467 -2.2109668
-39.612309 -0.32495418 -2.0760629
-60.72488 -0.47693676 -1.0599893
-7.8837228 -0.050913449 -2.1124811
-9.1628056 -0.055973284 -2.1154397
-10.937098 -0.064905755 -2.125994
-13.430377 -0.075010866 -2.1271961
-17.536066 -0.091820762 -2.1531878
-25.330917 -0.12821452 -2.2161963
-39.804932 -0.18758191 -2.0861113
-60.854107 -0.27615613 -1.0622233
-7.8915792 -0.023414636 -2.1145515
-9.1512489 -0.025555015 -2.1127403
-10.941185 -0.026734451 -2.1267571
-13.454257 -0.030526983 -2.1309505
-17.540243 -0.03367551 -2.1536753
-25.359102 -0.039841492 -2.2186365
-40.052998 -0.055927243 -2.0990908
-7.8974094 0.0027553574 -2.1161046
-9.1590776 0.0063924748 -2.1145399
-10.941214 0.0095483931 -2.1267571
-13.458232 0.016439317 -2.1315763
-17.528343 0.027533352 -2.1522129
-25.323233 0.044190936 -2.2154989
-40.164791 0.084119506 -2.1049523
-7.8992834 0.030331964 -2.1166222
-60.554291 0.24307245 1.0569875
-9.1687431 0.038404647 -2.1167896
-10.941113 0.047740601 -2.1267571
-13.462045 0.06343621 -2.1322021
-64.562378 0.31551582 7.9273577
-17.547991 0.088815294 -2.1546502
-25.32691 0.13261285 -2.2158475
-40.092354 0.22391027 -2.1011841
-7.8875384 0.057818796 -2.1135163
-9.1724491 0.070441671 -2.1176891
-10.94088 0.085929617 -2.1267571
-13.46174 0.11043071 -2.1322021
-17.591244 0.15044264 -2.1600125
-25.330276 0.22105494 -2.2161963
-59.904221 0.56460041 -1.0456784
-7.8930836 0.085414022 -2.1150692
-59.65131 0.65592092 1.0412804
-9.1701994 0.10243537 -2.1172395
-10.952292 0.12425384 -2.1290469
-13.465223 0.15746364 -2.1328278
-17.594584 0.21189915 -2.1604998
-25.329351 0.30947348 -2.2161963
-7.8946695 0.11299338 -2.115587
-59.448711 0.8612439 1.0377899
-9.1580954 0.13427356 -2.1145399
-10.959643 0.16260052 -2.1305733
-13.476442 0.20464541 -2.1347051
-17.581827 0.27312988 -2.1590376
-25.356007 0.39832029 -2.2186365
-39.73634 0.63810527 -2.082762
-7.905817 0.14075491 -2.1186929
-58.945499 1.0597684 1.0290637
-9.1653633 0.16638219 -2.1163394
-10.959009 0.20085612 -2.1305733
-63.135986 1.1681752 5.5246282
-13.479596 0.25175989 -2.1353307
-17.55298 0.33396789 -2.1556253
-25.358444 0.48690408 -2.2189851
-7.8917565 0.16806467 -2.1150692
-58.821484 1.2629462 1.0269694
-9.1588821 0.19824582 -2.1149898
-10.954316 0.23902364 -2.1298101
-63.999992 1.4076573 5.6006279
-13.482585 0.29889566 -2.1359563
-17.575521 0.39577395 -2.1585498
-25.364557 0.57560617 -2.2196825
-41.056744 0.94604236 -2.1522641
-7.8891907 0.19556336 -2.1145515
-58.936665 1.4712458 1.0290637
-9.1737194 0.23060928 -2.1185889
-10.953415 0.27726018 -2.1298101
-13.528852 0.34717661 -2.1434653
-17.593878 0.457634 -2.1609874
-25.414179 0.66549212 -2.2242146
-41.053192 1.0893525 -2.1522641
-7.896184 0.2233174 -2.1166222
-59.059097 1.6806061 1.0312976
-9.1631193 0.26235154 -2.1163394
-10.956306 0.31560379 -2.1305733
-13.488068 0.39324802 -2.137208
-64.833023 1.9015479 7.9639182
-17.608047 0.51951838 -2.1629374
-25.419668 0.75443727 -2.2249119
-7.8972874 0.25094044 -2.1171398
-9.154357 0.29408303 -2.1145399
-10.966909 0.3542271 -2.132863
-13.462921 0.43955463 -2.1334534
-17.610096 0.58111024 -2.1634247
-25.460686 0.84461778 -2.2287467
-40.170277 1.3466219 -2.1064177
-7.9079475 0.27891436 -2.1202457
-9.164959 0.32645234 -2.1172395
-10.951872 0.39201787 -2.1301918
-13.461305 0.48654351 -2.1334534
-17.60796 0.64257789 -2.1634247
-25.473511 0.93406576 -2.2301412
-40.14537 1.4860964 -2.105371
-60.413025 2.2469056 -1.0552423
-7.9030652 0.30636901 -2.1192105
-9.1579838 0.35661548 -2.1158895
-10.979863 0.4314011 -2.135916
-13.459617 0.53118062 -2.1334534
-17.617632 0.70143884 -2.1648872
-25.501947 1.0242654 -2.2329299
-40.487461 1.633224 -2.1235838
-7.8981452 0.33240888 -2.118175
-9.1683655 0.38907668 -2.1185889
-60.055012 2.5590603 3.1502061
-10.958757 0.4669739 -2.1320999
-13.461628 0.57833016 -2.1340792
-65.843842 2.8402705 8.0921249
-17.619043 0.76309979 -2.1653748
-25.494431 1.108649 -2.2325814
-60.595638 2.6774547 -1.0587327
-7.9027267 0.36024258 -2.1197281
-9.1630583 0.4208971 -2.1176891
-10.953138 0.50504106 -2.1313365
-64.671478 2.9932644 5.6640778
-13.459527 0.62531686 -2.1340792
-17.624205 0.82496876 -2.1663496
-25.53021 1.1995114 -2.2360678
-40.283554 1.9067649 -2.1135354
-7.8956318 0.3875421 -2.118175
-9.1615334 0.45288202 -2.1176891
-10.961113 0.54375827 -2.1332448
-13.471073 0.67298591 -2.1362693
-17.617252 0.88628477 -2.1658623
-25.533827 1.2890177 -2.2367649
-42.31921 2.1511991 -2.2207196
-7.9000192 0.41540521 -2.1197281
-9.1968708 0.48681641 -2.1262374
-10.96503 0.58232909 -2.1343896
-13.484423 0.72084862 -2.1387722
-68.63121 3.680891 8.4389648
-17.633873 0.94884211 -2.1682997
-25.561005 1.3798585 -2.2395539
-42.347343 2.3008592 -2.2226036
-7.9004498 0.44308537 -2.1202457
-61.058136 3.4350622 1.067459
-9.1698227 0.51748937 -2.1203887
-10.95509 0.62015444 -2.132863
-13.473934 0.76746464 -2.1375208
-17.630453 1.0103905 -2.1682997
-25.544098 1.4683893 -2.2385082
-42.355003 2.4495885 -2.2234409
-7.8949981 0.47043085 -2.1192105
-9.1737957 0.54984272 -2.1217382
-10.954818 0.65851182 -2.1332448
-13.479061 0.81496686 -2.1387722
-17.65456 1.0736136 -2.1717119
-25.538816 1.5575405 -2.2385082
-7.8971639 0.49823204 -2.1202457
-9.1582069 0.58099842 -2.1185889
-10.96029 0.69724613 -2.1347711
-13.460363 0.86100411 -2.1362693
-68.68795 4.4057393 8.4511518
-17.650705 1.1352292 -2.1717119
-25.58094 1.6497624 -2.2426915
-40.965633 2.6562986 -2.1514268
-7.883811 0.52502334 -2.1171398
-9.1619568 0.61335599 -2.1199389
-10.963666 0.73589253 -2.135916
-13.473043 0.90905178 -2.1387722
-68.672157 4.6454635 8.4511518
-17.646635 1.1968354 -2.1717119
-25.567074 1.7385066 -2.2419941
-40.864449 2.7930155 -2.1466119
-7.9069824 0.55429626 -2.1238692
-9.1519842 0.64478374 -2.118139
-10.96103 0.77415872 -2.135916
-13.469789 0.95607316 -2.1387722
-68.853539 4.8992376 8.4755259
-17.630468 1.2575834 -2.1702495
-25.596624 1.8302943 -2.245132
-40.930157 2.9410925 -2.1505895
-7.8972926 0.58132631 -2.1217985
-9.1556263 0.67555976 -2.119489
-10.956304 0.81227034 -2.1355343
-13.482303 1.001907 -2.1412752
-68.638947 5.1127934 8.4511518
-17.642036 1.3172202 -2.1721995
-25.617893 1.9217191 -2.2475724
-40.884327 3.0741119 -2.1487052
-7.8876176 0.60691899 -2.1197281
-9.1590405 0.70796555 -2.1208386
-10.959422 0.84905356 -2.1366794
-13.478724 1.0489632 -2.1412752
-17.653164 1.3800325 -2.1741493
-25.599461 2.0057278 -2.2465265
-40.91317 3.2199314 -2.1507986
-7.9104843 0.63646066 -2.1264575
-9.1565132 0.73993254 -2.1208386
-10.966175 0.88809395 -2.1385872
-13.463166 1.0950458 -2.1393981
-17.66011 1.4426154 -2.1756117
-25.620104 2.0973508 -2.2489667
-40.893715 3.3620715 -2.1503799
-7.8889627 0.66245508 -2.1212809
-9.1461067 0.77123326 -2.1190388
-10.959096 0.92603999 -2.1378241
-13.475009 1.1433678 -2.141901
-17.643099 1.5032412 -2.1741493
-25.616598 2.1871026 -2.2493153
-40.941433 3.5099163 -2.1535201
-7.9019995 0.69133592 -2.1254222
-9.1453009 0.80332524 -2.119489
-10.971442 0.96566606 -2.140877
-67.661926 5.9672384 5.9426274
-13.490612 1.1921396 -2.1450298
-17.637745 1.5648143 -2.1741493
-25.640562 2.2793376 -2.2521045
-7.89569 0.7185629 -2.1243868
-9.1540842 0.83630961 -2.1221881
-10.950409 1.0023447 -2.1374426
-13.498171 1.2403083 -2.1469069
-17.647989 1.627831 -2.1760993
-25.660223 2.3713934 -2.2545447
-42.160866 3.911145 -2.2190447
-7.8931332 0.74611986 -2.1243868
-9.1491699 0.86807227 -2.1217382
-10.954661 1.0413061 -2.1389689
-13.481961 1.2862896 -2.1450298
-17.654055 1.6905642 -2.1775615
-25.635923 2.4594285 -2.2531502
-42.08334 4.052166 -2.2156954
-7.8924031 0.77385622 -2.1249044
-9.153842 0.90076715 -2.123538
-10.960729 1.080502 -2.140877
-13.48132 1.333732 -2.1456554
-17.671751 1.7545321 -2.1804864
-25.647009 2.5508661 -2.2548933
-42.02124 4.1942797 -2.2131832
-7.8915768 0.80159664 -2.1254222
-9.1467648 0.93231958 -2.1226382
-10.964702 1.1195561 -2.1424036
-13.480513 1.3811854 -2.146281
-17.641821 1.8137672 -2.1775615
-25.645874 2.6411922 -2.2555907
-42.054028 4.3458543 -2.2156954
-7.8964148 0.8299464 -2.1274927
-9.1473303 0.96464896 -2.123538
-10.952917 1.156996 -2.140877
-13.483467 1.4290693 -2.1475327
-17.655123 1.8774372 -2.1799989
-25.648388 2.7319703 -2.2566366
-41.935329 4.4815884 -2.2102523
-7.8896284 0.85708797 -2.1264575
-9.1555309 0.99784243 -2.1262374
-10.952717 1.1956482 -2.1416404
-13.474469 1.4756936 -2.1469069
-17.636623 1.9377536 -2.1785367
-25.658497 2.823657 -2.2583795
-41.923401 4.6283927 -2.2104619
-7.8846693 0.88440573 -2.1259398
-9.1636114 1.0311029 -2.1289368
-10.952377 1.2343105 -2.1424036
-13.473162 1.5231636 -2.1475327
-17.641935 1.9975686 -2.1799989
-25.648485 2.9132054 -2.2583795
-41.605358 4.7403288 -2.1945517
-7.8816934 0.91054767 -2.1259398
-9.1523981 1.0605878 -2.1271372
-65.509125 7.5912538 3.4561622
-10.952124 1.2710787 -2.1431668
-13.475885 1.5687481 -2.1487842
-17.647045 2.0574405 -2.1814616
-25.666388 3.0014834 -2.2608199
-41.80365 4.9034014 -2.2058561
-7.8901401 0.93804795 -2.1290457
-66.083099 7.8682246 1.1616322
-9.1468954 1.0907019 -2.1266873
-66.422249 7.9321361 3.5057766
-10.967343 1.3097188 -2.1469829
-13.47061 1.6134275 -2.1487842
-17.631872 2.1180768 -2.1804864
-25.683985 3.0899124 -2.2632601
-41.699909 5.0314646 -2.2012506
-7.8925705 0.96628851 -2.1305985
-9.1430321 1.1226242 -2.1266873
-10.947116 1.3460748 -2.14393
-13.472736 1.6614063 -2.1500356
-17.616489 2.1786408 -2.1795115
-25.720499 3.1854255 -2.2674437
-41.547314 5.1602654 -2.194133
-7.873816 0.9919014 -2.1264575
-9.1525917 1.1562402 -2.1298366
-10.94235 1.3842795 -2.14393
-13.482533 1.7104108 -2.1525385
-17.616655 2.2411232 -2.1804864
-25.728991 3.2777002 -2.269187
-41.350746 5.2824845 -2.1847124
-7.872221 1.0196266 -2.1269751
-9.1504316 1.1884329 -2.1302865
-10.94524 1.4234775 -2.1454566
-13.46081 1.7554201 -2.1500356
-17.636282 2.3062027 -2.1838987
-25.764805 3.3736999 -2.2733703
-41.33601 5.4273047 -2.1849217
-7.8686142 1.0471016 -2.1269751
-9.1423655 1.2198515 -2.1293867
-10.947989 1.4627178 -2.1469829
-13.44677 1.8013476 -2.1487842
-17.628124 2.3677511 -2.1838987
-25.760769 3.4646783 -2.2740676
-41.388077 5.5811715 -2.1886899
-7.8725672 1.0756081 -2.1290457
-9.1283979 1.2504349 -2.1271372
-10.950595 1.5019917 -2.1485093
-13.456055 1.8504277 -2.1512871
-17.619751 2.429271 -2.1838987
-25.760361 3.5562148 -2.2751136
-40.901436 5.6609879 -2.1639874
-7.8764172 1.1041549 -2.1311162
-9.1316967 1.2833763 -2.1289368
-10.960838 1.5423962 -2.1515625
-13.46516 1.8995948 -2.15379
-17.607233 2.490205 -2.1834114
-25.794495 3.6573203 -2.2792969
-41.110809 5.8362918 -2.1761293
-7.8684931 1.1324657 -2.1300809
-9.1310186 1.3158002 -2.1298366
-10.937623 1.5800332 -2.1481278
-13.45029 1.947799 -2.1525385
-17.610222 2.5533605 -2.1848738
-25.801289 3.7501976 -2.28104
-41.156338 5.9967227 -2.1796882
-7.8492031 1.1576703 -2.1259398
-9.1299906 1.3498262 -2.1307364
-10.933984 1.6184909 -2.1485093
-13.439499 1.9941611 -2.1519127
-17.616451 2.6202202 -2.1868236
-25.834663 3.8517971 -2.2852235
-41.182568 6.1474166 -2.1822002
-7.8525472 1.187585 -2.1280103
-9.1310024 1.3825654 -2.132086
-10.939624 1.66032 -2.150799
-13.439913 2.0445914 -2.1531644
-17.6229 2.6840889 -2.1887736
-25.856516 3.9473603 -2.2883611
-41.262421 6.3140373 -2.1876433
-7.8585358 1.2123519 -2.1305985
-9.1169853 1.4097537 -2.1298366
-10.94241 1.693976 -2.1523256
-13.433786 2.0844603 -2.1531644
-17.610456 2.7388306 -2.1882861
-25.859735 4.031034 -2.2897556
-40.947498 6.3902349 -2.1719425
-7.8559475 1.2414484 -2.1311162
-9.1197081 1.4427876 -2.1316364
-10.920617 1.7316086 -2.1492727
-13.429957 2.1343036 -2.15379
-17.60079 2.8002863 -2.1882861
-25.91634 4.132566 -2.296031
-40.84491 6.5276747 -2.1677556
-7.8611016 1.2704045 -2.1337044
-9.1278248 1.4783845 -2.1347857
-10.908691 1.7687756 -2.1481278
-13.436075 2.1833885 -2.1559801
-17.590408 2.864778 -2.1882861
-25.960747 4.2326241 -2.3012602
-41.492058 6.7797179 -2.2033441
-7.843277 1.2956314 -2.1300809
-9.1324844 1.5102352 -2.1370349
-10.912135 1.8084459 -2.1500359
-13.417068 2.2259927 -2.1541028
-17.584726 2.9237456 -2.1887736
-25.957605 4.3251834 -2.3023059
-42.005196 7.0066566 -2.2318146
-7.8465571 1.3229185 -2.1321514
-9.1213932 1.5411307 -2.1356852
-10.909949 1.8452771 -2.150799
-13.413113 2.273474 -2.1547287
-17.578327 2.9857752 -2.189261
-26.01306 4.4277968 -2.3085814
-41.826916 7.1270633 -2.2236505
-7.8492708 1.3529834 -2.1342218
-9.1063557 1.5713022 -2.1334357
-10.910851 1.8865926 -2.1523256
-13.408582 2.3232949 -2.1553543
-17.587358 3.0505099 -2.1916986
-26.03278 4.5247207 -2.3117189
-41.745419 7.2707148 -2.2207196
-7.8445005 1.3803725 -2.1342218
-9.1082125 1.606024 -2.1352355
-10.892599 1.9226172 -2.1500359
-13.408171 2.3714619 -2.1566057
-17.568239 3.113565 -2.1907237
-26.056061 4.6225252 -2.3152051
-42.042278 7.4737287 -2.2378857
-7.8377328 1.4074054 -2.1337044
-9.1162624 1.6386328 -2.1383848
-10.881958 1.9599322 -2.1492727
-13.40412 2.4166136 -2.1572316
-17.561728 3.1725087 -2.191211
-26.078976 4.7205482 -2.3186915
-42.221649 7.6501288 -2.2487717
-7.8273215 1.4323455 -2.1321514
-9.1104879 1.6704426 -2.1383848
-10.883121 1.9974251 -2.150799
-13.387833 2.4619563 -2.1559801
-17.570066 3.2373927 -2.1936483
-26.078014 4.8144403 -2.3200858
-42.171116 7.793119 -2.2475154
-7.8315139 1.462798 -2.1347394
-9.1026859 1.7018762 -2.1379349
-10.875727 2.0373032 -2.150799
-13.370955 2.509551 -2.1547287
-17.562561 3.2994378 -2.1941359
-26.084547 4.9098635 -2.3221776
-7.8377471 1.4922944 -2.1378453
-9.0772438 1.7315784 -2.1334357
-10.88012 2.0774612 -2.1530888
-13.373753 2.5584395 -2.1566057
-17.558149 3.3652763 -2.1951108
-26.172909 5.0211635 -2.3315904
-7.8286977 1.5189086 -2.1368101
-9.0752792 1.7624092 -2.1343358
-10.868948 2.1146777 -2.1523256
-13.37683 2.6050341 -2.158483
-17.539101 3.421963 -2.1941359
-26.159134 5.1132522 -2.331939
-7.8274074 1.54561 -2.1378453
-9.0824528 1.7967266 -2.137485
-10.861876 2.1507092 -2.1523256
-13.37928 2.654022 -2.1603601
-17.550411 3.4878087 -2.1970608
-26.212381 5.2139649 -2.3382142
-7.8124952 1.5710173 -2.135257
-9.0764446 1.8268335 -2.137485
-10.852378 2.1882234 -2.1519439
-13.36266 2.6968088 -2.1591089
-17.56599 3.551497 -2.2004731
-26.213551 5.3093877 -2.3399572
-42.539108 8.6237545 -2.2747302
-7.8148136 1.5984647 -2.1373277
-9.0700121 1.8585075 -2.137485
-10.850831 2.2253828 -2.1530888
-13.357035 2.7442355 -2.1597345
-17.600149 3.6223919 -2.2063227
-26.22998 5.4081001 -2.3430948
-42.532223 8.7770262 -2.2759864
-7.8032289 1.6259147 -2.1357749
-9.0577469 1.8889631 -2.1361351
-10.848368 2.2663429 -2.1542337
-13.346889 2.7931702 -2.1597345
-17.591282 3.6846249 -2.2068105
-26.246044 5.5069861 -2.3462327
-42.57795 8.9492989 -2.2801731
-7.812624 1.6563505 -2.1399159
-9.054575 1.9229563 -2.1370349
-10.83847 2.3037889 -2.153852
-13.337057 2.8397427 -2.1597345
-17.534948 3.7399616 -2.201448
-26.281218 5.6102219 -2.3511133
-42.718323 9.134613 -2.2893844
-7.8011293 1.6823881 -2.1383629
-9.0459023 1.9541419 -2.136585
-10.824606 2.3403614 -2.1527071
-13.334785 2.8879566 -2.1609859
-17.552826 3.8078814 -2.2053478
-26.292625 5.7086902 -2.3539023
-7.7876616 1.7079537 -2.1362925
-9.0542536 1.9890494 -2.1401844
-10.825958 2.3802402 -2.1546154
-13.328482 2.935333 -2.1616118
-17.554935 3.8725548 -2.2072978
-26.311451 5.8090191 -2.3573885
-43.300957 9.5758104 -2.3241353
-7.7873082 1.7363888 -2.1378453
-9.0419016 2.0177903 -2.1388347
-10.817584 2.4180157 -2.1546154
-13.318674 2.9795163 -2.1616118
-17.57299 3.9376891 -2.2111976
-26.337669 5.9113002 -2.3615718
-43.144249 9.6913261 -2.3174365
-7.7871604 1.7634833 -2.1393983
-9.0272007 2.047616 -2.1370349
-10.813334 2.4547443 -2.1553786
-13.312044 3.026865 -2.1622374
-17.586235 4.005178 -2.2146099
-26.395624 6.0163183 -2.3685443
-7.7771921 1.7897866 -2.1383629
-9.0199976 2.0791147 -2.1370349
-10.8047 2.4924726 -2.1553786
-13.312945 3.0759828 -2.1641147
-17.595356 4.0719123 -2.2175348
-26.405518 6.1156135 -2.3713334
-7.7708969 1.8169233 -2.1383629
-9.0164824 2.1114745 -2.1379349
-10.795934 2.5301759 -2.1553786
-13.298283 3.1215296 -2.1634889
-17.596493 4.1369419 -2.2194848
-26.438316 6.22052 -2.3762143
-7.7645068 1.8440398 -2.1383629
-9.0128479 2.1438372 -2.1388347
-10.775576 2.5651176 -2.1530888
-13.287305 3.1679304 -2.1634889
-17.628284 4.2094011 -2.2253344
-26.443571 6.3192596 -2.3786545
-7.7639837 1.871136 -2.1399159
-9.0037947 2.1732564 -2.1383848
-10.778461 2.6036029 -2.1553786
-13.269046 3.2101178 -2.1622374
-17.656673 4.2781205 -2.2306967
-26.492176 6.4238114 -2.3849299
-7.7517753 1.8968467 -2.1383629
-8.9961538 2.2046723 -2.1383848
-10.773121 2.642144 -2.1561418
-13.261596 3.2573617 -2.162863
-17.641632 4.3397284 -2.2306967
-26.485065 6.5200644 -2.3863242
-7.7544813 1.9262227 -2.1409512
-8.9865122 2.2355912 -2.1379349
-10.760022 2.6787848 -2.1553786
-13.265479 3.3074539 -2.1653662
-17.661043 4.4099388 -2.2350838
-26.539465 6.6317902 -2.3932967
-7.7439637 1.952335 -2.1399159
-8.9824324 2.2679005 -2.1388347
-10.748703 2.7158475 -2.1549969
-13.261513 3.3556776 -2.1666176
-17.668633 4.4774127 -2.2380087
-26.574091 6.7390828 -2.398526
-7.7352309 1.9788742 -2.1393983
-8.989562 2.3031106 -2.1424339
-10.748667 2.7557864 -2.1569052
-13.257372 3.403914 -2.1678691
-17.679813 4.5459819 -2.241421
-26.573559 6.8377614 -2.4006176
-7.7226658 2.0044091 -2.1378453
-8.975811 2.3330035 -2.1410842
-10.742781 2.7942808 -2.1576684
-13.237763 3.4481754 -2.1666176
-17.694571 4.6156859 -2.245321
-26.58423 6.9395313 -2.4037554
-7.7249627 2.0338135 -2.1404335
-8.9676123 2.3643208 -2.1410842
-10.740555 2.8337669 -2.1591947
-13.229465 3.4953759 -2.1672435
-17.70138 4.6835122 -2.2482457
-26.633036 7.0516715 -2.4103792
-7.7234159 2.0622597 -2.1419864
-8.9555397 2.3946054 -2.1401844
-10.734391 2.8722537 -2.1599579
-13.224815 3.5435791 -2.1684947
-17.704096 4.7504182 -2.2506831
-26.635195 7.1518288 -2.4128196
-7.7087116 2.0871875 -2.1399159
-8.9602928 2.4294193 -2.1433337
-10.712931 2.9066219 -2.1576684
-13.231429 3.5949006 -2.1716235
-17.721884 4.8215737 -2.2550707
-26.679276 7.2636018 -2.4190946
-7.7013793 2.1140835 -2.1399159
-8.947999 2.4596484 -2.1424339
-10.717864 2.9481652 -2.1607211
-13.230227 3.6442096 -2.1735008
-17.735563 4.8918509 -2.2589705
-26.703693 7.3704624 -2.4236269
-7.6920915 2.1404378 -2.1393983
-8.9393587 2.4908681 -2.1424339
-10.699943 2.9834535 -2.1591947
-13.213619 3.6893072 -2.1728749
-17.748968 4.9622774 -2.2628701
-26.766066 7.4883251 -2.4316452
-7.6957293 2.1704197 -2.1425042
-8.9268599 2.5209963 -2.1415341
-10.700798 3.0239859 -2.1614842
-13.204462 3.7364883 -2.1735008
-17.746817 5.0285325 -2.2648201
-26.778097 7.592587 -2.4351313
-7.6881061 2.1972699 -2.1425042
-8.923624 2.5537519 -2.1428835
-10.686403 3.0602396 -2.1607211
-13.202733 3.7858219 -2.1753781
-17.767315 5.1014071 -2.2696948
-26.80888 7.7025132 -2.4403608
-7.672967 2.2219417 -2.1404335
-8.9169798 2.5838706 -2.1433337
-10.666227 3.0947881 -2.158813
-13.210973 3.8356416 -2.1788194
-17.773176 5.1669478 -2.2726197
-26.823914 7.8082981 -2.4441955
-7.665556 2.2473762 -2.1404335
-8.9079065 2.6149836 -2.1433337
-10.659674 3.1312487 -2.1595764
-13.188027 3.8789465 -2.1772552
-17.781693 5.236804 -2.276032
-26.832275 7.9073462 -2.4473333
-7.6595168 2.2746687 -2.1409512
-8.8949871 2.6449509 -2.1424339
-10.654325 3.1701167 -2.1607211
-13.189552 3.9294703 -2.1797581
-17.793737 5.3079257 -2.2799318
-26.831238 8.0089388 -2.4497736
-7.6626301 2.3047304 -2.144057
-8.8838348 2.6754205 -2.141984
-10.654472 3.2106864 -2.1630108
-13.187103 3.9789073 -2.1816354
-17.805508 5.3791914 -2.2838318
-26.86796 8.1221437 -2.4557002
-7.6545382 2.331466 -2.144057
-8.8781691 2.7075512 -2.1428835
-10.631932 3.2444229 -2.1607211
-13.195805 4.0318418 -2.1853898
-17.809401 5.4482756 -2.2867565
-26.862307 8.2228804 -2.4577918
-7.6426616 2.3570309 -2.1430218
-8.8742504 2.7402508 -2.1442335
-10.620543 3.2815135 -2.1607211
-13.204294 4.0848885 -2.1891441
-17.835783 5.5245051 -2.2926061
-26.894339 8.3354797 -2.4633698
-7.6306982 2.3825428 -2.1419864
-8.8720713 2.7735374 -2.146033
-10.614645 3.3203247 -2.1618662
-13.205036 4.135675 -2.1916471
-17.835331 5.5926704 -2.2950437
-26.872683 8.4316874 -2.4640672
-7.622335 2.4091647 -2.1419864
-8.856761 2.8027258 -2.1446834
-10.612348 3.3603196 -2.163774
-13.186754 4.1805506 -2.1910214
-17.845974 5.6645026 -2.2989435
-26.92284 8.5507708 -2.4713881
-7.6175609 2.4369328 -2.1430218
-8.8376446 2.830653 -2.1424339
-10.596815 3.3961427 -2.1630108
-13.198414 4.2350054 -2.1954014
-17.84877 5.7340484 -2.3018682
-26.980083 8.6727438 -2.4794066
-7.6181955 2.466485 -2.1456099
-8.8351259 2.8638864 -2.1442335
-10.584895 3.4331145 -2.1630108
-13.206098 4.2883692 -2.199156
-17.862631 5.8073664 -2.3062558
-26.995119 8.7816572 -2.4835901
-7.604033 2.4912586 -2.144057
-8.8343334 2.8977466 -2.1464829
-10.572846 3.470042 -2.1630108
-13.202307 4.3381448 -2.2010331
-17.891277 5.885808 -2.312593
-26.968084 8.8770866 -2.4839387
-7.5842876 2.5141375 -2.1409512
-8.8278637 2.9297965 -2.1473827
-10.57185 3.5106373 -2.1653006
-13.19833 4.3879423 -2.2029104
-17.889456 5.9544935 -2.3150301
-27.004982 8.9938335 -2.4902139
-7.5846243 2.543668 -2.1435394
-8.8120413 2.9587312 -2.146033
-10.561392 3.5481443 -2.1656821
-13.194167 4.4377623 -2.2047877
-17.894899 6.0257769 -2.3184426
-27.00741 9.0994883 -2.4933515
-7.5830154 2.5726101 -2.1456099
-8.7868967 2.9844592 -2.1424339
-10.558237 3.5881474 -2.1675904
-13.212257 4.4952445 -2.2104194
-17.896307 6.0958819 -2.3213673
-27.062235 9.2232733 -2.5013697
-7.5721626 2.5984378 -2.1450922
-8.7911701 3.0201786 -2.146033
-10.545648 3.6249812 -2.1675904
-13.203958 4.5439081 -2.2116706
-17.889935 6.1634879 -2.3233173
-27.044943 9.3228769 -2.5027642
-7.5575714 2.6229539 -2.1435394
-8.7860975 3.0527639 -2.1473827
-10.538491 3.6637042 -2.168735
-13.202938 4.5951686 -2.2141736
-17.898302 6.2363491 -2.3272171
-27.079962 9.4408445 -2.5090396
-7.5520144 2.650598 -2.1445746
-8.7814417 3.0838203 -2.1487324
-10.523787 3.6998177 -2.1683536
-13.209991 4.6467857 -2.2179282
-17.922462 6.3114939 -2.3330669
-27.099457 9.5538559 -2.5139203
-7.5431828 2.6756272 -2.1445746
-8.7669497 3.1131525 -2.1478326
-10.513309 3.7353528 -2.168735
-13.201135 4.6955209 -2.2191796
-17.930243 6.3846669 -2.3369668
-27.12393 9.6637297 -2.5191495
-7.5465269 2.7065053 -2.1481981
-8.7468586 3.1404436 -2.1455832
-10.513142 3.7766726 -2.1714065
-13.20697 4.7495947 -2.222934
-17.911581 6.4485655 -2.3374541
-27.146265 9.7786083 -2.5243788
-7.5352182 2.732173 -2.1476805
-8.7450027 3.1742792 -2.1478326
-10.503586 3.8146884 -2.1721697
-13.205162 4.8010669 -2.2254369
-17.918808 6.5219131 -2.3413541
-27.160639 9.8910332 -2.5289109
-7.5220079 2.7571299 -2.1466453
-8.7338686 3.2047858 -2.1478326
-10.48099 3.8479462 -2.1702616
-13.206864 4.8539443 -2.2285657
-17.918287 6.5926471 -2.3442788
-27.137169 9.9899063 -2.5299568
-7.5032792 2.7800157 -2.144057
-8.7317638 3.238642 -2.1500821
-10.482219 3.8899755 -2.1733146
-13.208358 4.9068947 -2.2316945
-17.917496 6.6634536 -2.3472037
-27.154417 10.104027 -2.5348375
-7.495338 2.8068657 -2.1445746
-8.7094574 3.2650001 -2.1473827
-10.481443 3.9313655 -2.1759858
-13.198545 4.9557514 -2.2329459
-17.946156 6.745513 -2.3540282
-27.215954 10.235229 -2.5439017
-7.4981427 2.8377991 -2.1481981
-8.6870737 3.2912374 -2.1446834
-10.467656 3.9679289 -2.1759858
-13.20887 5.0123024 -2.237639
-17.92992 6.8109403 -2.3550034
-27.20986 10.341487 -2.5466907
-7.4827795 2.8618836 -2.1466453
-8.681572 3.3221166 -2.146033
-10.464743 4.0086575 -2.1782756
-13.190332 5.0553708 -2.2373261
-17.936892 6.8817339 -2.3589032
-27.244274 10.46355 -2.5533147
-7.4858613 2.891556 -2.1502688
-8.6844635 3.3580234 -2.1496322
-10.449561 4.0426302 -2.1778939
-13.18734 5.10709 -2.2398291
-17.968287 6.9658308 -2.3662152
-27.168558 10.537987 -2.5494797
-7.4667249 2.9141557 -2.1476805
-8.6763191 3.3897357 -2.150532
-10.44453 4.082653 -2.1798022
-13.18415 5.1588502 -2.242332
-17.966042 7.0371971 -2.3691401
-27.213232 10.664747 -2.5571494
-7.4511151 2.938076 -2.1461277
-8.6535587 3.4157064 -2.1478326
-10.452127 4.1277428 -2.1843815
-13.188107 5.213552 -2.2460864
-17.974592 7.1130161 -2.3735275
-27.231413 10.781672 -2.5623789
-7.4533763 2.9690738 -2.1497512
-8.6397724 3.4451704 -2.1473827
-10.459535 4.1729321 -2.1889608
-13.177166 5.262486 -2.2473378
-17.971775 7.1845546 -2.3764522
-27.212109 10.884068 -2.564122
-7.4411755 2.99435 -2.1492336
-8.6385384 3.4796789 -2.1500821
-10.448548 4.2108831 -2.1897242
-13.17337 5.3143668 -2.2498407
-17.987082 7.2635975 -2.3818147
-27.27001 11.017801 -2.5731862
-7.4270978 3.0188515 -2.1481981
-8.6323681 3.5105069 -2.1514318
-10.433785 4.2473302 -2.1897242
-13.181288 5.3684506 -2.254221
-17.988628 7.3336968 -2.385227
-27.301487 11.141525 -2.5798099
-7.4098973 3.0405312 -2.1461277
-8.6236677 3.5420995 -2.1523318
-10.426907 4.2848916 -2.1912506
-13.166122 5.4159322 -2.2548466
-18.006975 7.4145846 -2.3910768
-27.400711 11.28816 -2.5927091
-43.704884 18.022772 -2.4775846
-7.4099469 3.0708158 -2.1492336
-8.6058502 3.5699399 -2.1509819
-10.430019 4.3287883 -2.1950669
-13.16538 5.4694371 -2.2579753
-18.010309 7.4895916 -2.3949764
-27.372179 11.38833 -2.593755
