# .PCD v0.7 - Point Cloud Data file format
VERSION 0.7
FIELDS x y z
SIZE 4 4 4
TYPE F F F
COUNT 1 1 1
WIDTH 1462
HEIGHT 1
VIEWPOINT 0 0 0 1 0 0 0
POINTS 1462
DATA ascii
-3.9865904 -49.333263 2.5938749
-0.77763873 -9.602252 -1.8725995
-0.88013715 -10.820937 -1.7195278
-1.0619899 -13.028623 -1.6050195
-1.5324558 -18.719635 -1.6432343
-2.2204359 -27.00769 -1.4201887
-3.4876049 -42.330105 -0.74137825
-0.59542185 -7.1055613 -1.9106023
-4.0134091 -47.794483 0.83719194
-0.68548506 -8.1461744 -1.8873394
-0.8070026 -9.5702763 -1.8668753
-0.92368168 -10.908502 -1.7339199
-1.6061934 -18.851429 -1.6552618
-2.3113472 -27.016096 -1.421026
-0.61881316 -7.1016226 -1.9100846
-4.1597056 -47.641468 0.83474863
-0.71130651 -8.1302681 -1.8841901
-0.8368476 -9.5460339 -1.8626775
-0.94426328 -10.728279 -1.7057616
-1.1382421 -12.880697 -1.587714
-1.6643058 -18.796385 -1.6509041
-2.3977377 -26.972475 -1.4191419
-3.7756515 -42.305382 -0.74137825
-0.64394772 -7.1032677 -1.9111199
-4.3104248 -47.455383 0.83174676
-0.73897487 -8.1199722 -1.8823904
-0.86927342 -9.5332794 -1.8607695
-0.98566669 -10.768196 -1.7126448
-1.1121767 -12.10373 -1.4924121
-1.6758403 -18.203196 -1.5993078
-2.4911404 -26.955986 -1.4187232
-0.66801447 -7.0932832 -1.9090494
-0.76878273 -8.132865 -1.8859898
-0.90347111 -9.539959 -1.8626775
-1.0367092 -10.906279 -1.7351713
-1.1402782 -11.951566 -1.4741317
-2.5867424 -26.963032 -1.4195606
-0.6930666 -7.0811739 -1.9064611
-0.79716635 -8.1301317 -1.8859898
-0.93727726 -9.5248604 -1.8603877
-1.0640558 -10.774628 -1.7148348
-1.1851188 -11.979119 -1.4780315
-2.0838053 -20.988245 -1.8452613
-2.686738 -26.965294 -1.4201887
-4.218461 -42.263527 -0.74137825
-0.71836597 -7.0844774 -1.9080141
-0.82557863 -8.1135845 -1.8828404
-0.970918 -9.5254374 -1.8611511
-1.0984441 -10.739405 -1.7098289
-1.4286492 -13.919794 -1.7181141
-2.1619463 -21.02841 -1.8494449
-2.7812622 -26.959724 -1.420398
-4.3865185 -42.447453 -0.7448687
-0.74309033 -7.0819268 -1.9080141
-5.0036778 -47.686909 0.83694762
-0.85268366 -8.1127396 -1.8832903
-1.0060143 -9.5395622 -1.8645855
-1.1330141 -10.725881 -1.7082645
-1.5053462 -14.203189 -1.7537
-2.2389181 -21.054417 -1.8524082
-2.8736048 -26.978157 -1.4218634
-4.5452824 -42.531303 -0.74661398
-0.76719493 -7.0851851 -1.909567
-0.88015455 -8.101964 -1.8814906
-1.0359446 -9.5205603 -1.8615327
-1.1723759 -10.739535 -1.7110804
-1.5698292 -14.334005 -1.7705179
-2.3180645 -21.132036 -1.8599035
-2.9668887 -26.96002 -1.4214448
-0.79106379 -7.0747848 -1.9074965
-0.90701711 -8.0990009 -1.8814906
-1.067418 -9.5012779 -1.8584797
-1.201357 -10.676697 -1.7016943
-1.6128997 -14.289269 -1.7656432
-2.3732128 -20.959499 -1.8454357
-3.0535753 -26.92622 -1.4201887
-4.8346791 -42.499378 -0.74661398
-0.81610131 -7.0641618 -1.9054259
-0.93878138 -8.1012669 -1.8828404
-1.1060814 -9.5304546 -1.8649671
-1.2569623 -10.797583 -1.721718
-1.6617687 -14.231707 -1.759306
-2.4391384 -20.857651 -1.8372431
-3.1606615 -26.946035 -1.4218634
-5.0020757 -42.580673 -0.7483592
-0.84121263 -7.0651059 -1.9064611
-0.96494806 -8.0923033 -1.8814906
-1.1372453 -9.5089912 -1.8615327
-1.3047414 -10.893385 -1.7376742
-1.7136893 -14.265536 -1.7641808
-2.4895284 -20.663069 -1.8208576
-3.2672276 -27.078173 -1.4293998
-0.86463624 -7.0622778 -1.9064611
-0.9917649 -8.07728 -1.8787912
-1.16949 -9.511013 -1.8626775
-1.3333312 -10.812303 -1.7254723
-1.7539716 -14.182634 -1.7546749
-2.5577178 -20.622618 -1.8180687
-3.3666492 -27.106243 -1.4314932
-0.89123964 -7.0648117 -1.9080141
-1.0219079 -8.0892363 -1.8823904
-1.2038496 -9.5027676 -1.8619143
-1.3717055 -10.797545 -1.7239079
-1.7736582 -13.942087 -1.7256701
-2.6261573 -20.585894 -1.8156284
-3.4801719 -27.204662 -1.4373548
-5.4985137 -42.922657 -0.75534016
-0.91515058 -7.0559096 -1.9064611
-1.0515488 -8.0854368 -1.8823904
-1.2352376 -9.4848804 -1.8592429
-1.4001796 -10.722178 -1.7126448
-1.8708792 -14.287817 -1.7692993
-2.3376987 -17.828709 -1.5731611
-3.5756309 -27.19631 -1.4375641
-0.93798786 -7.0392675 -1.9028376
-1.0802832 -8.0855799 -1.8832903
-1.2678169 -9.4766188 -1.8584797
-1.4236798 -10.613458 -1.6960627
-1.893488 -14.07856 -1.7441941
-2.4663963 -18.314083 -1.616739
-3.6705425 -27.183662 -1.4375641
-0.96281672 -7.0378652 -1.9033554
-1.1061164 -8.0643835 -1.879241
-1.2992874 -9.4604654 -1.8561901
-1.4671848 -10.655389 -1.7035716
-1.9122387 -13.869655 -1.7190892
-2.5196681 -18.22839 -1.6099408
-3.7632165 -27.15486 -1.4367268
-0.98722124 -7.0422864 -1.9054259
-1.1325821 -8.0587416 -1.8787912
-1.3298306 -9.4502726 -1.8550451
-1.4969928 -10.611345 -1.6973141
-1.9510033 -13.812133 -1.7127519
-2.5792646 -18.214016 -1.6094179
-3.8476281 -27.102682 -1.4346334
-1.0119425 -7.0485344 -1.9080141
-11.438416 -79.573853 1.4032433
-1.1604093 -8.0626574 -1.8805909
-1.362842 -9.457469 -1.8573349
-1.5273724 -10.573087 -1.6919955
-2.0182652 -13.936866 -1.7290823
-3.0341144 -20.900246 -1.8477017
-3.9369087 -27.085819 -1.434424
-1.0363616 -7.0352225 -1.9054259
-1.18741 -8.0508461 -1.8787912
-1.3980696 -9.456296 -1.8580981
-1.5826212 -10.678797 -1.7098289
-1.940742 -13.0795 -1.6235435
-3.0062191 -20.211601 -1.7877386
-4.0343904 -27.059357 -1.433796
-1.0603365 -7.027741 -1.9043906
-1.2183661 -8.0560741 -1.8810407
-1.431659 -9.4552393 -1.8588613
-1.618701 -10.665396 -1.7085775
-1.9683678 -12.938848 -1.6069694
-3.0845532 -20.252197 -1.7922707
-4.1306295 -27.056953 -1.434424
-1.0836821 -7.0163603 -1.90232
-1.2444789 -8.0481377 -1.880141
-1.4661579 -9.4598856 -1.8607695
-1.6407332 -10.57408 -1.6948112
-1.8541565 -11.92207 -1.4814438
-3.2141471 -20.61928 -1.8257385
-4.2203288 -27.043108 -1.434424
-1.107546 -7.0165448 -1.9033554
-1.2716514 -8.0379696 -1.8787912
-1.4962916 -9.4472151 -1.8592429
-1.6748466 -10.550732 -1.6919955
-1.9013772 -11.950813 -1.4858311
-3.2524178 -20.419619 -1.8090045
-4.3348556 -27.15444 -1.441123
-1.1338781 -7.0240788 -1.9064611
-1.300323 -8.0373287 -1.8796909
-1.528631 -9.4380589 -1.8584797
-1.7110326 -10.540919 -1.6913697
-1.9513682 -11.995047 -1.4921683
-3.3627486 -20.648054 -1.8302706
-4.46243 -27.340202 -1.4517996
-1.157761 -7.0162663 -1.9054259
-1.3283708 -8.0327406 -1.8796909
-1.5602853 -9.4249172 -1.8569533
-1.7410278 -10.49396 -1.6847994
-2.3074143 -13.877835 -1.7273762
-3.3494239 -20.123232 -1.7847753
-4.5637541 -27.359919 -1.4536836
-4.8311033 -28.90053 -0.51146024
-1.1796761 -6.996942 -1.9012847
-4.8734961 -28.875162 0.51114607
-1.3564024 -8.0280552 -1.8796909
-1.5938288 -9.4232845 -1.8577164
-1.7726952 -10.458605 -1.6801064
-2.3445427 -13.803155 -1.7190892
-3.3371539 -19.626261 -1.7417203
-4.6585598 -27.339884 -1.4534743
-1.204092 -6.9927816 -1.9012847
-1.3844175 -8.0232716 -1.8796909
-1.6273801 -9.4215345 -1.8584797
-1.8105396 -10.460138 -1.6813577
-2.4208665 -13.957227 -1.7393193
-3.5675375 -20.546928 -1.8245183
-4.7286282 -27.177845 -1.4457285
-1.2291641 -6.992341 -1.90232
-1.4076383 -7.999445 -1.875192
-1.6585542 -9.406127 -1.8565717
-1.8507099 -10.485203 -1.6863638
-2.4619517 -13.9198 -1.7356633
-3.6378474 -20.526501 -1.8238209
-4.8117514 -27.122686 -1.4436352
-1.2537073 -6.9958329 -1.9043906
-1.4365872 -8.0002356 -1.8765416
-1.6893889 -9.3986444 -1.8561901
-1.8974545 -10.535056 -1.695437
-2.5306201 -14.022473 -1.7495564
-3.72614 -20.605825 -1.8320136
-4.9042606 -27.093931 -1.4430071
-1.2779481 -6.9835901 -1.90232
-1.4659083 -8.00284 -1.8783413
-1.7206368 -9.3750095 -1.8527553
-1.9139029 -10.407578 -1.6760391
-3.8240619 -20.733767 -1.8445642
-5.0006318 -27.060064 -1.4421698
-1.3019643 -6.9771876 -1.9018024
-1.4952304 -7.9974132 -1.8783413
-1.7522669 -9.3631573 -1.8516105
-1.9618702 -10.462963 -1.6860509
-3.900835 -20.74379 -1.8466558
-5.0950594 -27.042442 -1.4421698
-1.3252277 -6.966907 -1.9002496
-1.5217428 -7.9924111 -1.8783413
-1.7864106 -9.3646984 -1.8531371
-2.0058184 -10.504908 -1.6938726
-2.64972 -13.850924 -1.7315198
-4.0223494 -20.986383 -1.8694906
-5.1907291 -27.056782 -1.4438446
-1.349793 -6.9700603 -1.90232
-1.5462912 -7.9698339 -1.8742923
-1.8174555 -9.3587227 -1.8531371
-2.046247 -10.517233 -1.6970013
-2.6520996 -13.605831 -1.7020274
-4.0709367 -20.865374 -1.8599035
-5.2567883 -26.893446 -1.4360987
-1.3729932 -6.9596205 -1.9007671
-1.5738444 -7.9703975 -1.8756418
-1.8485887 -9.3446169 -1.8516105
-2.0876353 -10.543332 -1.7023201
-2.7346706 -13.785835 -1.7256701
-4.1868539 -21.067949 -1.8792521
-5.3669834 -26.981646 -1.4417511
-1.3961371 -6.9491029 -1.8992143
-1.6034315 -7.9664855 -1.8760917
-1.8796457 -9.33041 -1.8500841
-2.1137593 -10.473646 -1.6923083
-2.6624432 -13.168653 -1.6496235
-4.2599721 -21.051254 -1.8790778
-5.4721894 -26.993113 -1.4434259
-1.4188364 -6.9366169 -1.8971437
-1.630838 -7.958931 -1.8756418
-1.9137803 -9.3314838 -1.8516105
-2.1471262 -10.450724 -1.6898053
-2.8712647 -13.950625 -1.7488252
-4.3503127 -21.118217 -1.8863989
-5.5599189 -26.942551 -1.4417511
-1.4446162 -6.939187 -1.8992143
-1.6566209 -7.9436512 -1.8733923
-1.9455407 -9.3209028 -1.8508474
-2.143568 -10.251742 -1.6588312
-2.7587864 -13.171119 -1.6523046
-4.4485517 -21.201574 -1.8952887
-5.6687098 -26.993343 -1.4455192
-1.47004 -6.933846 -1.8992143
-1.6827217 -7.9301958 -1.8715929
-1.9796907 -9.3137093 -1.8508474
-2.2362521 -10.502714 -1.7007557
-4.3603139 -20.42601 -1.8273073
-5.7517376 -26.898169 -1.4415417
-1.4942349 -6.9286723 -1.8992143
-1.712599 -7.927784 -1.8724926
-2.011359 -9.3029051 -1.8500841
-2.2666295 -10.465885 -1.6960627
-2.8428657 -13.104481 -1.6464549
-4.4920416 -20.689087 -1.8522338
-5.8464413 -26.881832 -1.4417511
-1.5179969 -6.9215274 -1.8986967
-1.7401328 -7.9277711 -1.8738421
-2.0421329 -9.2881584 -1.8485577
-2.2733037 -10.330982 -1.6754133
-2.8162317 -12.777056 -1.6064818
-4.3125238 -19.533197 -1.7500874
-5.9295235 -26.834991 -1.4402856
-1.5388408 -6.9070268 -1.8961084
-1.7690679 -7.9273553 -1.875192
-2.0720665 -9.2775021 -1.8477943
-2.3188398 -10.365394 -1.6822965
-2.8095977 -12.538577 -1.5777208
-4.3227777 -19.275776 -1.7282984
-6.0056477 -26.736183 -1.4360987
-1.5629408 -6.9016132 -1.8961084
-1.7941425 -7.9097285 -1.8724926
-2.1040051 -9.2682981 -1.8474127
-2.3900449 -10.511334 -1.7073259
-2.8092663 -12.335139 -1.5533468
-4.2921829 -18.831263 -1.6897755
-6.0642648 -26.563177 -1.4279343
-1.5870235 -6.8961153 -1.8961084
-1.8182403 -7.8882265 -1.8688934
-2.1385505 -9.2704639 -1.8493209
-2.3871436 -10.331631 -1.6794806
-3.1826077 -13.752536 -1.7332259
-4.30125 -18.571596 -1.6678123
-6.0991826 -26.292812 -1.4145364
-1.6106453 -6.8886528 -1.8955908
-1.8462087 -7.8837285 -1.8693433
-2.1673129 -9.2476501 -1.8462679
-2.4611123 -10.484776 -1.7057616
-2.6722476 -11.366415 -1.4336711
-4.824192 -20.503656 -1.842821
-6.0608182 -25.719261 -1.3848095
-1.6333432 -6.8773494 -1.8940378
-1.8750689 -7.8829236 -1.8706928
-2.1986721 -9.2362089 -1.8455048
-2.4871585 -10.431928 -1.6985657
-4.9494529 -20.711483 -1.8630412
-6.3709183 -26.618645 -1.434424
-1.657339 -6.8716063 -1.8940378
-1.9007425 -7.8747678 -1.870243
-2.2318208 -9.2322941 -1.8462679
-2.5129132 -10.387142 -1.6926211
-3.3109629 -13.665014 -1.7264012
-5.0156112 -20.668907 -1.860775
-6.4761205 -26.667244 -1.4381922
-1.6801172 -6.8660727 -1.8940378
-1.9268277 -7.8624072 -1.8688934
-2.2633595 -9.2286558 -1.8470311
-2.5444441 -10.359123 -1.6894923
-2.7711308 -11.265045 -1.424409
-5.003634 -20.325209 -1.8313165
-6.5739517 -26.663866 -1.439239
-1.7036078 -6.8582916 -1.8935202
-1.9509678 -7.8423953 -1.8657441
-2.2946103 -9.2168894 -1.8462679
-2.5724649 -10.317595 -1.6841737
-3.3076956 -13.246745 -1.6764348
-5.0813146 -20.334681 -1.8337568
-6.6718321 -26.660131 -1.4402856
-1.7280097 -6.8541765 -1.8940378
-1.9792844 -7.8393168 -1.8666438
-2.3248467 -9.2012091 -1.8447415
-2.5915046 -10.241526 -1.6732231
-3.3344104 -13.158148 -1.6666852
-5.117003 -20.177769 -1.8212065
-6.7520704 -26.586349 -1.4375641
-1.7495309 -6.8387446 -1.8914497
-2.0071204 -7.8342476 -1.8670937
-2.3549998 -9.1854315 -1.8432151
-2.6390276 -10.278337 -1.6807321
-3.3570871 -13.056068 -1.6552296
-5.2092519 -20.244684 -1.8288761
-6.8069572 -26.41563 -1.4296092
-1.7714499 -6.8251166 -1.889379
-2.0344551 -7.8271933 -1.8670937
-2.3880372 -9.180954 -1.8439783
-2.6614456 -10.21745 -1.6722846
-3.4231825 -13.123024 -1.6652229
-5.2829046 -20.237944 -1.8299218
-6.8142581 -26.067078 -1.4120243
-1.7987072 -6.8319688 -1.8930025
-2.061765 -7.820044 -1.8670937
-2.4205711 -9.1744604 -1.8443599
-2.67237 -10.114516 -1.6569542
-3.4537375 -13.053424 -1.6579107
-5.3295484 -20.128857 -1.8217293
-6.7946458 -25.626131 -1.389415
-1.8220453 -6.823782 -1.8924849
-2.0870361 -7.8052697 -1.8652942
-2.4520729 -9.1640587 -1.8439783
-2.7143066 -10.12993 -1.6610212
-3.5347786 -13.173579 -1.6747286
-5.1564255 -19.203819 -1.7396286
-6.8218212 -25.370808 -1.3768544
-1.8478734 -6.8248386 -1.8945554
-2.1152883 -7.8016987 -1.866194
-2.4840481 -9.1554432 -1.8439783
-2.7677765 -10.187114 -1.6719718
-3.6005449 -13.233949 -1.6839907
-5.1025229 -18.741623 -1.6993626
-7.2539144 -26.607052 -1.4453099
-1.8675944 -6.8034434 -1.8904144
-2.1425085 -7.7942677 -1.866194
-2.5128663 -9.1353598 -1.8416885
-2.789156 -10.12597 -1.6635244
-3.5152912 -12.744805 -1.6232998
-5.6200876 -20.36195 -1.8480502
-7.362709 -26.639322 -1.4484501
-1.8882235 -6.7857165 -1.8873086
-2.1672983 -7.7833648 -1.8652942
-2.5431566 -9.1208601 -1.8405437
-2.8381157 -10.171844 -1.6725975
-3.4731376 -12.431002 -1.584789
-5.6782446 -20.296158 -1.8438668
-7.4542389 -26.626301 -1.4490781
-1.9122877 -6.7849956 -1.8888614
-2.1949825 -7.7776279 -1.8657441
-2.5739224 -9.1142645 -1.8409253
-2.8719926 -10.156172 -1.671659
-3.5603149 -12.573511 -1.6045319
-5.7547526 -20.309807 -1.8468301
-7.5405927 -26.577063 -1.4478221
-1.9370214 -6.7819943 -1.8898968
-2.2175493 -7.7590642 -1.8630446
-2.6068032 -9.1089993 -1.8416885
-2.9252329 -10.214958 -1.6829221
-3.5697086 -12.449053 -1.5901513
-5.8063679 -20.222569 -1.8407292
-7.5834594 -26.394503 -1.439239
-1.9633688 -6.7844701 -1.8924849
-2.2470574 -7.7546272 -1.8639444
-2.6353023 -9.0885305 -1.8393987
-2.9731178 -10.240211 -1.6888667
-3.6064467 -12.405387 -1.5862515
-5.844645 -20.091219 -1.8306192
-7.7036095 -26.447069 -1.4436352
-1.9843208 -6.7683063 -1.8898968
-2.2746618 -7.7486062 -1.8643943
-2.6636903 -9.067975 -1.8371091
-3.0305836 -10.303679 -1.7010686
-5.9569783 -20.214029 -1.8436925
-7.6873503 -26.052219 -1.4235381
-2.0046356 -6.750227 -1.886791
-2.3016949 -7.7406197 -1.8643943
-2.6964483 -9.0623846 -1.8378724
-3.0625839 -10.279787 -1.6988785
-3.3678145 -11.289912 -1.4465892
-5.9465814 -19.922012 -1.8189403
-7.7038927 -25.776457 -1.4099307
-2.0298548 -6.7487383 -1.8883438
-2.326453 -7.7250733 -1.8625948
-2.7303307 -9.0604362 -1.8393987
-3.0978782 -10.267142 -1.6985657
-3.4588709 -11.449111 -1.4685256
-6.0183926 -19.90876 -1.8196375
-7.6248698 -25.191217 -1.3793666
-2.0556507 -6.7490039 -1.8904144
-2.3488572 -7.7019935 -1.8589954
-2.7619421 -9.0508499 -1.8393987
-3.1158032 -10.197702 -1.6888667
-3.4744236 -11.357242 -1.4582887
-6.0709367 -19.832386 -1.8145826
-7.7326584 -25.229376 -1.3829255
-2.0803363 -6.7454791 -1.8914497
-2.376878 -7.6974716 -1.8598953
-2.7906199 -9.0317755 -1.8374907
-3.170063 -10.247152 -1.6988785
-3.4811561 -11.238856 -1.4446392
-6.2173982 -20.060373 -1.8374174
-8.1746569 -26.342928 -1.4455192
-2.1032932 -6.7363319 -1.890932
-2.4048958 -7.6928482 -1.8607951
-2.8180263 -9.0088634 -1.8348193
-3.1833787 -10.164391 -1.6869894
-3.7318139 -11.900954 -1.5314103
-6.1985083 -19.755301 -1.8114449
-8.2569809 -26.283747 -1.4438446
-2.1244669 -6.721581 -1.8888614
-2.4334972 -7.6899805 -1.8621449
-2.8524203 -9.0083303 -1.8367275
-3.2367475 -10.209707 -1.6963756
-6.0690074 -19.108799 -1.7540965
-8.3523102 -26.266184 -1.4444724
-2.1485047 -6.7159643 -1.889379
-2.4591367 -7.6777272 -1.8612449
-2.8832481 -8.9964495 -1.8363459
-3.2367594 -10.087373 -1.6779163
-4.2568221 -13.250502 -1.7088521
-6.0539727 -18.833326 -1.7307388
-8.4194708 -26.16082 -1.4402856
-2.1719341 -6.7084241 -1.889379
-2.4809804 -7.6584063 -1.8585455
-2.9146342 -8.98633 -1.8363459
-3.2805576 -10.108525 -1.683235
-4.016109 -12.360311 -1.5957574
-6.082077 -18.696503 -1.7201056
-8.4901047 -26.083376 -1.4375641
-2.1971743 -6.7103648 -1.8919673
-2.5070903 -7.6478481 -1.8580956
-2.945029 -8.9784803 -1.8367275
-3.2985663 -10.044463 -1.6744747
-4.0617094 -12.353761 -1.5967323
-5.9927464 -18.21633 -1.677748
-8.5885963 -26.076347 -1.4388202
-2.2187617 -6.6971521 -1.8904144
-2.5343847 -7.6408997 -1.8585455
-2.9701693 -8.9495125 -1.8329114
-3.3846841 -10.186605 -1.70013
-4.1787438 -12.561771 -1.6254934
-5.9707232 -17.938204 -1.6540416
-8.7288198 -26.194004 -1.4469846
-2.2378283 -6.6765447 -1.886791
-2.562901 -7.6375489 -1.8598953
-3.0026395 -8.9428129 -1.8336746
-3.4139259 -10.156005 -1.6970013
-4.122921 -12.258092 -1.5879577
-5.9283929 -17.605698 -1.6252803
-8.7946806 -26.087671 -1.4427978
-2.2605765 -6.6709166 -1.8873086
-2.58571 -7.6216259 -1.8580956
-3.033541 -8.9365234 -1.8344377
-3.4361448 -10.110961 -1.6913697
-3.9507372 -11.618509 -1.5067927
-5.8763037 -17.261534 -1.5952986
-8.8476381 -25.960058 -1.4373548
-12.789725 -37.505203 -0.69167382
-2.2839372 -6.6670389 -1.8883438
-2.6078093 -7.6037931 -1.8558462
-3.0644326 -8.9301291 -1.8352009
-3.4863429 -10.148084 -1.6995043
-4.2094917 -12.23913 -1.5891764
-6.9380512 -20.149567 -1.8644356
-8.9375782 -25.941908 -1.4379829
-12.872315 -37.320438 -0.68909079
-2.3096232 -6.6622734 -1.889379
-2.636251 -7.6001682 -1.857196
-3.0945668 -8.9114199 -1.8336746
-3.4949734 -10.053142 -1.6857381
-6.6256905 -19.026392 -1.7626377
-8.6775589 -24.89057 -1.3814601
-12.991973 -37.245071 -0.68853235
-2.3328652 -6.6541705 -1.889379
-2.6666706 -7.5978093 -1.8589954
-3.1230526 -8.8931532 -1.8321481
-3.5234914 -10.022244 -1.6826093
-4.1401129 -11.76304 -1.5311666
-6.9660459 -19.781166 -1.8348027
-8.7125912 -24.713205 -1.3732957
-13.099113 -37.114231 -0.68699652
-2.352205 -6.6350632 -1.8862734
-2.6938281 -7.5902915 -1.8594455
-3.155391 -8.8858986 -1.8329114
-3.5974927 -10.119699 -1.7010686
-4.3987904 -12.360068 -1.6108691
-6.8719754 -19.298754 -1.7922707
-9.3245821 -26.157579 -1.4553584
-13.225899 -37.060745 -0.68685693
-2.3773077 -6.6322665 -1.8878261
-2.7183321 -7.5753384 -1.8580956
-3.187716 -8.8785248 -1.8336746
-3.6201005 -10.07176 -1.695124
-4.4109921 -12.258717 -1.5996571
-6.7186074 -18.661654 -1.7352709
-9.3955193 -26.068502 -1.4522183
-13.355181 -37.014355 -0.68685693
-2.4011018 -6.6257443 -1.8883438
-2.7414348 -7.5566444 -1.8558462
-3.2160079 -8.8599615 -1.8321481
-3.6741257 -10.111046 -1.7038844
-4.4802227 -12.315998 -1.6091629
-6.7782569 -18.623108 -1.7338763
-9.4714136 -25.994263 -1.4499154
-13.470603 -36.929932 -0.68615884
-2.4268734 -6.6245785 -1.8904144
-2.7704799 -7.5543475 -1.8576458
-3.2455637 -8.8449965 -1.8313849
-3.7168889 -10.118557 -1.7073259
-4.5046864 -12.249981 -1.602582
-6.8019447 -18.487144 -1.7234175
-9.5841837 -26.021017 -1.453265
-13.630331 -36.986385 -0.68804371
-2.4459579 -6.605197 -1.8873086
-2.7928069 -7.5378094 -1.8558462
-3.2750535 -8.8299322 -1.8306217
-3.7634814 -10.141363 -1.7132704
-4.5763931 -12.318713 -1.6135503
-9.6230555 -25.861807 -1.4461473
-13.805426 -37.06226 -0.69034743
-2.4664938 -6.593431 -1.8862734
-2.82252 -7.5371389 -1.8580956
-3.3029392 -8.8153458 -1.8298583
-3.7919211 -10.109667 -1.7101418
-7.0642562 -18.804117 -1.7574084
-9.5726652 -25.454168 -1.4252129
-13.900079 -36.94141 -0.68895119
-2.4894946 -6.5847812 -1.8862734
-2.8454304 -7.5222697 -1.8567461
-3.3364706 -8.8111076 -1.8313849
-3.8121283 -10.06194 -1.7041972
-4.2314339 -11.156922 -1.4651133
-7.4792018 -19.699495 -1.8435181
-9.5123339 -25.041399 -1.4038599
-14.085806 -37.042198 -0.69174361
-2.5138435 -6.5796599 -1.8873086
-2.8701963 -7.5045099 -1.8549464
-3.3658037 -8.7957401 -1.8306217
-3.8405027 -10.025765 -1.7004429
-4.3618498 -11.374878 -1.4958245
-9.8689985 -25.696224 -1.4425884
-14.232237 -37.037601 -0.6925813
-2.5367956 -6.5708451 -1.8873086
-2.8964703 -7.4985867 -1.8558462
-3.3936541 -8.7766123 -1.8290951
-3.8872678 -10.047978 -1.7063874
-4.3027668 -11.110449 -1.4629197
-7.1282692 -18.387297 -1.7253351
-9.9830475 -25.737839 -1.4467753
-14.361437 -36.987694 -0.6925813
-2.5578692 -6.5605969 -1.886791
-14.819938 -37.991592 0.71181387
-2.9254627 -7.4956918 -1.8576458
-3.4227388 -8.7653112 -1.8290951
-3.9158468 -10.017789 -1.7035716
-4.3118668 -11.019569 -1.4529265
-7.6109619 -19.43087 -1.8257385
-10.061169 -25.673082 -1.4451005
-2.5769396 -6.5385962 -1.8831675
-14.928999 -37.880089 0.71069688
-2.9508944 -7.4836221 -1.857196
-3.4534023 -8.7490549 -1.8283319
-3.9612491 -10.025416 -1.7073259
-4.3561444 -11.019219 -1.4548763
-6.7667356 -17.099545 -1.6088949
-10.164028 -25.658316 -1.4463567
-15.0378 -37.942451 -0.71240729
-2.6033208 -6.5385356 -1.8857557
-15.064783 -37.817688 0.71055728
-2.9761388 -7.4673247 -1.8558462
-3.4868288 -8.7442408 -1.8298583
-4.0460162 -10.136282 -1.728601
-5.1058064 -12.77836 -1.6895967
-6.6991744 -16.757612 -1.5789135
-10.29063 -25.715397 -1.4515903
-2.6254079 -6.5276155 -1.8852381
-15.186244 -37.738899 0.71006858
-2.9992759 -7.4496598 -1.8540466
-3.5143969 -8.7247324 -1.8283319
-4.0791578 -10.1166 -1.7276624
-5.1057997 -12.650013 -1.6749724
-7.4260783 -18.389435 -1.7350965
-10.326436 -25.545996 -1.4440539
-2.6496325 -6.5219917 -1.8862734
-15.274208 -37.578217 0.70804417
-3.0252619 -7.4391451 -1.8540466
-3.5448306 -8.7124119 -1.8283319
-4.1144466 -10.1023 -1.7276624
-5.0614972 -12.415204 -1.6462111
-7.7897139 -19.097641 -1.8044724
-10.426118 -25.535679 -1.4455192
-2.6694479 -6.5055532 -1.8842027
-15.517163 -37.81596 0.71348929
-3.0521348 -7.4344797 -1.8553963
-3.5692501 -8.6854572 -1.8252789
-4.1824789 -10.172642 -1.7420545
-7.8320446 -19.011383 -1.7988945
-10.2337 -24.828819 -1.4074187
-16.124367 -39.081924 -0.73795754
-2.6865711 -6.4859571 -1.8810968
-15.75472 -38.016495 0.71830612
-3.0803058 -7.4291811 -1.8567461
-3.601042 -8.6808271 -1.8268054
-4.1982651 -10.110547 -1.7339199
-5.2373147 -12.600432 -1.67546
-7.8047719 -18.768229 -1.7783258
-10.550568 -25.346111 -1.4388202
-2.7099407 -6.478322 -1.8816146
-3.1017041 -7.407599 -1.8540466
-3.6313219 -8.6682043 -1.8268054
-4.2167268 -10.055754 -1.7270367
-5.3288999 -12.695558 -1.6905717
-7.938127 -18.902525 -1.7936652
-10.611114 -25.242849 -1.4350522
-2.7340405 -6.4723821 -1.8826498
-3.1260245 -7.393136 -1.8531467
-3.6569681 -8.6446266 -1.8245157
-4.2271543 -9.9827642 -1.7170249
-5.3485146 -12.62481 -1.6835033
-7.9558325 -18.760973 -1.7828579
-10.681996 -25.165205 -1.4327493
-2.757004 -6.4668341 -1.8836851
-3.1505241 -7.3827291 -1.8531467
-3.6856141 -8.632453 -1.8245157
-4.3122463 -10.090394 -1.7379872
-5.3599129 -12.53582 -1.6739975
-7.8149652 -18.260082 -1.7377112
-10.763814 -25.125975 -1.4325399
-2.7791975 -6.4594302 -1.8842027
-3.174988 -7.372241 -1.8531467
-3.7080057 -8.6057587 -1.8214628
-4.3206491 -10.017996 -1.7279752
-5.1762595 -11.990326 -1.603557
-7.7585559 -17.963362 -1.711913
-10.858172 -25.115807 -1.4340054
-2.7948005 -6.433744 -1.879544
-3.2022574 -7.3646884 -1.8540466
-3.7380219 -8.5927629 -1.8214628
-4.372942 -10.042697 -1.7348584
-5.2958088 -12.150522 -1.6274434
-7.4875302 -17.170948 -1.6388766
-10.968145 -25.129007 -1.4369361
-2.8156905 -6.4204097 -1.8785087
-3.2279449 -7.353466 -1.8540466
-3.7694919 -8.5790043 -1.8214628
-4.2147994 -9.5879383 -1.6588312
-5.113534 -11.621391 -1.5589528
-7.5696883 -17.187151 -1.6430601
-11.027951 -25.015533 -1.4327493
-2.8423324 -6.4171124 -1.8805792
-3.2493463 -7.3291144 -1.8508973
-3.8048925 -8.5741043 -1.8233709
-4.2426982 -9.5561781 -1.6560154
-5.1399713 -11.56629 -1.554078
-7.643158 -17.182955 -1.645326
-11.121189 -24.978596 -1.4329586
-16.286383 -36.562645 -0.69865471
-2.8642557 -6.4031248 -1.879544
-3.2753909 -7.3153777 -1.8504474
-3.8275738 -8.5446444 -1.8199363
-4.2631474 -9.5081186 -1.6503837
-5.1912694 -11.567294 -1.5567591
-7.6728964 -17.088921 -1.6388766
-11.157549 -24.826675 -1.426469
-2.8849993 -6.3895659 -1.8785087
-3.3044448 -7.3151302 -1.8531467
-3.8573771 -8.5312319 -1.8199363
-4.2791853 -9.4597321 -1.6444392
-5.1256142 -11.320354 -1.5258043
-7.6387424 -16.855156 -1.619005
-11.337138 -25.004183 -1.4388202
-2.9045706 -6.3764472 -1.8774734
-3.3299584 -7.3035512 -1.8531467
-3.8840177 -8.5148211 -1.8191731
-4.3827376 -9.5992756 -1.6713461
-5.2071772 -11.394474 -1.5382349
-7.5289078 -16.467333 -1.5841427
-11.40274 -24.917238 -1.4360987
-2.9276173 -6.3680253 -1.8779911
-3.3484602 -7.280076 -1.8499974
-3.9153593 -8.504777 -1.8199363
-4.6145296 -10.018889 -1.7470603
-5.0712404 -11.000368 -1.4872936
-7.4811597 -16.213009 -1.5621796
-11.036613 -23.907328 -1.3799946
-2.9479058 -6.3565288 -1.8774734
-3.3705699 -7.2612729 -1.8481979
-3.9435387 -8.4917469 -1.8199363
-4.6136708 -9.9256935 -1.7336069
-5.5199156 -11.864521 -1.6067256
-7.5343475 -16.179567 -1.5614822
-11.152043 -23.937456 -1.3839722
-17.000193 -36.457024 -0.70214522
-2.971184 -6.3456817 -1.8774734
-3.3967233 -7.2512283 -1.8486477
-3.9729698 -8.4736824 -1.8191731
-4.6592503 -9.9283876 -1.7370484
-8.2602005 -17.577709 -1.6991882
-11.617137 -24.69887 -1.4304465
-17.137556 -36.419174 -0.70256406
-2.9933167 -6.3352714 -1.8774734
-21.568886 -45.62933 0.88096255
-3.4249434 -7.2422523 -1.8495475
-3.9983258 -8.4508886 -1.8172649
-4.670207 -9.8620739 -1.7282882
-8.3988676 -17.703924 -1.7143533
-11.699857 -24.650951 -1.4300278
-17.306963 -36.43198 -0.70403004
-3.0123582 -6.3155398 -1.8748853
-21.645386 -45.380493 0.87761176
-3.4510424 -7.2320118 -1.8499974
-4.0326581 -8.4432631 -1.8187915
-4.7003584 -9.8324156 -1.7260981
-5.2176766 -10.909672 -1.4848562
-8.4391088 -17.629572 -1.7099956
-11.8281 -24.687157 -1.4346334
-3.0310841 -6.3065743 -1.8748853
-21.819046 -45.377148 0.87886828
-3.4686756 -7.2105989 -1.8472981
-4.0600157 -8.4323215 -1.8191731
-4.7329402 -9.8255444 -1.7273496
-5.7890143 -12.007224 -1.6367054
-8.4667454 -17.545553 -1.7044177
-11.888227 -24.613905 -1.4325399
-22.07403 -45.682674 -0.88560492
-3.0575497 -6.3023753 -1.8769557
-22.013155 -45.354435 0.87998521
-3.4916754 -7.1908245 -1.8454984
-4.0908947 -8.4173841 -1.8191731
-4.750782 -9.7708244 -1.7207794
-5.846014 -12.012699 -1.6403615
-8.5213976 -17.494698 -1.7025002
-11.978363 -24.570166 -1.4325399
-3.0823278 -6.2945962 -1.8779911
-22.205622 -45.327332 0.88103241
-3.5180097 -7.1779776 -1.8454984
-4.1202502 -8.4030542 -1.8191731
-4.8013568 -9.783493 -1.7260981
-5.8406649 -11.895998 -1.6271995
-8.4945431 -17.286032 -1.6850692
-12.062293 -24.52462 -1.4323306
-3.1006188 -6.2791438 -1.8764381
-22.400097 -45.343082 0.88277757
-3.5426552 -7.1680202 -1.8459483
-4.1411319 -8.3752661 -1.8161201
-4.8188772 -9.7374201 -1.7207794
-5.9531865 -12.02422 -1.6474299
-8.494318 -17.141727 -1.6737388
-12.108057 -24.412914 -1.4281437
-3.1171191 -6.2601805 -1.87385
-22.575306 -45.318672 0.88375497
-3.5716214 -7.1666975 -1.8486477
-4.1750145 -8.373786 -1.8187915
-4.8678999 -9.7549696 -1.7267238
-6.0039959 -12.021125 -1.6498674
-8.6383867 -17.288132 -1.6908214
-12.230042 -24.454798 -1.4329586
-18.186022 -36.332497 -0.70919597
-3.1398196 -6.250988 -1.8743677
-22.753115 -45.2789 0.88452286
-3.5904891 -7.1419983 -1.8454984
-4.2033372 -8.3574076 -1.8184099
-4.8814936 -9.6973362 -1.7195278
-6.0593157 -12.026687 -1.6535234
-8.2341537 -16.336266 -1.600528
-12.086831 -23.95903 -1.406372
-18.28931 -36.222382 -0.70828849
-3.1616206 -6.2399898 -1.8743677
-22.943577 -45.263412 0.88577944
-3.6136353 -7.125946 -1.8445988
-4.2298198 -8.337431 -1.8172649
-4.9484043 -9.7454071 -1.731104
-6.1183481 -12.039085 -1.6581545
-8.420434 -16.554596 -1.6249317
-12.009156 -23.599842 -1.3877404
-18.461008 -36.247417 -0.71003371
-3.1888657 -6.2369609 -1.8769557
-23.145123 -45.268517 0.88745487
-3.6402624 -7.1167583 -1.8454984
-4.2621393 -8.325367 -1.8180283
-4.9939985 -9.746542 -1.7345455
-6.1485639 -11.994691 -1.6549859
-8.3344717 -16.245016 -1.5973904
-12.50612 -24.355188 -1.4348427
-18.678799 -36.360626 -0.71352422
-3.206192 -6.217206 -1.8743677
-23.354904 -45.268677 0.88913029
-3.6645346 -7.099905 -1.8445988
-4.2866707 -8.3017168 -1.8161201
-5.0515704 -9.7746773 -1.7426801
-6.1341166 -11.85923 -1.6393865
-8.3297777 -16.097267 -1.5857115
-12.60943 -24.346857 -1.4369361
-3.2243073 -6.199121 -1.872297
-23.547857 -45.254288 0.89045668
-3.6928947 -7.0939841 -1.8463982
-23.502642 -45.128941 2.6666219
-4.3129001 -8.2814789 -1.8149751
-5.0655727 -9.7184467 -1.735797
-6.1350775 -11.760305 -1.628662
-9.2423 -17.70899 -1.7476468
-12.733178 -24.377047 -1.4413323
-3.2459283 -6.1878276 -1.872297
-23.724257 -45.207233 0.89115483
-3.7140105 -7.0741496 -1.8445988
-23.693016 -45.128559 2.6712275
-4.3426976 -8.2681112 -1.815357
-5.0902719 -9.6832209 -1.7326683
-6.2842336 -11.944362 -1.6571795
-9.3615923 -17.785934 -1.7584542
-12.810746 -24.318314 -1.440495
-3.2702169 -6.1815834 -1.87385
-23.918924 -45.213154 0.89283019
-3.7328908 -7.0531826 -1.8423492
-23.895262 -45.13031 2.6762516
-4.3742871 -8.2581072 -1.8165017
-5.1066313 -9.6366158 -1.7273496
-6.2735796 -11.828758 -1.6440176
-8.1681366 -15.387936 -1.5241796
-12.962504 -24.409761 -1.4484501
-19.278503 -36.272865 -0.71701467
-3.2916071 -6.1724095 -1.8743677
-24.123667 -45.217602 0.89457548
-3.7584062 -7.0418286 -1.8427991
-24.086519 -45.110054 2.6800201
-4.3988743 -8.2383614 -1.815357
-5.147687 -9.6326694 -1.7298526
-6.0002608 -11.218636 -1.5621214
-9.2899551 -17.354782 -1.7221974
-13.017467 -24.30802 -1.4451005
-3.3114624 -6.1552 -1.8728148
-24.313572 -45.192993 0.89576226
-3.782964 -7.028666 -1.8427991
-24.285498 -45.103069 2.6846254
-4.4271779 -8.2187262 -1.8145936
-5.1773338 -9.6033049 -1.7279752
-6.0620003 -11.239553 -1.5679711
-9.3201981 -17.26614 -1.7166195
-12.931789 -23.936821 -1.425841
-3.3310854 -6.1402063 -1.8717794
-24.51148 -45.16333 0.89694893
-3.8087001 -7.0147533 -1.8427991
-24.498312 -45.101509 2.6898592
-4.4549022 -8.2014961 -1.814212
-5.2381845 -9.6355028 -1.7370484
-6.077539 -11.17018 -1.5613902
-9.5061407 -17.464499 -1.7396286
-13.124189 -24.091478 -1.4377736
-24.063042 -44.134754 -0.87743717
-3.3524985 -6.1285415 -1.8717794
-24.703543 -45.140644 0.89820558
-3.8331633 -7.0014157 -1.8427991
-24.6863 -45.071774 2.6932087
-4.4853902 -8.1893387 -1.8149751
-5.2584934 -9.5929079 -1.7326683
-6.1184034 -11.152379 -1.5618777
-9.4711828 -17.256546 -1.7221974
-13.33321 -24.273092 -1.451381
-20.174696 -36.697643 -0.73097658
-3.3738708 -6.1168013 -1.8717794
-20.751122 -37.606098 0.74972045
-3.851927 -6.977757 -1.8400996
-24.895618 -45.079739 2.6988609
-4.5158477 -8.1770697 -1.8157386
-5.3167925 -9.6194448 -1.7408029
-5.9824162 -10.814812 -1.5175172
-8.8946514 -16.07283 -1.6071519
-12.862411 -23.22352 -1.3912992
-24.442316 -44.095112 -0.88002014
-3.3989565 -6.1117415 -1.87385
-20.856979 -37.48801 0.74881297
-3.8791056 -6.9693766 -1.8414494
-25.081978 -45.044914 2.7020011
-4.544364 -8.1612568 -1.8157386
-5.3599544 -9.618083 -1.7439317
-9.4875517 -17.003839 -1.7035462
-13.554927 -24.273581 -1.4570332
-24.621452 -44.054909 -0.88092768
-3.4164906 -6.0930996 -1.8717794
-20.964239 -37.373112 0.74797523
-3.904362 -6.9574938 -1.8418993
-25.270304 -45.031166 2.706188
-4.5689797 -8.1384964 -1.814212
-5.3818822 -9.5786495 -1.7401772
-6.3856659 -11.35589 -1.5996571
-8.0786285 -14.360687 -1.441556
-13.643495 -24.233076 -1.4574518
-24.794889 -44.021805 -0.88190502
-3.4367881 -6.0794544 -1.8712618
-20.997515 -37.143238 0.74476403
-3.9283717 -6.9462037 -1.8423492
-25.480455 -45.036545 2.7118402
-4.5992928 -8.1259165 -1.8149751
-5.428216 -9.5865335 -1.7448702
-6.0415907 -10.661101 -1.5045991
-9.6551752 -17.023842 -1.7122618
-13.700126 -24.146009 -1.4549397
-3.4617112 -6.0764174 -1.87385
-21.162687 -37.132259 0.74602056
-3.9525948 -6.9324489 -1.8423492
-25.675102 -45.013256 2.7158177
-4.62816 -8.1140299 -1.8157386
-5.4430399 -9.5349321 -1.7389257
-5.9251475 -10.371063 -1.4665757
-9.3813639 -16.413979 -1.6540416
-13.754572 -24.046034 -1.4517996
-20.607048 -35.996498 -0.72399563
-3.4790523 -6.0575953 -1.8717794
-21.210485 -36.915985 0.74315834
-3.9728851 -6.9118514 -1.8405495
-25.875879 -44.999542 2.7204232
-4.6584125 -8.1012297 -1.8165017
-5.4871283 -9.5347071 -1.7423673
-6.5755754 -11.416827 -1.6176938
-9.3441029 -16.217133 -1.637482
-13.790534 -23.914824 -1.4467753
-25.374466 -43.967579 -0.88609362
-3.4992085 -6.0437427 -1.8712618
-21.297121 -36.769043 0.74169236
-4.001873 -6.9063721 -1.8427991
-26.088892 -45.005707 2.726285
-4.6827245 -8.078125 -1.8149751
-5.5064993 -9.4915743 -1.7379872
-5.9874396 -10.312278 -1.4641385
-9.344615 -16.087936 -1.6277206
-13.970289 -24.032303 -1.4568238
-25.584089 -43.975536 -0.88804829
-3.5193098 -6.0298228 -1.8707441
-4.0239906 -6.8889956 -1.8418993
-26.280098 -44.972996 2.7298439
-4.7089133 -8.0583391 -1.814212
-5.5346117 -9.463768 -1.7364228
-9.2819242 -15.852337 -1.6071519
-14.138914 -24.128139 -1.4656162
-25.771832 -43.944611 -0.88923502
-3.5373278 -6.0147886 -1.8697089
-21.690893 -36.867973 0.74664885
-4.046814 -6.8756137 -1.8418993
-26.46583 -44.965946 2.7344491
-4.73561 -8.0426798 -1.814212
-5.5860224 -9.4794006 -1.7426801
-9.2412987 -15.663598 -1.5911152
-14.188385 -24.029524 -1.4624761
-25.987057 -43.994278 -0.89188778
-3.5583005 -6.0024052 -1.8697089
-26.685299 -45.014744 0.91342402
-4.0646219 -6.8537745 -1.8396497
-26.679701 -44.969479 2.7403109
-4.7656574 -8.0294781 -1.8149751
-5.6133928 -9.45403 -1.7414287
-6.7821016 -11.413289 -1.6301244
-9.2266684 -15.514797 -1.579262
-14.235314 -23.927414 -1.4591266
-26.156836 -43.93079 -0.89244622
-3.5811579 -5.9955478 -1.8712618
-26.897671 -45.014008 0.91530895
-4.0865202 -6.8362002 -1.83875
-26.879557 -44.948078 2.7447073
-4.7942743 -8.0170002 -1.8157386
-5.6494007 -9.4394646 -1.7423673
-6.8576045 -11.449149 -1.6386554
-9.159894 -15.280848 -1.5586933
-14.331078 -23.898132 -1.4603827
-26.380001 -43.955811 -0.8948198
-3.604105 -5.9840364 -1.8717794
-27.104145 -45.002071 0.91698438
-4.1103582 -6.8218937 -1.83875
-27.083717 -44.932659 2.7495222
-4.817543 -7.9892864 -1.8134488
-5.6860037 -9.4220753 -1.742993
-6.7826176 -11.234809 -1.6113566
-9.0936613 -15.050965 -1.5384731
-14.385504 -23.790756 -1.4570332
-3.6239693 -5.969768 -1.8712618
-27.316654 -44.981052 0.91858995
-4.1373577 -6.8101134 -1.8396497
-27.290174 -44.919777 2.7545464
-4.8454032 -7.9724202 -1.8134488
-5.7178292 -9.4004841 -1.7426801
-6.8330393 -11.225135 -1.6135503
-9.1077986 -14.956171 -1.5320237
-14.499642 -23.791559 -1.4601734
-3.6407528 -5.95049 -1.8691912
-27.517851 -44.975506 0.92033517
-4.161953 -6.7996807 -1.8405495
-27.486443 -44.888969 2.7585239
-4.8752518 -7.9588075 -1.814212
-5.7613573 -9.4016829 -1.7464346
-6.9065495 -11.261641 -1.622081
-10.178189 -16.583294 -1.7023259
-14.597264 -23.773985 -1.4620574
-3.6574244 -5.9334507 -1.8676383
-27.71876 -44.950661 0.92180121
-4.181571 -6.7784767 -1.83875
-27.703804 -44.891327 2.7645948
-4.8995562 -7.9392552 -1.8134488
-5.7889504 -9.3731108 -1.7448702
-6.97191 -11.279677 -1.6281745
-10.322188 -16.693493 -1.7171425
-14.741121 -23.821392 -1.4681284
-3.6842303 -5.9304934 -1.8707441
-28.008495 -45.067631 0.92619926
-4.2052069 -6.7638392 -1.83875
-27.900419 -44.858795 2.7685723
-4.9272389 -7.9221039 -1.8134488
-5.8122396 -9.3377542 -1.7420545
-6.8831916 -11.049711 -1.5984384
-10.349838 -16.608324 -1.7120874
-14.794591 -23.72234 -1.4651976
-26.298201 -42.135002 -0.86696577
-3.6997824 -5.9094105 -1.868156
-28.227207 -45.067883 0.92822367
-4.2267222 -6.7458158 -1.8378501
-28.120483 -44.862675 2.7748528
-4.9527774 -7.9015298 -1.8126855
-5.837451 -9.3056946 -1.7398643
-6.6473007 -10.588493 -1.5350664
-8.9835987 -14.304441 -1.4778128
-14.936826 -23.765247 -1.4710592
-26.472801 -42.086956 -0.86787325
-3.7255433 -5.9046278 -1.8707441
-28.429173 -45.040108 0.92968971
-4.2502437 -6.7310205 -1.8378501
-28.321714 -44.835159 2.779249
-4.9740386 -7.8742342 -1.810396
-5.8931203 -9.3219938 -1.7467474
-6.9866982 -11.043327 -1.6045319
-8.9056149 -14.070971 -1.4568955
-14.998316 -23.679216 -1.4689658
-26.683788 -42.095631 -0.86996758
-3.7440572 -5.8883281 -1.8697089
-28.639891 -45.024948 0.93143493
-4.2799892 -6.7260089 -1.8405495
-28.53166 -44.820274 2.7844825
-5.0014925 -7.8568249 -1.810396
-5.9065194 -9.2713776 -1.7411157
-7.1212506 -11.169518 -1.6264684
-10.072135 -15.791832 -1.6387022
-14.509197 -22.731079 -1.4132804
-26.856405 -42.042675 -0.87080532
-3.761462 -5.8703427 -1.868156
-28.7645 -44.874203 0.93038779
-4.2971301 -6.7011852 -1.8378501
-28.737558 -44.797726 2.7892973
-5.0310097 -7.8426218 -1.8111591
-5.9399123 -9.252368 -1.7414287
-6.7663989 -10.531665 -1.5370163
-9.0251722 -14.041978 -1.4603816
-14.538754 -22.603024 -1.4084654
-27.106903 -42.110085 -0.87415612
-3.7840264 -5.8604226 -1.8691912
-28.981724 -44.867588 0.93234241
-4.3162651 -6.6795974 -1.8360505
-28.953154 -44.806194 2.7957871
-5.0583534 -7.8250136 -1.8111591
-5.9635892 -9.2183084 -1.7389257
-7.1302419 -11.017463 -1.6113566
-10.083577 -15.568954 -1.6228399
-15.343228 -23.671696 -1.4783863
-27.263807 -42.046814 -0.87471461
-3.8013332 -5.8446035 -1.868156
-29.189245 -44.861744 0.93422735
-4.340518 -6.6685138 -1.8369503
-29.145159 -44.77689 2.799974
-5.0885592 -7.8147769 -1.8126855
-5.971478 -9.1637268 -1.7323555
-7.211185 -11.061938 -1.6213499
-10.013221 -15.34854 -1.6033171
-15.371418 -23.543756 -1.4735714
-3.8238699 -5.8368134 -1.8697089
-29.39924 -44.858368 0.93618196
-4.3668823 -6.6606026 -1.83875
-29.369198 -44.778431 2.8064637
-5.0993724 -7.7748761 -1.8073429
-6.0007496 -9.1422224 -1.7320426
-7.3729086 -11.224182 -1.6488924
-9.8879032 -15.047174 -1.5752529
-15.438428 -23.475969 -1.4725246
-27.690084 -42.074078 -0.87918246
-3.8399639 -5.8169808 -1.8676383
-29.62397 -44.858929 0.93834609
-4.3965507 -6.6550741 -1.8414494
-29.568274 -44.740623 2.8105459
-5.1286464 -7.7603049 -1.8081062
-6.0369854 -9.1278105 -1.7332941
-7.3616438 -11.122232 -1.6376804
-10.016267 -15.127193 -1.5872804
-15.64605 -23.611736 -1.4844573
-27.856676 -42.00716 -0.87981075
-3.8591759 -5.8019328 -1.8671206
-29.818041 -44.811848 0.93953288
-4.4132738 -6.6299543 -1.83875
-29.784044 -44.726902 2.8161981
-5.1578794 -7.7456231 -1.8088694
-6.0841465 -9.1296949 -1.7376742
-7.2484283 -10.86856 -1.6040444
-8.8394089 -13.249125 -1.393446
-15.389009 -23.048697 -1.4524276
-28.063133 -41.999454 -0.88169563
-3.8826301 -5.7932415 -1.8686736
-30.034403 -44.797188 0.94141769
-4.4320493 -6.6080341 -1.8369503
-29.984505 -44.689003 2.820385
-5.184886 -7.7275715 -1.8088694
-6.1148772 -9.1067619 -1.7373614
-7.3560748 -10.946994 -1.6194
-9.9482298 -14.798948 -1.5600878
-15.513965 -23.061123 -1.4566145
-28.267639 -41.987495 -0.88351059
-3.9049911 -5.782855 -1.8697089
-30.260004 -44.794804 0.94358182
-4.4572697 -6.5957527 -1.8378501
-30.214142 -44.693275 2.8272934
-5.208529 -7.7045455 -1.8077245
-6.1543746 -9.0968151 -1.7395515
-7.3419352 -10.843992 -1.6079443
-10.009883 -14.778978 -1.5616566
-15.356799 -22.656336 -1.434424
-28.467913 -41.967999 -0.88518602
-3.9273264 -5.7723832 -1.8707441
-4.4846544 -6.586596 -1.8396497
-30.41943 -44.660172 2.8318989
-5.2320747 -7.6814513 -1.8065797
-6.1927691 -9.0850687 -1.7414287
-7.3864527 -10.828138 -1.6094066
-9.6851902 -14.192634 -1.5032623
-15.345677 -22.470648 -1.4260503
-28.695478 -41.98724 -0.88769919
-3.9376218 -5.744298 -1.8660854
-4.5054131 -6.5676885 -1.83875
-5.2588563 -7.6631408 -1.8065797
-6.2065492 -9.037344 -1.7364228
-7.4129639 -10.785927 -1.6069694
-9.7798214 -14.224414 -1.5102347
-15.412706 -22.400488 -1.4250035
-28.86228 -41.916466 -0.88832748
-3.9642363 -5.7400556 -1.8691912
-4.5305271 -6.5551276 -1.8396497
-5.2844582 -7.6431227 -1.8061981
-6.2717776 -9.0643578 -1.7458088
-7.4935093 -10.822004 -1.6162314
-9.7749567 -14.111571 -1.5018677
-15.342877 -22.133167 -1.4113961
-29.081371 -41.920616 -0.8905614
-3.9853525 -5.7277689 -1.8697089
-4.5489268 -6.5328765 -1.8378501
-5.3167162 -7.6326847 -1.8081062
-6.3067684 -9.0472708 -1.7467474
-7.4835382 -10.727402 -1.6059943
-9.7739878 -14.005476 -1.4941981
-16.252577 -23.27154 -1.4875973
-4.0075393 -5.7169857 -1.8707441
-4.5694652 -6.5137672 -1.8369503
-5.3365602 -7.6044364 -1.8058165
-6.3405824 -9.0284338 -1.7473731
-7.616818 -10.837638 -1.6264684
-9.7827091 -13.914226 -1.4880972
-15.998115 -22.737701 -1.4570332
-31.69886 -45.019367 -0.96106911
-4.0231323 -5.6989312 -1.8691912
-4.5955381 -6.5049448 -1.83875
-5.3572159 -7.5802846 -1.8042899
-6.3727679 -9.0105839 -1.747999
-7.375186 -10.420205 -1.5674837
-16.181969 -22.837709 -1.4668723
-31.847979 -44.914001 -0.96106911
-4.0396433 -5.6801295 -1.8676383
-4.6182156 -6.4888649 -1.83875
-5.3916135 -7.5727329 -1.8069613
-6.4007416 -8.9834585 -1.7470603
-7.5567255 -10.598051 -1.5981947
-10.602624 -14.86433 -1.5973904
-16.37995 -22.946896 -1.477549
-4.0594449 -5.6659946 -1.8676383
-4.6385684 -6.4695358 -1.8378501
-5.412292 -7.5458913 -1.8050531
-6.4332151 -8.9626646 -1.7473731
-7.4245887 -10.336219 -1.5626088
-8.7349253 -12.155934 -1.3096021
-16.655844 -23.161997 -1.4951338
-4.0814595 -5.6549225 -1.8686736
-32.225063 -44.631893 0.96089458
-4.6565576 -6.4469867 -1.8360505
-5.4431987 -7.5333185 -1.8065797
-6.4702468 -8.9481583 -1.7489375
-7.5886359 -10.487142 -1.5894201
-10.631365 -14.68666 -1.5862345
-16.731907 -23.097244 -1.4947151
-4.1079903 -5.6500163 -1.8717794
-32.484173 -44.661438 0.96396619
-4.6813269 -6.4338446 -1.8369503
-5.4671516 -7.5110974 -1.8058165
-6.4967928 -8.9191303 -1.7476861
-7.6228557 -10.457381 -1.5889326
-10.574571 -14.501353 -1.5701978
-16.725302 -22.919313 -1.4869694
-4.118556 -5.6231742 -1.8676383
-32.715515 -44.651016 0.96620017
-4.7060609 -6.4206076 -1.8378501
-5.4875331 -7.4840512 -1.8039083
-6.5290537 -8.8979921 -1.747999
-7.6992621 -10.485108 -1.5972198
-9.6744289 -13.170142 -1.4297028
-16.876188 -22.957342 -1.4932497
-4.1335716 -5.6025448 -1.8655677
-32.918678 -44.600899 0.96759629
-4.7307596 -6.4072771 -1.83875
-5.5159564 -7.4680085 -1.8046715
-6.5530281 -8.8656158 -1.7461218
-7.6413736 -10.330497 -1.5777208
-10.732433 -14.504054 -1.5785649
-16.319139 -22.037964 -1.4371455
-32.569145 -43.966522 -0.95506549
-4.1588655 -5.5958347 -1.868156
-33.147514 -44.600628 0.96996987
-4.7519808 -6.3915539 -1.83875
-5.5419908 -7.448709 -1.8046715
-6.5823922 -8.8438358 -1.7461218
-7.6127415 -10.220721 -1.5648024
-9.7006483 -13.014421 -1.4201156
-16.941322 -22.720255 -1.4852946
-32.92812 -44.128227 -0.96106911
-4.1762414 -5.5804658 -1.8676383
-33.406059 -44.622318 0.97297168
-4.7649159 -6.3624492 -1.8351506
-5.5643077 -7.4271479 -1.8039083
-6.614408 -8.8223858 -1.7464346
-7.7960987 -10.390981 -1.595026
-10.516364 -14.011577 -1.5327208
-17.039719 -22.686531 -1.4869694
-4.200346 -5.5720253 -1.8697089
-4.7870979 -6.3457766 -1.8351506
-5.591382 -7.409246 -1.8042899
-6.6463542 -8.8008194 -1.7467474
-7.6815171 -10.164159 -1.564315
-9.6796713 -12.803463 -1.4042534
-16.803087 -22.209606 -1.4595453
-4.2115936 -5.5465584 -1.8660854
-27.465702 -36.15852 0.79258358
-4.8139348 -6.3352356 -1.8369503
-5.6136475 -7.3849945 -1.8031452
-6.683012 -8.785428 -1.7483118
-7.7385926 -10.165714 -1.5687023
-10.58013 -13.893435 -1.5278401
-17.306639 -22.709988 -1.4963897
-4.2321014 -5.5333586 -1.866603
-27.645218 -36.132305 0.79411942
-4.8383894 -6.3214869 -1.8378501
-5.6370025 -7.3622375 -1.8023818
-6.7040296 -8.7495012 -1.7458088
-7.7945633 -10.165421 -1.5728458
-10.543679 -13.745756 -1.5156384
-17.332296 -22.579727 -1.4917842
-4.2513909 -5.5185518 -1.866603
-27.54413 -35.740974 0.7876271
-4.8556657 -6.2983871 -1.8360505
-5.6686621 -7.3502889 -1.8042899
-6.7272873 -8.7166643 -1.7439317
-7.770546 -10.061167 -1.5609027
-11.095898 -14.361598 -1.5878032
-16.97366 -21.953426 -1.4543117
-4.2729974 -5.506731 -1.8676383
-27.519133 -35.451897 0.78336871
-4.8752313 -6.2783203 -1.8351506
-5.6991029 -7.3366585 -1.8058165
-6.7661591 -8.7040453 -1.7461218
-7.822681 -10.055919 -1.564315
-11.329508 -14.558633 -1.61395
-16.983915 -21.808954 -1.4486594
-4.2945724 -5.4948258 -1.8686736
-4.8971171 -6.2612643 -1.8351506
-27.899506 -35.658401 2.3728077
-5.7198386 -7.310535 -1.8042899
-6.7891941 -8.6710424 -1.7442445
-7.7806048 -9.9301071 -1.5489595
-11.284386 -14.396688 -1.6003537
-17.619572 -22.462992 -1.4961804
-4.3101411 -5.4752483 -1.8671206
-4.9189434 -6.244132 -1.8351506
-28.085613 -35.63924 2.3780415
-5.7428908 -7.2874417 -1.8035268
-6.8255372 -8.6550455 -1.7458088
-7.8939233 -10.002619 -1.5645587
-11.085188 -14.041323 -1.5651428
-16.957466 -21.464178 -1.4335867
-4.3256273 -5.455627 -1.8655677
-4.9455533 -6.2330317 -1.8369503
-5.7731771 -7.2735 -1.8050531
-6.8483338 -8.6218882 -1.7439317
-7.8855591 -9.9206133 -1.5560279
-11.041133 -13.885581 -1.5520694
-16.920362 -21.264196 -1.4241662
-4.3458509 -5.4420042 -1.8660854
-4.9613304 -6.210506 -1.8351506
-5.8009839 -7.256371 -1.8058165
-6.8744192 -8.5960445 -1.7433058
-7.7856965 -9.7285728 -1.5299479
-10.438163 -13.033619 -1.4609046
-16.009253 -19.982813 -1.341894
-4.3650837 -5.4290681 -1.866603
-4.9780927 -6.187077 -1.8333511
-5.8262463 -7.2386241 -1.8061981
-6.9019055 -8.5689192 -1.7426801
-7.9479208 -9.8605261 -1.5550529
-11.723176 -14.53908 -1.6339959
-16.073891 -19.920593 -1.3414754
-33.997395 -42.103355 -0.94459409
-4.3876548 -5.4183035 -1.868156
-4.999661 -6.169661 -1.8333511
-5.8490062 -7.2151923 -1.8054349
-6.931777 -8.5447731 -1.7426801
-7.9847922 -9.8358068 -1.5555404
-9.6763172 -11.9152 -1.3428956
-16.120649 -19.836466 -1.3395913
-34.214813 -42.071308 -0.94654876
-4.4028783 -5.3984628 -1.866603
-5.0211673 -6.1521716 -1.8333511
-5.8691883 -7.1886487 -1.8039083
-6.9615617 -8.520525 -1.7426801
-8.0517492 -9.8478298 -1.5618777
-10.445681 -12.771218 -1.4434733
-17.910234 -21.88203 -1.4819452
-34.422272 -42.025879 -0.94822413
-4.4192429 -5.3800755 -1.8655677
-5.0475597 -6.1406293 -1.8351506
-5.9017272 -7.1772161 -1.8061981
-6.9962807 -8.5022755 -1.7439317
-8.1315031 -9.8748293 -1.5706522
-16.805027 -20.386124 -1.3846002
-34.673119 -42.031948 -0.95108634
-4.4441524 -5.3720603 -1.868156
-5.0664787 -6.1199708 -1.8342509
-5.9292483 -7.159595 -1.8069613
-7.0208745 -8.4717178 -1.7426801
-7.8275757 -9.4384136 -1.5055741
-10.406097 -12.543114 -1.4258679
-16.819946 -20.259727 -1.3799946
-34.893745 -41.99987 -0.95311081
-4.4628787 -5.3565135 -1.868156
-5.0878105 -6.1022477 -1.8342509
-5.9567189 -7.1418691 -1.8077245
-7.0478725 -8.4441261 -1.7420545
-8.1684284 -9.7797327 -1.5645587
-10.375723 -12.418034 -1.4157579
-16.813694 -20.108957 -1.3737143
-35.122253 -41.975975 -0.95534474
-4.4827909 -5.3423824 -1.8686736
-5.1090808 -6.0844507 -1.8342509
-5.9790869 -7.1180267 -1.8069613
-7.0823894 -8.4255199 -1.7433058
-8.2408524 -9.7967339 -1.5718709
-10.381805 -12.337531 -1.4107028
-16.852909 -20.013475 -1.3712021
-35.379787 -41.999973 -0.958556
-4.4976716 -5.3222747 -1.8671206
-5.1267118 -6.0644994 -1.8333511
-6.0013623 -7.0941153 -1.8061981
-7.1153932 -8.408021 -1.7445574
-8.2758598 -9.7723818 -1.5723584
-11.088194 -13.084007 -1.5004733
-17.709608 -20.889845 -1.4352614
-35.616737 -41.982964 -0.96099931
-4.5152965 -5.3073306 -1.8671206
-5.1478515 -6.0465655 -1.8333511
-6.0248542 -7.0741749 -1.8061981
-7.142139 -8.3801241 -1.7439317
-8.3395472 -9.7781744 -1.5779644
-11.910004 -13.959616 -1.6054087
-17.678667 -20.706387 -1.4268876
-35.841003 -41.9496 -0.96309358
-4.5337939 -5.2915378 -1.8671206
-5.1740003 -6.0344768 -1.8351506
-6.0469537 -7.0501218 -1.8054349
-7.1687741 -8.3521433 -1.7433058
-8.2688637 -9.6270266 -1.5582215
-10.325218 -12.016894 -1.3861248
-17.706572 -20.593056 -1.4233288
-36.078506 -41.930351 -0.96553689
-4.5522375 -5.2756801 -1.8671206
-5.1912112 -6.0119557 -1.833801
-6.0792255 -7.0378838 -1.8077245
-7.1978831 -8.3270702 -1.7433058
-8.2219009 -9.5050211 -1.5431098
-10.429677 -12.053101 -1.3944918
-17.642374 -20.374096 -1.4124429
-36.33519 -41.94651 -0.96867836
-4.5731597 -5.2626739 -1.868156
-5.2111192 -5.9947076 -1.833801
-6.1011801 -7.0136566 -1.8069613
-7.2215676 -8.2986851 -1.7423673
-8.245553 -9.4687204 -1.5416473
-10.907571 -12.516811 -1.4525375
-17.670469 -20.270313 -1.4093028
-36.589188 -41.942989 -0.97154057
-4.5880423 -5.2445712 -1.8671206
-5.2332969 -5.9779472 -1.8342509
-6.1192307 -6.9874806 -1.8054349
-7.2622089 -8.2867966 -1.745183
-8.3767176 -9.5518179 -1.5599277
-10.946392 -12.477576 -1.452189
-17.609346 -20.05842 -1.3988355
-4.5999346 -5.2212772 -1.8645325
-5.2567091 -5.9625664 -1.8351506
-6.1435843 -6.9660778 -1.8054349
-7.2910914 -8.2613964 -1.745183
-8.3219662 -9.4228306 -1.5435972
-10.916009 -12.355676 -1.4424275
-17.581362 -19.886101 -1.3910899
-4.6219802 -5.2095227 -1.8660854
