# .PCD v0.7 - Point Cloud Data file format
VERSION 0.7
FIELDS x y z
SIZE 4 4 4
TYPE F F F
COUNT 1 1 1
WIDTH 1481
HEIGHT 1
VIEWPOINT 0 0 0 1 0 0 0
POINTS 1481
DATA ascii
-13.232166 2.7041433 -2.1390851
-17.310272 3.5438411 -2.1695182
-25.077179 5.1384854 -2.2395539
-40.295364 8.2714424 -2.155823
-7.7522407 1.6054114 -2.1212809
-9.004384 1.8679957 -2.1230881
-10.749249 2.2319319 -2.1340079
-13.23425 2.7527297 -2.1409624
-17.313345 3.6074839 -2.1714683
-25.06299 5.2268038 -2.2399025
-41.998421 8.7739305 -2.2485621
-7.7409191 1.6312672 -2.1197281
-9.005435 1.9010257 -2.1248875
-10.752917 2.2718751 -2.1362975
-13.228426 2.7997241 -2.141588
-17.308414 3.6695483 -2.1724429
-25.0329 5.3117719 -2.2388568
-41.948002 8.9163275 -2.2475154
-7.750289 1.661516 -2.1238692
-8.9873133 1.9299943 -2.1221881
-10.748761 2.3102188 -2.1370609
-13.218573 2.8458831 -2.141588
-17.291618 3.7291028 -2.1719556
-25.092108 5.415935 -2.2458291
-40.116741 8.6735411 -2.1510081
-7.7519927 1.6902077 -2.1259398
-8.9919443 1.9638469 -2.1248875
-10.744467 2.3485663 -2.1378241
-13.216278 2.8936949 -2.1428397
-17.290792 3.7889736 -2.173418
-25.069157 5.5026369 -2.2454805
-39.937969 8.7809286 -2.1430531
-7.7388 1.7142321 -2.1238692
-8.9872866 1.9940773 -2.1253376
-10.734703 2.3837557 -2.1374426
-13.218179 2.9400826 -2.1447167
-17.282009 3.8471549 -2.1739056
-25.097439 5.5961456 -2.2496638
-40.298477 9.000391 -2.1639874
-7.7368422 1.7407339 -2.1249044
-8.9806242 2.0238695 -2.1253376
-10.736315 2.4215002 -2.1393507
-13.204502 2.9830294 -2.1440909
-17.272346 3.9083331 -2.1743929
-25.097187 5.688117 -2.2514071
-40.463184 9.1781578 -2.1744545
-7.7285271 1.7686484 -2.1243868
-8.9754047 2.0556407 -2.1257875
-10.733108 2.4621542 -2.1404953
-13.19348 3.0314064 -2.1440909
-17.266336 3.970381 -2.1753678
-25.09271 5.7792726 -2.2528017
-7.7317147 1.797803 -2.1269751
-8.9621153 2.0871994 -2.1244378
-10.741656 2.5036132 -2.14393
-13.175123 3.0756459 -2.1428397
-17.263268 4.0363464 -2.1768305
-25.080143 5.8686433 -2.2534988
-40.940952 9.5950766 -2.2037625
-7.7329125 1.8265575 -2.1290457
-8.9665232 2.1195979 -2.1271372
-10.72521 2.5392845 -2.1424036
-13.184073 3.1238742 -2.1459682
-17.245924 4.0926557 -2.176343
-25.129288 5.9727345 -2.259774
-40.788445 9.7021265 -2.197273
-7.7192979 1.8503897 -2.1269751
-8.970439 2.1536114 -2.1298366
-10.728185 2.577589 -2.1446934
-13.17693 3.1707978 -2.146594
-17.227671 4.1519041 -2.1758554
-25.163574 6.0691137 -2.2646549
-40.719379 9.8360147 -2.1953888
-7.7109156 1.8768653 -2.1264575
-8.9651413 2.1838081 -2.1302865
-10.711492 2.6131606 -2.1431668
-13.174019 3.2163513 -2.1478455
-17.244663 4.2165508 -2.1797554
-25.157719 6.160706 -2.2660494
-40.325726 9.8825588 -2.1759198
-7.7102747 1.9038166 -2.1280103
-8.9555721 2.2146215 -2.1298366
-10.704673 2.6491387 -2.1435483
-13.151207 3.2594666 -2.1459682
-17.229839 4.276721 -2.1797554
-25.183558 6.2556267 -2.2702327
-40.577835 10.094624 -2.1914113
-7.7092047 1.9321263 -2.1295633
-8.9477873 2.2458689 -2.1298366
-10.70869 2.6898346 -2.1462197
-13.141665 3.3058352 -2.146281
-17.214806 4.3368387 -2.1797554
-25.196342 6.3522639 -2.2733703
-40.569462 10.243051 -2.1928768
-7.7080297 1.9604535 -2.1311162
-8.9361172 2.2761252 -2.1289368
-10.700662 2.7295539 -2.1466014
-13.143444 3.3551054 -2.1484711
-17.203407 4.3978868 -2.1802428
-25.211494 6.454453 -2.2768564
-40.504562 10.384724 -2.1914113
-7.7007928 1.9886917 -2.1311162
-8.9446945 2.313256 -2.1329858
-10.679182 2.7657995 -2.1443117
-13.131057 3.4032593 -2.1484711
-17.198702 4.4639039 -2.1817052
-25.226236 6.5568333 -2.2803428
-40.856667 10.634748 -2.2125549
-7.685977 2.0149457 -2.1290457
-8.9455805 2.3484967 -2.1352355
-10.682755 2.806555 -2.1469829
-13.122318 3.4523668 -2.149097
-17.189905 4.5289292 -2.1826801
-25.257135 6.6590719 -2.2852235
-40.599152 10.719169 -2.2006223
-7.6751628 2.0407677 -2.1280103
-8.9316778 2.3782041 -2.1338856
-10.669098 2.8428142 -2.1462197
-13.106368 3.4971359 -2.1484711
-17.197002 4.5950546 -2.1856048
-25.256836 6.7533789 -2.2873154
-40.387852 10.814329 -2.1912022
-7.6847801 2.0720737 -2.1326692
-8.9157972 2.4073353 -2.132086
-10.670482 2.8831122 -2.1485093
-13.094081 3.5428617 -2.1484711
-17.166344 4.6479077 -2.183655
-25.271568 6.8519225 -2.2908015
-40.041451 10.871521 -2.1744545
-7.6853204 2.0995824 -2.1347394
-8.9115238 2.4379168 -2.1329858
-10.653288 2.9164078 -2.1469829
-13.101312 3.5914867 -2.1515999
-17.150837 4.7048087 -2.183655
-25.325556 6.956799 -2.2977738
-41.125965 11.312529 -2.2353735
-7.6708689 2.1229954 -2.1326692
-8.9202929 2.4721372 -2.1370349
-10.639774 2.9506702 -2.1462197
-13.093138 3.635967 -2.1522255
-17.161085 4.7720933 -2.1870675
-25.336895 7.0503645 -2.3009117
-41.326797 11.515323 -2.248353
-7.6596904 2.1487155 -2.1316338
-8.9116077 2.503262 -2.1370349
-10.638859 2.9904487 -2.1481278
-13.087972 3.6837926 -2.1534772
-17.136681 4.8298101 -2.1860926
-25.361992 7.1528201 -2.3054438
-41.294037 11.661673 -2.2487717
-7.6614351 2.1780794 -2.1342218
-8.9084387 2.5359552 -2.1383848
-10.630245 3.0281029 -2.1485093
-13.071234 3.7283728 -2.1528513
-17.146439 4.8972359 -2.1895049
-25.382845 7.2544475 -2.3096273
-41.471977 11.8684 -2.2607043
-7.6574979 2.2058792 -2.135257
-8.8939152 2.5654137 -2.1370349
-10.630927 3.0684574 -2.150799
-13.061935 3.7750709 -2.1534772
-17.117796 4.9537473 -2.1880424
-25.410952 7.3585172 -2.314508
-41.629791 12.070938 -2.2715902
-7.6497512 2.2325954 -2.135257
-8.8736849 2.5931647 -2.1343358
-10.620151 3.1055505 -2.150799
-13.056262 3.8228636 -2.1547287
-17.100401 5.0134697 -2.1880424
-25.392757 7.4494171 -2.3152051
-41.610401 12.222936 -2.272846
-7.6511745 2.2620234 -2.1378453
-8.8813953 2.6291022 -2.1383848
-10.609246 3.1426005 -2.150799
-13.03905 3.8672919 -2.1541028
-17.098022 5.0776486 -2.1899924
-25.439175 7.5595822 -2.3218288
-40.652435 12.095836 -2.2228129
-7.6302772 2.2848382 -2.1342218
-8.8721638 2.6600881 -2.1383848
-10.601974 3.1807435 -2.1515625
-13.033037 3.9150598 -2.1553543
-17.103004 5.1441627 -2.1929171
-25.49276 7.6724524 -2.32915
-40.39579 12.173124 -2.2110896
-7.6314993 2.3142626 -2.1368101
-8.8632946 2.6894929 -2.1383848
-10.587048 3.2165904 -2.150799
-13.016205 3.9571025 -2.1547287
-17.082056 5.1996946 -2.1924298
-25.538244 7.7834592 -2.3357739
-41.363884 12.614633 -2.2663565
-7.6293225 2.3412571 -2.1383629
-8.8445377 2.7175558 -2.1361351
-10.580077 3.2528353 -2.1515625
-13.017415 4.0071664 -2.1572316
-17.075182 5.262795 -2.193892
-25.538948 7.8763251 -2.3382142
-41.029537 12.669376 -2.2504463
-7.6247945 2.3690193 -2.1393983
-8.8349981 2.7484126 -2.1361351
-10.572408 3.2909114 -2.1523256
-13.010891 4.0549326 -2.158483
-17.056707 5.322371 -2.193892
-25.583569 7.9879913 -2.3448381
-41.945824 13.112868 -2.303201
-7.612792 2.3944609 -2.1383629
-8.8383608 2.7833312 -2.1392844
-10.553366 3.3254359 -2.150799
-12.99289 4.0991364 -2.1578572
-17.083454 5.3962278 -2.1997418
-25.56172 8.0841093 -2.3455353
-41.934074 13.270055 -2.3050852
-7.6021242 2.4217629 -2.1378453
-8.8341627 2.815942 -2.1406343
-10.552327 3.3676777 -2.1530888
-12.981542 4.1479321 -2.158483
-17.102329 5.4679179 -2.2046165
-25.563705 8.1830063 -2.3483243
-41.938408 13.44072 -2.3080158
-7.6009793 2.450654 -2.1399159
-8.8089447 2.8435147 -2.1370349
-10.540508 3.4044898 -2.1530888
-12.951948 4.1883593 -2.1559801
-17.078396 5.5293417 -2.204129
-25.591848 8.2906122 -2.3535538
-41.936829 13.60183 -2.310528
-7.5887046 2.4759731 -2.1388805
-8.8013201 2.873316 -2.137485
-10.536025 3.4437022 -2.1546154
-12.949252 4.2349715 -2.1578572
-17.052422 5.5834718 -2.2031541
-25.611979 8.3960257 -2.3580859
-41.770039 13.700975 -2.303829
-7.5841217 2.5023355 -2.1399159
-8.793088 2.9046302 -2.1379349
-10.524548 3.4786224 -2.1546154
-12.949394 4.2851086 -2.1603601
-17.066744 5.6542029 -2.2075415
-25.614254 8.490943 -2.3608747
-41.528603 13.782537 -2.2931526
-7.5808382 2.5306289 -2.1414688
-8.7939844 2.9390125 -2.1406343
-10.512341 3.5153391 -2.1546154
-12.949343 4.3353014 -2.162863
-17.073256 5.7225714 -2.2109537
-25.629795 8.5955067 -2.3650582
-7.5701284 2.5564561 -2.1409512
-8.781826 2.9690676 -2.1401844
-10.503724 3.5532711 -2.1553786
-12.934132 4.380477 -2.162863
-17.075735 5.7897825 -2.2138786
-25.667559 8.707963 -2.3713334
-7.55933 2.5822427 -2.1404335
-8.7793074 3.000694 -2.141984
-10.498688 3.5924571 -2.1569052
-12.904583 4.4182258 -2.1603601
-17.097755 5.8605375 -2.2192409
-25.701078 8.8194952 -2.37726
-41.788734 14.348233 -2.3155522
-7.5470734 2.6060355 -2.1393983
-8.7669382 3.0306828 -2.1415341
-10.490427 3.628536 -2.1576684
-12.900282 4.4671202 -2.1622374
-17.095949 5.9266872 -2.2216785
-25.707783 8.9222212 -2.3807464
-7.5411191 2.6349521 -2.1404335
-8.7563057 3.0612669 -2.1415341
-10.488177 3.67085 -2.1599579
-12.895006 4.5182943 -2.1641147
-17.090143 5.9915771 -2.223628
-25.721598 9.0277405 -2.3849299
-7.5300541 2.6606162 -2.1399159
-8.7560501 3.097239 -2.1442335
-10.467896 3.7048185 -2.1584315
-12.886605 4.5659151 -2.1653662
-17.127935 6.0754151 -2.2314279
-25.757524 9.1414537 -2.3912048
-7.5243592 2.6881847 -2.1409512
-8.7378454 3.1251595 -2.1424339
-10.454899 3.7413387 -2.1584315
-12.870589 4.6108699 -2.1653662
-17.129047 6.1432047 -2.2343528
-25.751715 9.2407312 -2.3936453
-7.516746 2.7150898 -2.1414688
-8.7323809 3.1576297 -2.1437836
-10.456546 3.7831511 -2.1614842
-12.846986 4.6530781 -2.1641147
-17.114965 6.2056651 -2.2353277
-25.846657 9.3767757 -2.4054983
-7.5126677 2.7433 -2.1430218
-8.7108793 3.1825578 -2.1410842
-10.432214 3.815583 -2.1591947
-12.835196 4.6970129 -2.1647403
-17.1353 6.27741 -2.24069
-25.780102 9.454587 -2.4023609
-7.5107784 2.7708724 -2.1450922
-8.7052011 3.2149684 -2.1424339
-10.423186 3.8515177 -2.1599579
-12.829838 4.7459002 -2.1666176
-17.131897 6.344079 -2.2431273
-25.79718 9.5580292 -2.406893
-7.4865794 2.7916737 -2.1409512
-8.7012281 3.2480643 -2.1442335
-10.409678 3.8878782 -2.1599579
-12.820595 4.7934237 -2.1678691
-17.143114 6.4163632 -2.2475147
-25.830832 9.6731701 -2.4131682
-7.4713674 2.8157444 -2.1393983
-8.6934843 3.2797933 -2.1451333
-10.392371 3.922802 -2.1591947
-12.811175 4.8409395 -2.1691206
-17.150318 6.4874067 -2.2514145
-25.860264 9.7872553 -2.4190946
-7.466908 2.8438697 -2.1409512
-8.6801615 3.309423 -2.1446834
-10.385952 3.9618535 -2.1607211
-12.803427 4.8891501 -2.1706848
-17.153526 6.5571566 -2.2548268
-25.885494 9.9002352 -2.4246728
-7.476768 2.877552 -2.1466453
-8.6612825 3.3369002 -2.1428835
-10.383048 4.0023227 -2.1630108
-12.791812 4.9359469 -2.1716235
-17.15391 6.6225839 -2.2577517
-25.895382 10.007771 -2.4288561
-7.4581819 2.898829 -2.144057
-8.6628838 3.3705506 -2.146033
-10.362403 4.0338812 -2.1614842
-12.782734 4.9812078 -2.1728749
-17.157747 6.689528 -2.2611639
-25.902884 10.109525 -2.4326911
-7.4485273 2.9235456 -2.144057
-8.6425896 3.3956964 -2.1437836
-10.352622 4.0696588 -2.1622477
-12.788205 5.0322504 -2.1766293
-17.149069 6.7551999 -2.263114
-25.954483 10.228971 -2.4407094
-7.4275026 2.9452538 -2.1409512
-8.645174 3.4315956 -2.1473827
-10.338355 4.1057692 -2.1622477
-12.787082 5.0834265 -2.1794453
-17.17334 6.8340998 -2.2694511
-25.977854 10.343092 -2.4462874
-7.4351096 2.9783485 -2.1461277
-8.6331434 3.4617505 -2.1473827
-10.327602 4.1432962 -2.1630108
-12.760094 5.1243477 -2.177881
-17.167797 6.9014087 -2.2718885
-25.967468 10.444118 -2.4487276
-7.4228759 3.0035586 -2.1456099
-8.6173935 3.4904034 -2.1464829
-10.313077 4.1793213 -2.1630108
-12.767755 5.1792564 -2.182261
-17.176708 6.9747372 -2.2762759
-25.975155 10.552696 -2.4529111
-7.4123468 3.0294495 -2.1456099
-8.610568 3.5226765 -2.1478326
-10.298426 4.2152958 -2.1630108
-12.766048 5.2305331 -2.1850767
-17.177971 7.0451989 -2.2796881
-26.015575 10.675069 -2.4602323
-7.3945851 3.0523572 -2.1435394
-8.6018209 3.5542002 -2.1487324
-10.283649 4.2512159 -2.1630108
-12.767791 5.2833719 -2.1885185
-17.182615 7.1172724 -2.2835879
-26.044418 10.793277 -2.4665074
-7.382102 3.0774074 -2.1430218
-8.5983553 3.587955 -2.1509819
-10.27237 4.2885995 -2.163774
-12.749271 5.3279047 -2.1885185
-17.19796 7.1940627 -2.2889502
-26.024965 10.891809 -2.4682505
-7.371314 3.103159 -2.1430218
-8.5792255 3.6134233 -2.1491826
-10.268191 4.3290095 -2.1660638
-12.735174 5.3716898 -2.1891441
-17.206924 7.2649517 -2.2933376
-26.052855 11.010509 -2.4745259
-7.3734312 3.1328712 -2.1466453
-8.5593872 3.6402979 -2.1473827
-10.251972 4.3622684 -2.1656821
-12.752693 5.4315925 -2.1954014
-17.192417 7.329639 -2.2948
-26.067513 11.118731 -2.4794066
-7.3588972 3.1570683 -2.1456099
-8.552 3.6724603 -2.1487324
-10.243899 4.4011259 -2.1672087
-12.744544 5.4807577 -2.1972787
-17.203196 7.4053044 -2.2996747
-26.087095 11.234881 -2.4849844
-7.358469 3.1873438 -2.1487157
-8.5427036 3.703841 -2.1496322
-10.219468 4.4329505 -2.1653006
-12.747079 5.5346522 -2.2010331
-0.92310768 0.40099546 0.12357552
-17.224575 7.4858818 -2.3060119
-26.106192 11.351293 -2.4905624
-7.3384485 3.2091405 -2.1461277
-8.5368633 3.7367635 -2.1514318
-10.207528 4.4701715 -2.1660638
-12.731299 5.5807004 -2.201659
-0.81262511 0.35637918 0.1089512
-17.212883 7.5523434 -2.3079619
-26.091949 11.453563 -2.4930029
-7.334271 3.2378559 -2.1481981
-8.5202026 3.7649651 -2.150532
-10.199046 4.5089483 -2.1675904
-12.733418 5.6346993 -2.2054133
-0.79322463 0.35117733 0.10651381
-17.237234 7.634892 -2.3147867
-26.077311 11.555872 -2.4954431
-7.3211603 3.2626517 -2.1476805
-8.5052299 3.7938874 -2.1500821
-10.192207 4.5485253 -2.1694984
-12.728103 5.6855559 -2.2079163
-0.79561853 0.35556418 0.10700129
-17.224977 7.7014971 -2.3167362
-26.076828 11.664721 -2.4992781
-7.315011 3.2905669 -2.1492336
-8.4954882 3.8251536 -2.1509819
-10.170897 4.5816565 -2.1683536
-12.747796 5.7478142 -2.2147994
-0.78713453 0.3550742 0.10602634
-17.208847 7.7664728 -2.3181989
-26.137636 11.801597 -2.5090396
-7.2982039 3.3136835 -2.1476805
-8.4785347 3.8531747 -2.1500821
-10.163779 4.621192 -2.1702616
-12.724056 5.7906437 -2.2141736
-0.7858904 0.35781947 0.10602634
-17.2286 7.8478904 -2.3245361
-26.136168 11.910939 -2.5128744
-7.2813239 3.3367248 -2.1461277
-8.4756622 3.88762 -2.1527817
-10.147587 4.6566424 -2.1702616
-12.710948 5.8383193 -2.2154253
-0.77922523 0.35807395 0.10529512
-17.240776 7.9262276 -2.3298981
-26.112535 12.010419 -2.5146174
-7.2819061 3.3677979 -2.1497512
-8.4591856 3.914068 -2.1518817
-10.145522 4.6986365 -2.1733146
-12.720194 5.8937254 -2.2204311
-0.76902854 0.35648176 0.10407643
-17.236012 7.9933758 -2.332823
-26.178885 12.15183 -2.5250762
-7.2777004 3.3951938 -2.1518216
-8.4384089 3.940275 -2.1500821
-10.128107 4.7314243 -2.1729329
-12.71028 5.9431124 -2.2223082
-0.76777947 0.35916403 0.10407643
-17.247559 8.0720043 -2.3381853
-26.163704 12.250403 -2.5275166
-7.2727966 3.4238667 -2.1538923
-8.4334192 3.9738603 -2.1523318
-10.122185 4.7717695 -2.1752226
-12.714468 5.9992447 -2.2266884
-0.77011144 0.36353654 0.10456391
-17.230047 8.137248 -2.339648
-26.218061 12.387621 -2.5369294
-7.2538204 3.4459171 -2.1518216
-8.4194965 4.0032725 -2.1523318
-10.116103 4.8121367 -2.1775124
-12.718421 6.0554762 -2.2310686
-0.76525331 0.36451536 0.10407643
-17.230209 8.2110062 -2.3435478
-26.207033 12.494491 -2.540067
-7.246974 3.4737241 -2.1533747
-8.4037132 4.0317945 -2.1518817
-10.102783 4.8491182 -2.1782756
-12.715011 6.1083889 -2.2341974
-0.78544635 0.37750342 0.10700129
-17.237223 8.2883005 -2.3484223
-26.227892 12.616995 -2.5463421
-7.2243695 3.4939513 -2.1502688
-8.4018669 4.0670505 -2.1550312
-10.092864 4.8877749 -2.1798022
-12.70072 6.1561852 -2.2354488
-0.77697927 0.37677804 0.10602634
-17.240337 8.3640175 -2.3528099
-26.244635 12.73805 -2.5522687
-7.2138658 3.5199952 -2.1507864
-8.3788643 4.0920758 -2.1527817
-10.086326 4.9281473 -2.182092
-12.70045 6.2108927 -2.2392032
-0.75247872 0.36814693 0.10285773
-17.243126 8.4398584 -2.357197
-26.268003 12.86288 -2.5588925
-7.2050009 3.5468612 -2.1518216
-8.3697729 4.1238828 -2.1541312
-10.072582 4.9650612 -2.1828551
-12.699949 6.2656755 -2.2429576
-0.75652921 0.37340713 0.10358895
-17.245598 8.5158176 -2.3615842
-26.294399 12.989786 -2.565865
-7.1960378 3.5737071 -2.1528571
-8.3605614 4.1556759 -2.1554811
-10.058704 5.0019417 -2.1836183
-12.695685 6.3187709 -2.2460864
-0.75522107 0.37604585 0.10358895
-17.251307 8.5936632 -2.3664591
-26.30596 13.109932 -2.5714431
-7.1800637 3.5970752 -2.1518216
-8.3477488 4.1857061 -2.155931
-10.051713 5.0423026 -2.1859078
-12.684145 6.3683639 -2.2479637
-0.76809502 0.38580769 0.10553886
-17.246037 8.6663094 -2.3698714
-26.320557 13.23211 -2.5773695
-7.179533 3.628216 -2.1554451
-8.3365622 4.2165809 -2.1568308
-10.034051 5.0773592 -2.1859078
-12.679459 6.4215298 -2.2510922
-0.75257748 0.38130894 0.10358895
-17.251091 8.7444057 -2.3747461
-26.355951 13.365351 -2.5853879
-7.1668253 3.6532536 -2.1554451
-8.3200579 4.2447701 -2.1563809
-10.038999 5.1239567 -2.1908689
-12.681594 6.4783311 -2.2554724
-0.74770653 0.38212687 0.10310147
-17.241673 8.8154154 -2.377671
-26.372995 13.489933 -2.5916631
-7.1454391 3.6738319 -2.1528571
-8.3103876 4.2764616 -2.1577303
-10.033272 5.165256 -2.1935403
-12.679975 6.5334163 -2.2592268
-0.74107486 0.38200578 0.10237025
-17.249611 8.8955641 -2.3830333
-7.1394305 3.7023089 -2.1549275
-8.307518 4.3117266 -2.1608799
-0.93067598 0.48303479 0.054952759
-10.022148 5.2038689 -2.1950669
-0.9300065 0.48309976 0.091687836
-12.695655 6.5976753 -2.2661099
-0.75206572 0.3910003 0.10407643
-17.34173 9.0198412 -2.400095
-7.1042085 3.7155704 -2.1481981
-0.91965532 0.48098871 0.018115599
-8.3190746 4.3528037 -2.1676283
-0.87943828 0.46034557 0.052021943
-10.038706 5.2570372 -2.2026992
-0.92831457 0.48634294 0.091687836
-12.705202 6.6562405 -2.2717416
-0.76834738 0.40270722 0.10651381
-0.94408405 0.49502486 -0.13088769
-0.86799157 0.45551255 -0.085761249
-0.90893728 0.47720274 -0.053801365
-0.81782919 0.42973414 -0.016126024
-0.87198389 0.45993933 0.017208073
-0.83417463 0.44018248 -0.21775262
-0.92728096 0.48952061 0.054952759
-0.82989293 0.43810853 -0.1824134
-0.92669672 0.48941872 0.091687836
-0.9064731 0.47894031 -0.162379
-0.7528969 0.39796573 0.10456391
-0.88619548 0.46862224 -0.12308804
-0.86647636 0.45838824 -0.085761249
-0.889615 0.47102669 -0.052754648
-0.85873061 0.45505837 -0.016963739
-0.86650771 0.46073025 -0.26296017
-0.84918749 0.45171106 0.016789215
-0.87048 0.46323216 -0.22765048
-0.86562514 0.46084249 0.051393915
-0.89074552 0.4742161 -0.19615164
-0.8440907 0.44956702 0.083669513
-0.84900868 0.4523766 -0.15236719
-0.74624795 0.39778993 0.10383269
-0.85302567 0.45489931 -0.11870075
-0.83322936 0.44452944 -0.082623646
-0.81749189 0.43649983 -0.048567772
-0.84655505 0.45239794 -0.016754311
-0.85127378 0.45644897 -0.25881904
-0.8194108 0.43954831 0.016230738
-0.83108121 0.44599536 -0.21775262
-0.83585608 0.44874567 0.049719162
-0.84757113 0.45503509 -0.18699282
-0.80039036 0.42988518 0.079486035
-0.82306314 0.44224769 -0.14798702
-0.74485487 0.40039241 0.10383269
-0.83394939 0.44847226 -0.11626337
-0.83869094 0.45121083 -0.083320886
-0.83003163 0.44692585 -0.04940515
-0.81680506 0.4401719 -0.016195834
-0.83947921 0.45390469 -0.25571322
-0.82842469 0.44811416 0.016440166
-0.82951933 0.4488937 -0.21775262
-0.8237462 0.44595546 0.04909113
-0.81835383 0.44303617 -0.18088694
-0.79888493 0.43267649 0.079486035
-0.82151437 0.44511804 -0.14798702
-0.75217867 0.40771997 0.10505138
-0.84284896 0.45705831 -0.11772579
-0.85253507 0.46250343 0.15361866
-0.83711082 0.45413569 -0.083320886
-0.82144558 0.44600844 -0.048986461
-0.79417914 0.43156299 -0.015776975
-0.8328014 0.45405781 -0.25416031
-0.82509983 0.45004585 0.016405262
-0.81084102 0.44245213 -0.2132536
-0.82576931 0.45059803 0.049300473
-0.80990964 0.44212708 -0.17936046
-0.77988356 0.42591286 0.077742919
-0.81995559 0.44798297 -0.14798702
-0.74900907 0.40939081 0.10480764
-0.82208955 0.44952151 -0.11504468
-0.80246735 0.43879199 0.14485833
-0.83552045 0.45705503 -0.083320886
-0.8233875 0.45079139 -0.049195804
-0.79800522 0.43707606 -0.015881689
-0.81936103 0.45044732 -0.25053686
-0.81133652 0.44603583 0.01616093
-0.79912412 0.43950391 -0.21055418
-0.81719196 0.44962642 0.048881788
-0.79460186 0.43737805 -0.17630751
-0.78362793 0.43151578 0.078265861
-0.82019591 0.4516525 -0.14829989
-0.74938607 0.41283029 0.10505138
-0.8310256 0.4579941 -0.1165071
-0.78017229 0.43014538 0.14110391
-0.8042618 0.44360989 -0.080357596
-0.82188809 0.4535194 -0.049195804
-0.79122335 0.43695861 -0.015776975
-0.81786275 0.45316201 -0.25053686
-0.78353989 0.43432337 0.015637357
-0.78224701 0.4337849 -0.20650508
-0.81212449 0.45053843 0.048672445
-0.79143041 0.43905807 -0.17592591
-0.78567684 0.43604577 0.078614481
-0.80652517 0.44780037 -0.1461098
-0.73579288 0.40869626 0.10334522
-0.79992354 0.4445006 -0.11236355
-0.82010287 0.45590091 0.14861277
-0.80975193 0.45014673 -0.081054844
-0.80633736 0.44861731 -0.048358425
-0.80017579 0.44555503 -0.015986405
-0.80447024 0.44941911 -0.24691339
-0.78725588 0.43998232 0.015742071
-0.79773736 0.44602293 -0.21100408
-0.79485875 0.44459581 0.047730397
-0.79674667 0.4456518 -0.17745239
-0.78762734 0.44073126 0.078963101
-0.79978609 0.4477182 -0.1451712
-0.74821758 0.41902202 0.10529512
-0.78970814 0.44243869 -0.11114486
-0.77370405 0.43364975 0.14047816
-0.78731948 0.44128099 -0.078963101
-0.78734738 0.44165784 -0.047311708
-0.78117853 0.43855625 -0.015637357
-0.81636238 0.4598088 -0.25105447
-0.79616827 0.44861767 0.015951499
-0.80126846 0.45167568 -0.2123538
-0.79338014 0.44722906 0.047730397
-0.78663588 0.44360822 -0.17554428
-0.76699603 0.43270919 0.077045679
-0.78961682 0.4456529 -0.14360686
-0.75366479 0.42553508 0.10627007
-0.78988731 0.4461689 -0.11138859
-0.78946137 0.44592831 0.14360686
-0.81873167 0.46265042 -0.082275018
-0.79797041 0.4512859 -0.048044413
-0.77797955 0.44015968 -0.015602452
-0.79627353 0.45216244 -0.24536048
-0.77902609 0.44236854 0.015637357
-0.78282195 0.44470468 -0.20785476
-0.80396914 0.45690358 0.048463102
-0.7816692 0.4444108 -0.17478105
-0.763749 0.43439883 0.076871365
-0.79328591 0.45119858 -0.14454547
-0.76777756 0.43686754 0.10846373
-0.77287686 0.43994761 -0.10919494
-0.75700182 0.43108594 0.13797522
-0.7998001 0.45564294 -0.080531903
-0.79993999 0.45590752 -0.048253756
-0.77122736 0.43990037 -0.015497738
-0.7947697 0.45480052 -0.24536048
-0.76879996 0.44011769 0.015462833
-0.78633815 0.45033982 -0.20920448
-0.78530157 0.44992843 -0.17592591
-0.76230425 0.43692914 0.076871365
-0.77971053 0.44708666 -0.14235538
-0.75763845 0.43460625 0.10724504
-0.77650166 0.44560689 -0.10992616
-0.73836118 0.42389074 0.13484652
-0.79137325 0.45432481 -0.079834662
-0.77409899 0.444767 -0.04678835
-0.77835488 0.44757375 -0.015672261
-0.78481042 0.45274532 -0.24277227
-0.77765089 0.44879577 0.015672261
-0.7712599 0.44528711 -0.20560527
-0.78865325 0.4555127 0.047730397
-0.77352583 0.44677535 -0.1736362
-0.77802575 0.44955525 0.078614481
-0.76959407 0.44486275 -0.14079103
-0.75267988 0.4352608 0.10675755
-0.78353292 0.45328477 -0.11114486
-0.78474832 0.45417094 0.14360686
-0.76219183 0.44111642 -0.077045679
-0.77254158 0.44746664 -0.04678835
-0.76813757 0.44527364 -0.015497738
-0.79992527 0.46519363 -0.24794866
-0.78645021 0.45754123 0.015881689
-0.77643788 0.45189765 -0.20740487
-0.77842855 0.45323786 0.047207039
-0.77365839 0.45046043 -0.17401782
-0.78333807 0.45627975 0.079311721
-0.78169054 0.45550287 -0.14329399
-0.73743623 0.42988735 0.10480764
-0.77508658 0.45201707 -0.11016989
-0.75244606 0.43898952 0.13797522
-0.79850769 0.4658626 -0.08088053
-0.78994757 0.46123818 -0.04793974
-0.78039074 0.45602348 -0.015776975
-0.80162966 0.46993709 -0.24898393
-0.79002315 0.46331856 0.015986405
-0.79334486 0.46545243 -0.2123538
-0.79406655 0.46606213 0.048253756
-0.78054702 0.45812714 -0.17592591
-0.78345871 0.46002021 0.079486035
-0.78690892 0.4622305 -0.14454547
-0.73764259 0.43346483 0.10505138
-0.78890562 0.46377406 -0.11236355
-0.77798522 0.45753676 -0.078963101
-0.7900539 0.46500593 -0.048044413
-0.78051716 0.45975968 -0.015811879
-0.80497378 0.4756811 -0.25053686
-0.79356533 0.46912611 0.016091119
-0.7933926 0.46921086 -0.21280369
-0.78220183 0.46259269 0.047625724
-0.79077077 0.4678469 -0.17859723
-0.76813161 0.45463353 0.078091539
-0.79548925 0.47101319 -0.14642268
-0.72929317 0.43199033 0.10407643
-0.78898984 0.46753684 -0.11260728
-0.80894697 0.47955376 -0.082275018
-0.81419152 0.48304722 -0.049614493
-0.77726865 0.46132481 -0.015776975
-0.78837103 0.4695904 -0.2458781
-0.77997917 0.4645918 0.015846785
-0.79015821 0.47084183 -0.2123538
-0.78229791 0.46634302 0.047730397
-0.78744668 0.46959862 -0.17821561
-0.77338409 0.4613952 0.078788787
-0.78204799 0.46656406 -0.1442326
-0.73978865 0.44152778 0.1057826
-0.79254818 0.47320384 -0.1133385
-0.78845447 0.47113305 -0.080357596
-0.78687042 0.47037286 -0.048044413
-0.78251779 0.46814176 -0.015916595
-0.79177874 0.4751845 -0.24743101
-0.78692484 0.47245824 0.016021309
-0.76512188 0.45954973 -0.20605516
-0.78066528 0.46907088 0.047730397
-0.78251952 0.47018501 -0.17745239
-0.78721845 0.47319546 0.080357596
-0.76856446 0.46216518 -0.14204252
-0.73143888 0.4400143 0.10480764
-0.78578907 0.47289649 -0.11260728
-0.77493948 0.46655133 -0.079137415
-0.77153808 0.46487048 -0.047207039
-0.78430384 0.47293565 -0.015986405
-0.79507411 0.48094514 -0.24898393
-0.78184915 0.47313166 0.015951499
-0.75517756 0.45717186 -0.20380566
-0.77389801 0.4686892 0.047416382
-0.77415627 0.46884561 -0.17592591
-0.78385782 0.47490802 0.080183282
-0.7770822 0.47098869 -0.14391972
-0.72650367 0.44050625 0.10432017
-0.77734458 0.47151855 -0.11163233
-0.77671272 0.47132093 -0.079486035
-0.77503198 0.47067103 -0.047521055
-0.76385105 0.46424595 -0.015602452
-0.78679264 0.47969493 -0.24691339
-0.78190017 0.47689906 0.015986405
-0.77520311 0.47300026 -0.20965438
-0.77737159 0.47450954 0.047730397
-0.7657305 0.46758705 -0.17439944
-0.76008987 0.46414262 0.077917233
-0.77543354 0.47369817 -0.14391972
-0.7317369 0.44718009 0.10529512
-0.77569383 0.47422931 -0.11163233
-0.76988155 0.4710449 -0.078963101
-0.77330172 0.47350848 -0.047521055
-0.75881541 0.46482036 -0.015532642
-0.77350885 0.47549367 -0.24328992
-0.77674013 0.47766683 0.015916595
-0.76018602 0.46766931 -0.20605516
-0.78413182 0.48258975 0.048253756
-0.75732428 0.4662734 -0.17287296
-0.76856315 0.47319299 0.078963101
-0.76360053 0.47032148 -0.14204252
-0.74192327 0.45714846 0.10700129
-0.78746933 0.48540208 -0.11358224
-0.75967145 0.46863326 -0.078091539
-0.76306349 0.4710938 -0.046997696
-0.76561344 0.47285235 -0.015707165
-6.8522525 4.2469187 -2.1601038
-0.77158517 0.47840285 0.015846785
-8.0317984 4.9818664 -2.1820252
-0.78583699 0.48742947 0.048463102
-9.8290014 6.09899 -2.2484932
-0.77528751 0.48126075 0.079834662
-0.77529663 0.4814539 -0.14454547
-0.72169447 0.44834188 0.10432017
-6.8479619 4.2757592 -2.1632097
-8.0135813 5.0074415 -2.1815755
-0.82994813 0.51860917 0.051289242
-9.8087225 6.1315508 -2.2484932
-0.78044444 0.48805448 0.080531903
-12.494685 7.8166451 -2.3343153
-0.72693455 0.45494506 0.10529512
-17.16205 10.740705 -2.4858911
-24.058256 15.06832 -2.4835901
-24.307972 15.242448 -0.50081426
-6.8435569 4.304616 -2.1663156
-8.0101252 5.0422931 -2.1851747
-9.8032875 6.17346 -2.2519279
-12.472037 7.8601427 -2.3349411
-0.72878033 0.4594706 0.1057826
-17.117743 10.796309 -2.4849162
-24.339109 15.362773 -2.5181038
-26.415674 16.679934 -1.6372783
-24.357733 15.392369 -0.50294346
-6.8228393 4.3265643 -2.1647625
-24.377436 15.458453 0.503851
-8.0007029 5.0754433 -2.1874242
-9.7839108 6.211452 -2.252691
-12.456485 7.9142737 -2.3374441
-0.72382116 0.45988247 0.10529512
-17.113453 10.877295 -2.4897909
-23.76083 15.114001 -2.4637184
-6.8093224 4.3513961 -2.1652801
-7.9902558 5.1099801 -2.1896734
-9.7704363 6.2508588 -2.2545993
-12.442092 7.9662294 -2.339947
-0.71878743 0.46039116 0.10480764
-17.110245 10.963504 -2.4951532
-24.301716 15.57747 -2.5254247
-6.7989659 4.3782754 -2.1668332
-7.9772844 5.1410079 -2.1910233
-9.770009 6.2987528 -2.2595603
-12.434125 8.0224657 -2.3437014
-0.71550822 0.46182078 0.10456391
-17.105225 11.044701 -2.5000281
-24.280659 15.683831 -2.5289109
-45.683414 29.531298 -2.8508446
-6.7803998 4.3998785 -2.1657977
-7.9511185 5.163516 -2.1887739
-9.7644253 6.343514 -2.2633765
-12.422608 8.0765848 -2.3468301
-0.70557141 0.45890394 0.10334522
-17.075161 11.105692 -2.501003
-24.329298 15.835872 -2.5397184
-6.7706227 4.4255095 -2.1673508
-7.9518909 5.2015896 -2.1937227
-9.7433357 6.3758597 -2.2633765
-12.412283 8.1285582 -2.3499587
-0.7073667 0.4634169 0.10383269
-17.061485 11.177485 -2.5044153
-24.266651 15.909912 -2.5386724
-46.199394 30.312704 -2.8958533
-6.7494555 4.4436884 -2.1652801
-7.9362264 5.2290006 -2.1941726
-9.7319746 6.4146175 -2.2656662
-12.411644 8.1870747 -2.3549647
-0.71245354 0.47013336 0.10480764
-17.052185 11.256658 -2.5088024
-24.626564 16.269077 -2.5822504
-6.7347341 4.4694638 -2.1657977
-7.930912 5.2652965 -2.1977718
-9.7247524 6.4611063 -2.2694824
-12.398 8.2434511 -2.3580933
-0.70750201 0.47041929 0.10432017
-17.032625 11.329301 -2.5117273
-24.718891 16.454302 -2.5979383
-6.7303319 4.5004616 -2.1694212
-7.91642 5.2975788 -2.1991215
-9.7005072 6.4939208 -2.2691007
-12.41182 8.3152618 -2.3662279
-0.70907104 0.47521955 0.10480764
-17.027258 11.415977 -2.5170896
-24.717567 16.578217 -2.6038649
-6.7161837 4.5250092 -2.169939
-7.8978796 5.3251801 -2.1991215
-9.6940556 6.5387235 -2.2729168
-12.382719 8.3585367 -2.3662279
-0.69260174 0.46769363 0.102614
-17.010334 11.490897 -2.5205021
-24.798214 16.758102 -2.6185069
-6.7019463 4.549509 -2.1704566
-7.8953614 5.3636694 -2.2036204
-9.6841621 6.5813479 -2.2759697
-12.3698 8.4128218 -2.3693566
-0.70245379 0.47792479 0.10432017
-16.970119 11.550205 -2.5205021
-24.337721 16.570965 -2.5759752
-6.7019701 4.5837817 -2.175633
-7.8807492 5.3920207 -2.2045202
-9.6627502 6.6162219 -2.2763515
-12.351613 8.4604912 -2.3712339
-0.70414007 0.48249575 0.10480764
-16.977571 11.637843 -2.5273266
-24.867914 17.059305 -2.6383786
-46.818047 32.129036 -2.9758229
-6.6787786 4.600502 -2.1730449
-7.8763199 5.4294515 -2.2085695
-9.655303 6.6582599 -2.2797861
-12.335011 8.5125303 -2.3737369
-0.69918436 0.48269519 0.10432017
-16.946646 11.703805 -2.5287893
-25.201336 17.411221 -2.6798646
-46.662891 32.262737 -2.9731014
-6.6642666 4.6248889 -2.1735625
-7.8566728 5.4544277 -2.2081196
-9.6449013 6.7008834 -2.2828391
-12.329427 8.569169 -2.3781171
-0.70083952 0.48727751 0.10480764
-16.94359 11.784874 -2.5341513
-25.186197 17.530949 -2.6847453
-46.552368 32.415016 -2.9728918
-6.6488929 4.6469631 -2.1735625
-7.8407774 5.4840555 -2.2090194
-9.6403217 6.7452121 -2.2870369
-12.292964 8.607625 -2.3768656
-0.69263071 0.48516542 0.10383269
-16.944622 11.87356 -2.5404885
-24.478598 17.159203 -2.6153696
-46.380081 32.536015 -2.9691238
-6.6357913 4.6723666 -2.1745977
-7.825736 5.5122685 -2.2099192
-9.6215324 6.7822123 -2.2881815
-12.299869 8.6733885 -2.3837488
-0.68452966 0.48288253 0.10285773
-16.92786 11.945711 -2.5439007
-24.132116 17.042265 -2.5846908
-46.353493 32.747261 -2.9743574
-6.612318 4.6921864 -2.1725271
-7.8124571 5.5479183 -2.2121687
-9.5982084 6.8185716 -2.2885633
-12.279357 8.7297058 -2.3862517
-0.68590587 0.48780832 0.10334522
-16.901276 12.024433 -2.5468256
-24.332457 17.317755 -2.6129291
-46.227406 32.925014 -2.9743574
-6.6084728 4.724226 -2.1766684
-7.8114524 5.5862651 -2.2171178
-9.5887194 6.8623152 -2.2919979
-12.259977 8.7772779 -2.3881288
-0.70687872 0.50626212 0.10675755
-16.887125 12.098912 -2.5507255
-24.294525 17.41884 -2.6153696
-46.140686 33.094433 -2.9758229
-6.5974741 4.7495003 -2.1782212
-7.7903228 5.6123581 -2.2166677
-9.5770588 6.9021101 -2.2946692
-12.238876 8.8269529 -2.3900061
-0.71154654 0.51337242 0.10773251
-16.864107 12.171723 -2.5536504
-24.352936 17.583282 -2.6279199
-45.989277 33.229542 -2.97352
-6.582418 4.7736354 -2.1787388
-7.7738385 5.6418095 -2.2175674
-9.5656166 6.9447255 -2.2977221
-12.217577 8.8765907 -2.3918834
-0.71777922 0.5216884 0.1089512
-16.847204 12.249194 -2.5575502
-24.948805 18.146338 -2.699039
-45.724442 33.281746 -2.9638903
-6.567275 4.7977228 -2.1792564
-7.7619638 5.6746593 -2.2198169
-9.544486 6.9803915 -2.2984853
-12.205647 8.9331808 -2.3956378
-0.70314026 0.51480925 0.10700129
-16.809147 12.311452 -2.5582814
-24.846743 18.205046 -2.6948555
-45.537113 33.389198 -2.9592845
-6.5520444 4.8217611 -2.179774
-7.748385 5.7063413 -2.2216165
-9.5327082 7.0229797 -2.3015382
-12.18393 8.9827662 -2.3975151
-0.71411961 0.52668667 0.1089512
-16.798021 12.39362 -2.5631564
-24.619532 18.170986 -2.6770759
-45.330322 33.481487 -2.953423
-6.5336218 4.8434529 -2.1792564
-7.7440715 5.7449632 -2.2261157
-9.5175934 7.0632348 -2.303828
-12.1525 9.0252419 -2.3975151
-16.789707 12.478231 -2.5685184
-24.862944 18.485054 -2.7105436
-45.072163 33.534599 -2.944212
-6.5259609 4.8731666 -2.1823623
-7.7192869 5.7684603 -2.224766
-9.5070314 7.1069942 -2.3072627
-12.146232 9.0865374 -2.4025209
-16.809612 12.584348 -2.5782681
-23.493765 17.594772 -2.5679567
-44.88451 33.639027 -2.9396062
-6.5089107 4.8959169 -2.1823623
-7.691318 5.7895126 -2.2225163
-9.4884386 7.1448603 -2.308789
-12.120748 9.1336393 -2.4037724
-16.765585 12.642945 -2.5782681
-24.730104 18.655781 -2.7101948
-44.693493 33.740135 -2.9347913
-6.5010209 4.9256058 -2.185468
-7.6881428 5.8292766 -2.2274654
-9.475955 7.1874266 -2.3118417
-12.110819 9.1926126 -2.4081526
-16.715023 12.696592 -2.5772932
-24.595034 18.688951 -2.7025251
-44.460972 33.808907 -2.9272549
-6.4837871 4.9482689 -2.185468
-7.6785903 5.864356 -2.2306147
-9.4445696 7.215694 -2.3103154
-12.078659 9.2348289 -2.4081526
-16.680061 12.7621 -2.5787556
-44.412449 34.017338 -2.9318607
-6.466475 4.9708714 -2.185468
-7.6688852 5.8994408 -2.2337639
-9.437993 7.2629876 -2.3148949
-12.068261 9.2938089 -2.4125326
-16.654284 12.834785 -2.5816805
-24.280928 18.719084 -2.6823051
-44.189072 34.091625 -2.9249523
-6.4567218 4.9993277 -2.1880562
-7.6513262 5.9285612 -2.2346637
-9.4249983 7.3055086 -2.3179479
-12.045112 9.3431435 -2.4144099
-16.637606 12.914751 -2.5860677
-24.268936 18.845282 -2.6882317
-43.987797 34.181942 -2.9195094
-6.4422779 5.0242114 -2.1890914
-7.6244402 5.950438 -2.2328641
-9.4087248 7.3456125 -2.3202376
-12.01865 9.3899965 -2.4156613
-16.583038 12.965411 -2.5846052
-24.137096 18.878323 -2.6809106
-43.849331 34.320511 -2.9182532
-6.4368539 5.0562148 -2.1932325
-7.6174111 5.9878554 -2.2369132
-9.3830261 7.3784108 -2.3202376
-12.013742 9.4538813 -2.421293
-16.568871 13.047782 -2.5894799
-24.139915 19.01671 -2.6885803
-43.628883 34.39423 -2.9115543
-6.4176521 5.0774536 -2.1927149
-7.59904 6.0142922 -2.2373631
-9.3633709 7.4159923 -2.321764
-12.000904 9.5083895 -2.4250474
-16.57218 13.139649 -2.5967922
-24.238829 19.232128 -2.7070572
-43.477036 34.50893 -2.9090421
-6.4083338 5.1047254 -2.1953032
-7.5962863 6.0553579 -2.2427619
-9.3479357 7.4543452 -2.3240535
-11.970728 9.5526867 -2.425673
-16.547926 13.214766 -2.6002045
-24.234072 19.359659 -2.7136812
-43.228394 34.558205 -2.9004591
-6.3904757 5.1270638 -2.1953032
-7.5751038 6.0818353 -2.2427619
-9.327981 7.491848 -2.3255801
-11.940392 9.5968876 -2.4262989
-16.526447 13.292355 -2.6041045
-24.271906 19.529058 -2.7255342
-43.132389 34.728939 -2.9021337
-6.3770471 5.1529841 -2.1968563
-7.5553432 6.1094656 -2.2432117
-9.313982 7.5342441 -2.3286331
-11.928315 9.6559086 -2.4306791
-16.483036 13.352457 -2.6045918
-24.361479 19.741611 -2.743314
-43.029522 34.894371 -2.9033897
-6.365015 5.180089 -2.1989267
-7.5441098 6.1418695 -2.2459114
-9.2967606 7.5741477 -2.3309228
-11.902353 9.7004032 -2.4319305
-16.450972 13.41708 -2.6065416
-24.381939 19.899605 -2.7534242
-42.873341 35.004044 -2.9006684
-6.3433199 5.197495 -2.1973739
-7.5361872 6.1792865 -2.2499604
-9.2715912 7.6049356 -2.3309228
-11.88369 9.754425 -2.4350593
-16.422445 13.489544 -2.6094666
-24.447773 20.095928 -2.7687635
-42.70153 35.112881 -2.8973188
-6.3301859 5.2256289 -2.1994443
-7.5070596 6.1993494 -2.2477109
-9.25879 7.6513739 -2.334739
-11.860035 9.8079863 -2.4375622
-16.402788 13.569565 -2.6138539
-24.478773 20.264994 -2.7802682
-42.514095 35.220745 -2.8933413
-6.3267627 5.2600422 -2.2046208
-7.4962697 6.2367954 -2.2513101
-9.2410793 7.6911793 -2.3370285
-11.825727 9.8493261 -2.4375622
-16.359043 13.634676 -2.6148288
-24.514492 20.446466 -2.7928185
-42.372498 35.353569 -2.8920853
-6.3104014 5.2856784 -2.2056561
-7.469974 6.2591677 -2.2499604
-9.2248621 7.7350917 -2.3400817
-11.798627 9.9002228 -2.4394393
-16.311348 13.691698 -2.6148288
-24.613842 20.675434 -2.8123415
-42.080574 35.372414 -2.88099
-6.2943163 5.3078208 -2.2061737
-7.4570155 6.2927451 -2.25266
-9.203661 7.7694397 -2.3412266
-11.786858 9.9571409 -2.4438195
-16.266487 13.751114 -2.6153164
-24.700317 20.888168 -2.830121
-41.862419 35.426613 -2.8740819
-6.2875304 5.3397627 -2.2103145
-7.4528213 6.3338823 -2.2580585
-9.185461 7.8091469 -2.3435161
-11.773091 10.016145 -2.4481997
-16.236528 13.823249 -2.6182413
-24.775906 21.100866 -2.847204
-41.613853 35.466286 -2.8654985
-6.2615128 5.3553996 -2.2077267
-7.432148 6.3611274 -2.2585087
-9.1626196 7.8449936 -2.344661
-11.741057 10.059751 -2.4488254
-16.191189 13.88243 -2.6187286
-24.774687 21.249481 -2.8555706
-41.520111 35.637352 -2.8675921
-6.2486353 5.3822675 -2.2097969
-7.4158034 6.3921189 -2.2603083
-9.1559944 7.8948779 -2.3500037
-11.708864 10.103251 -2.4494512
-16.151646 13.94665 -2.6201911
-24.724489 21.356665 -2.8583596
-41.316887 35.714149 -2.862149
-6.2400227 5.4129086 -2.2134204
-7.3934455 6.4179659 -2.2603083
-9.1417208 7.9383783 -2.3534384
-11.67949 10.149244 -2.4507027
-16.105864 14.005545 -2.6206787
-24.664824 21.455915 -2.8601029
-41.110626 35.787331 -2.8564968
-6.2370954 5.448637 -2.2191145
-7.3823929 6.4514241 -2.2634575
-9.1139565 7.9702387 -2.3534384
-11.660637 10.200927 -2.4538314
-16.068291 14.066722 -2.6221409
-24.595766 21.547138 -2.8608
-40.958683 35.894501 -2.8541939
-6.2102885 5.4616356 -2.2160087
-7.3700681 6.486167 -2.2666068
-9.1036854 8.0146885 -2.3576362
-11.642744 10.257237 -2.4575858
-16.025045 14.127976 -2.6231158
-24.487539 21.603861 -2.8569653
-40.758263 35.971176 -2.8489604
-6.193121 5.4869227 -2.2170439
-7.3517599 6.5157309 -2.2679565
-9.1021557 8.072752 -2.364887
-11.608026 10.302464 -2.4582114
-15.984541 14.191737 -2.6245785
-24.42985 21.705086 -2.8590569
-40.569427 36.069897 -2.8449829
-6.181139 5.5149374 -2.2196321
-7.3350949 6.5491228 -2.270206
-9.0666008 8.0979347 -2.3629787
-11.569047 10.340289 -2.4575858
-15.938336 14.255522 -2.6255534
-24.353935 21.790232 -2.8590569
-40.351021 36.128689 -2.8384933
-6.1690345 5.5429378 -2.2222204
-7.3092933 6.5720801 -2.2693062
-9.0368166 8.1282234 -2.3625972
-11.568121 10.412323 -2.4650946
-15.885527 14.308413 -2.6250658
-24.301413 21.896444 -2.861846
-40.183125 36.231876 -2.8355625
-6.1525135 5.56703 -2.2232556
-7.2978635 6.6080189 -2.2729053
-9.0127535 8.1636724 -2.3637419
-11.531702 10.452642 -2.4650946
-15.835486 14.363773 -2.6250658
-24.21302 21.970432 -2.8604512
-40.023884 36.342369 -2.8332596
-6.1330442 5.5884709 -2.2232556
-7.2831116 6.6387467 -2.2751548
-8.9900064 8.2003727 -2.3652685
-11.499897 10.493486 -2.4657204
-22.459732 20.501369 3.7338333
-15.80536 14.43227 -2.6279907
-22.527103 20.584497 -2.6697547
-6.1144781 5.6087785 -2.2232556
-7.2642007 6.6680837 -2.2765048
-8.9685469 8.2354517 -2.3667948
-11.474832 10.544261 -2.4682233
-15.744656 14.477947 -2.6262846
-24.077576 22.148224 -2.8621943
-39.511074 36.370483 -2.8144186
-22.509619 20.72768 -0.53411347
-6.0962811 5.6313987 -2.2237732
-7.2477732 6.6974258 -2.2783043
-8.9541597 8.2800379 -2.3706112
-11.448505 10.590301 -2.4701006
-15.716952 14.548959 -2.6296968
-22.599871 20.935034 -2.6952043
-39.352161 36.466015 -2.8116972
-22.41074 20.781645 -0.53348517
-6.0903058 5.663424 -2.2284322
-7.2243505 6.7226849 -2.2783043
-8.9496441 8.3310871 -2.3767169
-11.41725 10.635585 -2.4713519
-15.67188 14.609148 -2.6306717
-22.532484 21.01923 -2.6959014
-39.14286 36.526852 -2.8058355
-22.311754 20.835182 -0.53285688
-6.0695086 5.6857066 -2.2284322
-7.2093706 6.7558565 -2.2810037
-8.9190512 8.3638315 -2.3767169
-11.389715 10.688174 -2.473855
-22.25889 20.887869 3.7479701
-15.632366 14.674633 -2.6326218
-21.811316 20.489349 -2.6181583
-21.842903 20.533379 -1.5711256
-21.918402 20.611559 -0.52517784
-6.0524335 5.7095113 -2.2294674
-21.898392 20.664885 0.52556181
-7.1930656 6.7902603 -2.2837031
-21.943636 20.714811 1.5814881
-8.8840895 8.3895245 -2.3751905
-21.942297 20.728045 2.6408188
-11.369567 10.744144 -2.4776094
-21.985994 20.783852 3.7148218
-15.595784 14.748198 -2.6355467
-21.739666 20.565355 -2.6181583
-21.672462 20.516132 -1.5640079
-21.80566 20.64945 -0.5242005
-6.0310664 5.7292733 -2.2289498
-7.1832213 6.8261571 -2.2877522
-8.8590183 8.4245443 -2.3763354
-11.345326 10.792682 -2.4801123
-21.893942 20.834751 3.7109218
-15.549666 14.802572 -2.636034
-22.775654 21.696541 -2.7520297
-21.581175 20.565844 -1.5623331
-6.0148263 5.7519121 -2.229985
-7.1551261 6.8471479 -2.2864025
-8.8551426 8.4769554 -2.382823
-11.313289 10.837685 -2.4813638
-21.86408 20.952253 3.7182341
-15.523697 14.881483 -2.6404214
-21.546722 20.677006 -1.5650545
-5.9992704 5.7792792 -2.2320557
-7.1311798 6.8720841 -2.2864025
-8.829668 8.5148029 -2.3843493
-11.276334 10.881821 -2.4819896
-21.733677 20.973305 3.7084844
-15.471656 14.935582 -2.6404214
-21.582798 20.864117 -1.5732189
-5.9859939 5.8069115 -2.2346439
-7.1185298 6.9103894 -2.2904515
-8.8027096 8.5483093 -2.3851125
-11.24678 10.929377 -2.4838667
-15.433884 15.008799 -2.6433463
-5.9643049 5.8264203 -2.2341261
-7.0941811 6.9325962 -2.2900016
-8.771409 8.5776129 -2.3847308
-11.22177 10.977663 -2.4863696
-15.395378 15.071008 -2.6452963
-5.9408197 5.8421016 -2.2325733
-7.0810504 6.9682522 -2.2936008
-8.7541132 8.6176682 -2.387784
-11.191827 11.025085 -2.4882469
-15.345506 15.127439 -2.6457837
-5.9258804 5.8682432 -2.2346439
-7.0606732 6.9944391 -2.2945008
-8.733736 8.6578503 -2.3904552
-11.155204 11.062139 -2.4882469
-15.283984 15.167058 -2.6438336
-5.9149356 5.8984413 -2.2382672
-7.0308509 7.0161409 -2.2931509
-8.7131872 8.6979933 -2.3931265
-11.122971 11.111328 -2.4901242
-15.231099 15.225782 -2.6443214
-5.8970375 5.9217882 -2.2393024
-7.0090666 7.0434031 -2.2940509
-8.6841564 8.7297468 -2.3935082
-11.089686 11.155689 -2.4913754
-15.172261 15.273222 -2.6433463
-5.8790474 5.9450846 -2.2403376
-6.9981351 7.0816884 -2.2985499
-8.660532 8.7669888 -2.3954163
-11.061779 11.205579 -2.4938784
-15.116067 15.323265 -2.6428587
-22.419773 22.735016 -2.7935159
-5.8555517 5.9628129 -2.2393024
-6.9856582 7.1185894 -2.302599
-8.6285019 8.7957649 -2.3950348
-11.030897 11.252584 -2.4957557
-15.068044 15.381609 -2.6438336
-22.359797 22.833061 -2.7959561
-5.841445 5.9901338 -2.2418907
-6.9607668 7.1429305 -2.302599
-8.6169233 8.845521 -2.4003773
-23.227261 23.85177 2.912745
-10.997064 11.296683 -2.4970071
-15.022569 15.442647 -2.6452963
-22.360519 22.993818 -2.8060663
-5.8325958 6.0229764 -2.2465494
-6.9370413 7.1659746 -2.302599
-8.5887251 8.8783655 -2.4011405
-10.96778 11.341609 -2.4988844
-14.960238 15.480959 -2.6433463
-22.509863 23.309647 -2.8350017
-5.8179483 6.0478539 -2.24862
-6.9173875 7.195765 -2.3043985
-8.567399 8.9152918 -2.4034302
-10.944543 11.396923 -2.5026388
-14.90336 15.530222 -2.6428587
-22.469734 23.431217 -2.8402312
-5.795742 6.0691376 -2.24862
-6.8976097 7.2255063 -2.3061984
-8.5387306 8.9508953 -2.4045751
-10.894519 11.428381 -2.5007617
-14.846318 15.579275 -2.6423714
-22.437271 23.561451 -2.8465064
-5.7705355 6.085125 -2.247067
-6.8844852 7.264884 -2.3106971
-8.5114861 8.9849205 -2.40572
-10.870854 11.483555 -2.5045159
-14.794575 15.639353 -2.6433463
-22.409649 23.697535 -2.8534789
-5.7532306 6.1094518 -2.24862
-6.8576841 7.2848363 -2.3097975
-8.4867945 9.0217285 -2.4076281
-10.843539 11.531054 -2.507019
-14.74535 15.691222 -2.6438336
-22.498644 23.958609 -2.875442
-5.7461381 6.1426034 -2.2537963
-6.8375373 7.3144221 -2.3115969
-8.4702349 9.064167 -2.4114442
-10.803226 11.568832 -2.507019
-14.690487 15.742598 -2.6438336
-22.544106 24.167124 -2.891479
-5.7272897 6.1654563 -2.2548318
-6.8146157 7.3411026 -2.3124969
-8.44522 9.100873 -2.4133523
-10.778895 11.623855 -2.5107734
-14.646243 15.805427 -2.6457837
-22.578751 24.374298 -2.9068182
-5.7057347 6.1854095 -2.2548318
-6.798193 7.3748765 -2.3156462
-8.4094105 9.1259642 -2.4122074
-10.751632 11.675943 -2.5139022
-14.601736 15.868142 -2.6477337
-22.666183 24.640659 -2.9291301
-5.6788888 6.1995902 -2.2527611
-6.7763567 7.4028726 -2.3169959
-8.3854561 9.1639538 -2.4144971
-10.70548 11.707568 -2.5126505
-14.543574 15.916087 -2.6472459
-22.730537 24.884382 -2.948653
-5.6702118 6.2336659 -2.2579374
-6.7570281 7.4336915 -2.3192453
-8.3758621 9.2178698 -2.4209847
-10.672516 11.753642 -2.514528
-14.487931 15.966754 -2.6472459
-22.790779 25.125908 -2.9678273
-5.6535988 6.2591543 -2.2600081
-6.7231989 7.4459338 -2.3160961
-8.3462648 9.2499666 -2.4217479
-10.646709 11.803636 -2.5176563
-14.416298 15.994067 -2.6438336
-22.81761 25.332623 -2.9828181
-5.6392627 6.285058 -2.2625961
-6.7023706 7.4751611 -2.3178957
-8.315546 9.2775917 -2.4217479
-10.613351 11.849558 -2.5195339
-14.389505 16.076834 -2.6491959
-22.8557 25.544754 -2.9988546
-5.616004 6.3032618 -2.2620785
-6.6879001 7.5116086 -2.3219447
-8.2883301 9.3124304 -2.4232745
-10.574551 11.889482 -2.5201595
-14.306925 16.097292 -2.6443214
-22.761106 25.618418 -2.9981575
-5.5914049 6.3199344 -2.2610431
-6.6719646 7.5465875 -2.3255439
-8.2648735 9.3516026 -2.4259458
-24.581142 27.82303 3.2481201
-10.535599 11.929284 -2.5207851
-14.248023 16.144154 -2.6438336
-22.666264 25.691744 -2.9974604
-5.5693111 6.3394122 -2.2610431
-6.6468649 7.5712972 -2.3259938
-8.2412462 9.3907223 -2.428617
-10.506916 11.980842 -2.5239139
-14.196815 16.199762 -2.6448088
-22.531805 25.719753 -2.9915335
-5.5534987 6.3660932 -2.2636313
-6.6178365 7.5915141 -2.325094
-8.2109957 9.4223928 -2.4293802
-10.465031 12.017445 -2.5239139
-14.133661 16.241735 -2.64359
-22.392199 25.741125 -2.9849098
-5.5413613 6.3971214 -2.2677724
-6.5963984 7.6204624 -2.3268938
-8.1793394 9.4524822 -2.4297619
-10.464365 12.101714 -2.5339255
-14.082071 16.29698 -2.6445649
-22.195415 25.69549 -2.9706163
-5.5227776 6.4208202 -2.2693255
-6.5735679 7.6478748 -2.3282435
-8.1539707 9.4899101 -2.4320514
-10.427207 12.144165 -2.5351772
-14.009591 16.327955 -2.6416399
-22.105587 25.77281 -2.9706163
-5.4978199 6.4371223 -2.2682903
-6.5556889 7.681149 -2.3313928
-8.1258898 9.524291 -2.433578
-10.382193 12.17748 -2.5345516
-13.965387 16.391867 -2.6440775
-21.961222 25.786114 -2.963295
-5.4778171 6.4592195 -2.2693255
-6.5288348 7.7039876 -2.3313928
-8.0964031 9.5570908 -2.4347229
-10.331959 12.204601 -2.5326743
-13.900388 16.431425 -2.6426151
-21.819626 25.80176 -2.9563227
-5.4602146 6.4842105 -2.2713959
-6.5044146 7.7297111 -2.3322923
-8.0642605 9.5867949 -2.4351046
-10.29184 12.243615 -2.5332999
-13.832727 16.46769 -2.6406653
-21.714056 25.859451 -2.9542308
-5.4437418 6.510643 -2.2739842
-6.4798899 7.755362 -2.3331923
-8.0345192 9.6194086 -2.4362495
-10.259162 12.291601 -2.5358031
-13.783133 16.519564 -2.6416399
-21.572615 25.873884 -2.9472585
-5.4208884 6.5271716 -2.2734666
-6.460361 7.7843037 -2.3354418
-8.0075922 9.6520414 -2.4377759
-10.225912 12.334677 -2.5376801
-13.763746 16.607973 -2.6484647
-21.446035 25.896172 -2.9416807
-5.3992124 6.545114 -2.2734666
-6.4469047 7.8207226 -2.3399408
-7.9805322 9.6846046 -2.4393022
-10.177415 12.359372 -2.5358031
-13.713262 16.665112 -2.6499274
-21.337788 25.949337 -2.9392402
-5.3825316 6.5738258 -2.2765725
-6.4232712 7.847702 -2.3412907
-7.9549284 9.7259455 -2.4423552
-26.312302 32.181705 3.6368346
-10.14205 12.408824 -2.5383058
-13.644954 16.700584 -2.6479774
-21.214321 25.983528 -2.9347081
-5.3632059 6.5970726 -2.2781253
-6.3956952 7.8727026 -2.3417406
-7.9345417 9.7704201 -2.446553
-26.252554 32.338318 3.6441557
-10.108628 12.456424 -2.5408089
-13.583654 16.750479 -2.6479774
-21.103411 26.032665 -2.9319193
-5.3474269 6.6247721 -2.2812312
-6.3707747 7.8953867 -2.3421905
-7.9077845 9.8072262 -2.4488428
-10.092062 12.520636 -2.5470665
-13.528028 16.795437 -2.6479774
-20.994928 26.084438 -2.9294789
-5.3205972 6.6364388 -2.2791607
-6.351707 7.9282217 -2.3453398
-7.8715396 9.8287973 -2.4476981
-10.053229 12.561959 -2.5483177
