# .PCD v0.7 - Point Cloud Data file format
VERSION 0.7
FIELDS x y z
SIZE 4 4 4
TYPE F F F
COUNT 1 1 1
WIDTH 1453
HEIGHT 1
VIEWPOINT 0 0 0 1 0 0 0
POINTS 1453
DATA ascii
1.7158067 -11.647547 -1.8646991
2.2414012 -15.252416 -1.8928748
2.9896894 -20.369123 -1.8011605
3.9618011 -27.057968 -1.4331679
1.0345336 -7.1526289 -1.9364842
1.20795 -8.3619156 0.14747284
1.1857656 -8.218482 -1.9170328
1.4068052 -9.7625494 -1.9172488
1.6734519 -11.641733 -1.8628219
1.2107227 -8.4435816 -1.0473453
1.2100226 -8.449192 -0.74675041
1.2094585 -8.4663105 -0.44820517
1.2034605 -8.4453869 -0.14890394
1.0082095 -7.1466317 -1.9338959
1.1773598 -8.3561792 0.14729832
1.1576134 -8.226429 -1.9179326
1.1855546 -8.4356594 -1.6558405
1.1822337 -8.4333878 -1.3487781
1.1845402 -8.4713469 -1.0502701
1.1852062 -8.4869089 -0.74971366
1.180999 -8.4783936 -0.44862387
1.1747994 -8.4554768 -0.14900865
0.98273134 -7.1462798 -1.9328607
1.1500876 -8.3741064 0.14754264
1.1273025 -8.2188368 -1.9152331
1.1585001 -8.4572515 -1.6592751
1.15466 -8.4511633 -1.3509682
1.1520139 -8.4537945 -1.0475889
1.1476531 -8.4438143 -0.74553025
1.1508603 -8.478507 -0.44841453
1.1404469 -8.4238577 -0.14838037
0.95704442 -7.1536632 -1.9338959
1.1208502 -8.3780699 0.14754264
1.0975741 -8.2149954 -1.9134337
1.1254203 -8.4458723 -1.6562221
1.1205543 -8.4318409 -1.3472137
1.1227597 -8.459733 -1.0478327
1.1184318 -8.4497442 -0.74570453
1.1161176 -8.4549456 -0.44694909
1.1115587 -8.4317522 -0.14845017
0.93281591 -7.1627073 -1.9354489
1.0950356 -8.4197989 0.14820585
1.0679592 -8.222827 -1.9143335
1.0946691 -8.4400148 -1.654314
1.092636 -8.4474545 -1.3490911
1.0894588 -8.4460716 -1.0456392
1.0889306 -8.4535971 -0.74570453
1.0853251 -8.4488869 -0.44642577
1.0836471 -8.4474821 -0.1486596
0.90659356 -7.1563377 -1.9328607
1.0708778 -8.4531412 0.14872941
1.0399514 -8.2205248 -1.9129838
1.0637267 -8.4320974 -1.6520243
1.0660982 -8.4627914 -1.3509682
1.0619402 -8.453577 -1.0461266
1.0576807 -8.4435081 -0.74448436
1.055319 -8.4365835 -0.44558835
1.0504395 -8.4214487 -0.14813603
0.88214779 -7.1535525 -1.9313078
1.0413651 -8.4568272 0.14872941
1.01244 -8.2337751 -1.9152331
1.035998 -8.4375277 -1.6524061
1.0341502 -8.4468527 -1.3478395
1.0321845 -8.4552622 -1.0458828
1.0284425 -8.4491262 -0.74465865
1.0265862 -8.4461641 -0.44590241
1.0212779 -8.4270487 -0.14817093
0.85592347 -7.1567378 -1.9313078
1.0094641 -8.4405556 0.14838037
0.98323011 -8.2333889 -1.9143335
1.0041373 -8.4334698 -1.6508795
1.0024865 -8.4447021 -1.3469009
1.0000932 -8.43713 -1.0432017
0.9935658 -8.407156 -0.74064946
0.99492115 -8.4439192 -0.44558835
0.99068636 -8.4206324 -0.14799641
0.83049095 -7.1558437 -1.9302725
0.97737002 -8.434267 0.14820585
0.95147771 -8.2233868 -1.9111842
0.97334176 -8.4252224 -1.6485898
0.97209746 -8.4403 -1.3456494
0.97063684 -8.4405689 -1.0432017
0.96421206 -8.410574 -0.74064946
0.96113211 -8.4096384 -0.44359964
0.95924717 -8.4061584 -0.14768228
0.80740553 -7.1643176 -1.9318254
0.94961894 -8.4394493 0.14824075
0.92529124 -8.2361794 -1.9134337
0.94430274 -8.4186478 -1.6466817
0.94168925 -8.4218836 -1.3422079
0.94065905 -8.4259853 -1.0410081
0.94028246 -8.4493675 -0.74378711
0.93698275 -8.4465265 -0.44537902
0.93202603 -8.4152555 -0.14778697
0.7836439 -7.1669555 -1.9318254
0.9220621 -8.4465265 0.14831054
0.8977626 -8.2372656 -1.9129838
0.91595525 -8.4178295 -1.6459185
0.9146077 -8.4328146 -1.3434594
0.91081417 -8.425271 -1.0405205
0.90971649 -8.4426937 -0.74291551
0.90789837 -8.4396582 -0.44485566
0.90136725 -8.4065275 -0.14757755
0.7559489 -7.1563315 -1.9282019
0.89152122 -8.4397516 0.14813603
0.86920875 -8.2422867 -1.9134337
0.88509607 -8.4211302 -1.6459185
0.88328296 -8.4321814 -1.3428336
0.88119221 -8.426424 -1.0402768
0.87734979 -8.4180746 -0.74047518
0.87613487 -8.4349823 -0.444437
0.87160373 -8.4056444 -0.14750774
0.72978729 -7.1473951 -1.9250962
0.85693276 -8.4071531 0.14750774
0.83820415 -8.2376623 -1.911634
0.85529941 -8.4202614 -1.6451553
0.85125637 -8.4096632 -1.3387663
0.85070121 -8.433547 -1.0407642
0.84449732 -8.4014101 -0.7387321
0.84648633 -8.4360018 -0.44433233
0.84098953 -8.4107723 -0.14754264
0.70472085 -7.1615577 -1.9282019
0.82934326 -8.4280033 0.14782189
0.80791998 -8.2250233 -1.9080348
0.82519668 -8.4311552 -1.6466817
0.82157898 -8.4245234 -1.3406435
0.82048792 -8.4285622 -1.0397893
0.8157416 -8.4102554 -0.73925501
0.81325656 -8.4151926 -0.44307625
0.81181711 -8.4156475 -0.14757755
0.6797179 -7.1639738 -1.9282019
0.79750574 -8.421032 0.14764735
0.77868515 -8.2376289 -1.9102844
0.79428595 -8.4183493 -1.6436287
0.79105741 -8.4155397 -1.3387663
0.78958899 -8.4315128 -1.0397893
0.78897595 -8.4408236 -0.74169534
0.7862832 -8.4438314 -0.444437
0.78115231 -8.420557 -0.14761245
0.65435594 -7.1624556 -1.9271667
0.77028376 -8.4476624 0.14806621
0.74939656 -8.2344742 -1.9089346
0.76418597 -8.413249 -1.6421022
0.76203263 -8.422184 -1.3393921
0.7610445 -8.4441032 -1.0410081
0.76093489 -8.4594011 -0.7430898
0.7559135 -8.4365788 -0.44391361
0.7496199 -8.3993311 -0.1471936
0.62833589 -7.1531496 -1.9240609
0.74044275 -8.4463158 0.14799641
0.7208181 -8.2389832 -1.9093846
0.73447174 -8.4119539 -1.6413391
0.73125976 -8.40905 -1.3368891
0.73132199 -8.4268045 -1.0385706
0.72642577 -8.4044428 -0.73803484
0.72474664 -8.4192677 -0.44286692
0.72124982 -8.3957939 -0.14708889
0.60558736 -7.1667438 -1.9271667
0.71158916 -8.4387608 0.14782189
0.69251287 -8.2296753 -1.9066852
0.70673662 -8.4162989 -1.6417207
0.70287615 -8.4055223 -1.3359504
0.70155859 -8.407423 -1.0358895
0.70053118 -8.4306316 -0.74012655
0.69632989 -8.4156523 -0.44255289
0.69406235 -8.4061117 -0.14722851
0.58181798 -7.1687126 -1.9271667
0.68263352 -8.4291153 0.14761245
0.66490418 -8.2280426 -1.9057853
0.67850739 -8.4146824 -1.6409575
0.67547357 -8.4137144 -1.3368891
0.6722067 -8.4098206 -1.0358895
0.6715734 -8.438983 -0.74064946
0.66810226 -8.4139338 -0.44234356
0.66487372 -8.4104767 -0.14726341
0.55613708 -7.1785007 -1.9292372
0.65351504 -8.4354353 0.14768228
0.63587737 -8.2264271 -1.9048855
0.64705878 -8.4092827 -1.6394309
0.64448124 -8.4141645 -1.3365762
0.64254409 -8.4081573 -1.0354021
0.64014691 -8.4154501 -0.73838341
0.63725901 -8.4163256 -0.44234356
0.63505846 -8.406764 -0.14715868
0.53022087 -7.168839 -1.9261314
0.62229872 -8.4337845 0.14761245
0.60572153 -8.2287025 -1.9048855
0.6171267 -8.4036598 -1.6379045
0.6152491 -8.4183331 -1.3368891
0.61172312 -8.4104557 -1.0354021
0.61062324 -8.4156456 -0.73820913
0.60758972 -8.4145145 -0.44213417
0.60527921 -8.4029455 -0.14705399
0.50424314 -7.1571565 -1.922508
0.5948897 -8.4437809 0.14775208
0.5785681 -8.2326097 -1.9053354
0.58806229 -8.4096785 -1.6386677
0.58760506 -8.4242668 -1.3375148
0.5838294 -8.4124374 -1.0354021
0.58096969 -8.4137506 -0.7378605
0.58050591 -8.4284382 -0.44276223
0.57635367 -8.4109926 -0.14715868
0.48089507 -7.1645722 -1.9240609
0.5659458 -8.4537868 0.14789169
0.54943776 -8.2287464 -1.9039857
0.56017226 -8.411582 -1.6386677
0.55741167 -8.4144411 -1.3356376
0.55537438 -8.4282894 -1.0371082
0.55254251 -8.4076786 -0.73716325
0.55043006 -8.4204493 -0.4422389
0.54686034 -8.4109573 -0.14712378
0.45563674 -7.1623511 -1.9230256
0.53668714 -8.4597025 0.14796151
0.51997316 -8.2189445 -1.9012864
0.53105295 -8.4174051 -1.6394309
0.52816087 -8.4183064 -1.3359504
0.52656859 -8.4400835 -1.0383269
0.52665567 -8.4652348 -0.74204391
0.52091026 -8.4203253 -0.44213417
0.51762086 -8.4148111 -0.14715868
0.43063337 -7.1638975 -1.9230256
0.50607693 -8.4435587 0.14764735
0.4918606 -8.2304363 -1.903536
3.4254298 -57.487007 3.0181103
0.50143468 -8.415288 -1.6386677
0.49865419 -8.4181271 -1.3356376
0.49698809 -8.439889 -1.0380832
0.49733561 -8.4710007 -0.7423926
0.49186352 -8.4280739 -0.44244823
0.48812845 -8.4145708 -0.14712378
0.40584311 -7.1692152 -1.9240609
0.47626215 -8.4392853 0.14754264
0.46301928 -8.2301559 -1.9030858
3.2137802 -57.303188 3.0078526
0.47183678 -8.4130678 -1.6379045
0.46970689 -8.4277067 -1.3368891
0.46796215 -8.4494991 -1.0390581
0.46589693 -8.4388657 -0.7394293
0.4635348 -8.4496813 -0.44349492
0.45853522 -8.4122295 -0.14705399
0.37978986 -7.1512966 -1.9188845
0.44701177 -8.4448891 0.14761245
0.43439132 -8.2336693 -1.903536
3.0265288 -57.557388 3.0206225
0.44246659 -8.4146633 -1.6379045
0.44028664 -8.4292946 -1.3368891
0.43712875 -8.4253111 -1.0358895
0.43622997 -8.4364614 -0.73908067
0.43485743 -8.467206 -0.44433233
0.42947367 -8.4197702 -0.14715868
0.35539976 -7.164155 -1.9219903
0.41753167 -8.4463978 0.14761245
0.40497547 -8.2215109 -1.9003865
2.814832 -57.348167 3.0091083
0.41366944 -8.4279213 -1.6401943
0.41008973 -8.4149952 -1.3343862
0.40848348 -8.442647 -1.0378394
0.40591592 -8.420022 -0.73751193
0.40424824 -8.4467268 -0.44318092
0.39979661 -8.415225 -0.14705399
0.33012292 -7.1595635 -1.9204375
0.38804546 -8.4478045 0.14761245
0.37609714 -8.2189808 -1.8994867
0.38424775 -8.4293137 -1.6401943
0.38196391 -8.4440031 -1.3387663
0.37892139 -8.4420376 -1.0375956
0.37776873 -8.4492531 -0.73995227
0.37458396 -8.4440966 -0.44297159
0.37129855 -8.4365473 -0.14740302
0.30570489 -7.1741829 -1.9240609
0.35846975 -8.4471102 0.14757755
0.34756863 -8.2241373 -1.9003865
2.4311948 -57.765522 3.0300429
0.35465622 -8.4266806 -1.6394309
0.35256764 -8.447258 -1.3390791
0.34928745 -8.4393425 -1.0371082
0.34892809 -8.4664459 -0.74134672
0.34518859 -8.4473486 -0.44307625
0.34192795 -8.4397898 -0.14743793
0.28035906 -7.1674838 -1.9219903
0.32921588 -8.4543047 0.14768228
0.31893516 -8.2272482 -1.9008365
0.32478505 -8.4160976 -1.6371413
0.32330629 -8.4543591 -1.3400177
0.32042661 -8.4563799 -1.0390581
0.31809673 -8.4337654 -0.73838341
0.31592217 -8.4544888 -0.44339025
0.31364214 -8.4328842 -0.14729832
0.25478783 -7.1529746 -1.9178492
0.30103585 -8.4513521 0.14761245
0.29144347 -8.2224178 -1.8994867
2.0569553 -58.319653 3.0583043
0.29636919 -8.4446478 -1.6424839
0.2949928 -8.4474888 -1.3387663
0.29224601 -8.4534283 -1.0385706
0.29001808 -8.4746485 -0.74186963
0.28849673 -8.4734554 -0.44433233
0.2843374 -8.4379253 -0.14736812
0.23131463 -7.1615028 -1.9199197
0.27146888 -8.4503536 0.14757755
0.2626164 -8.2194901 -1.898587
0.26823902 -8.4416599 -1.6417207
0.26581475 -8.4583387 -1.3403307
0.26335263 -8.4742384 -1.0410081
0.26123732 -8.4536591 -0.73995227
0.25848988 -8.4604359 -0.44359964
0.25548628 -8.4588537 -0.14771718
0.20653808 -7.169991 -1.9219903
0.24254203 -8.4712381 0.1479266
0.23364599 -8.2106161 -1.8963374
0.23927081 -8.460207 -1.6451553
0.23623161 -8.4572401 -1.3400177
0.23366173 -8.471137 -1.0405205
0.23139818 -8.4425697 -0.73890638
0.22884758 -8.4572935 -0.44339025
0.2259576 -8.4596949 -0.14771718
0.18150952 -7.1706681 -1.9219903
0.21261843 -8.4580402 0.14768228
0.20503259 -8.2133303 -1.8967873
1.451571 -58.557629 3.069818
0.20964018 -8.4570656 -1.6443919
0.20670967 -8.4580135 -1.3400177
0.20418589 -8.4758711 -1.0410081
0.2029278 -8.4851532 -0.74256694
0.19960682 -8.4700212 -0.44401827
0.19656537 -8.4664288 -0.14782189
0.15639278 -7.1673956 -1.9209551
0.18361312 -8.4827204 0.14810112
0.17636222 -8.2139959 -1.8967873
0.18015982 -8.4597092 -1.6447737
0.17776437 -8.4863329 -1.344398
0.17451634 -8.4725628 -1.0405205
0.17286113 -8.4638977 -0.74064946
0.16988015 -8.4626789 -0.44359964
0.16653837 -8.4430714 -0.14740302
0.1311966 -7.1582403 -1.9183668
0.15363857 -8.4633169 0.14775208
0.14782786 -8.2223558 -1.898587
0.46568882 -26.155952 1.3709928
0.15041991 -8.4485083 -1.6424839
0.14775999 -8.4651756 -1.3409564
0.14473757 -8.4612103 -1.0390581
0.1434155 -8.4704266 -0.74117243
0.14020617 -8.4552326 -0.44318092
0.13693549 -8.435605 -0.14726341
0.41605228 -25.908588 6.9430804
0.10623734 -7.1605868 -1.9188845
0.12365519 -8.4338102 0.14722851
0.11904164 -8.2169752 -1.8972371
0.3728976 -26.053574 1.3655499
0.12106843 -8.4587975 -1.6443919
0.36779058 -26.014023 2.2761593
0.11796267 -8.4478645 -1.3381406
0.35862526 -26.008194 3.1937082
0.11565971 -8.4954081 -1.0432017
0.34996328 -26.039042 4.1245518
0.11376777 -8.4648981 -0.74064946
0.34600425 -26.083467 5.0705585
0.11084767 -8.4676533 -0.44380894
0.33602315 -26.015463 6.0066433
0.10769248 -8.4520264 -0.14754264
0.32580537 -25.925333 6.9472208
0.081241384 -7.1609135 -1.9188845
0.093834981 -8.4001961 0.14663512
0.090209074 -8.2037001 -1.8940878
0.28190744 -26.050724 1.3653406
0.091731943 -8.4768372 -1.6478267
0.27706656 -26.023117 2.2768564
0.088554896 -8.4561243 -1.3393921
0.26755375 -25.981495 3.1902959
0.085683756 -8.4640007 -1.0393019
0.2580815 -25.941339 4.1089082
0.084178172 -8.4612598 -0.74030089
0.2531909 -25.903906 5.0354495
0.081213444 -8.4599991 -0.44339025
0.24399416 -25.887863 5.9769497
0.078188501 -8.4523516 -0.14754264
0.23467824 -25.85677 6.928586
0.056336317 -7.1727438 -1.9219903
0.06160032 -8.2078638 -1.8949877
0.061926596 -8.4476566 -1.6421022
0.18694249 -26.123541 2.2855721
0.059023954 -8.4544067 -1.3390791
0.17745356 -26.069613 3.2010205
0.096082561 -14.486886 -1.7788051
0.16809142 -26.028997 4.1226745
0.16303852 -25.947823 5.0438452
0.15386082 -25.927532 5.9859476
0.14471817 -25.911524 6.9430804
0.03126451 -7.1651697 -1.9199197
0.032965548 -8.2119255 -1.8958875
0.23015699 -59.941296 3.1414137
0.037269183 -9.7062588 -1.8867195
0.038904727 -11.145008 -1.7652067
0.045575261 -14.506984 -1.7812425
0.06326808 -21.32246 -1.8654815
0.071384661 -27.266487 -1.4289811
0.086475961 -38.112095 -0.66525078
0.0062462692 -7.1575084 -1.9178492
0.0042961091 -8.2061434 -1.8945377
0.0033866207 -9.7004395 -1.8855747
-4.9087964e-07 -11.230018 -1.7786602
-0.0049371319 -14.147753 -1.7371258
-0.011170981 -21.334505 -1.8665273
-0.023794569 -27.270565 -1.4291904
-0.046410214 -37.988186 -0.66308677
-0.01872316 -7.1516905 -1.9162962
-0.024336392 -8.2022114 -1.8936379
-0.16265538 -54.82053 2.873035
-0.030486861 -9.704319 -1.8863379
-0.039316759 -11.26353 -1.7839788
-0.056023825 -14.590322 -1.7914795
-0.086472057 -21.541542 -1.8846557
-0.1190602 -27.286295 -1.4300278
-0.17225321 -37.959827 -0.66259807
-0.04371091 -7.1554456 -1.9173316
-0.23413324 -38.327454 0.66902059
-0.051487114 -8.1942911 -1.8918384
-0.247089 -38.262691 2.0053048
-0.064478517 -9.7218218 -1.8897724
-0.076479942 -11.235682 -1.7795987
-0.092558756 -12.93453 -1.5882014
-0.1620848 -21.596893 -1.8895364
-0.20938857 -27.265776 -1.4289811
-0.30495492 -37.98299 -0.66301692
-0.067475669 -7.1591244 -1.9183668
-0.36710986 -38.242413 0.6675545
-0.080127552 -8.1979589 -1.8927382
-0.3800588 -38.201683 2.0021644
-0.096150875 -9.6646242 -1.8787055
-0.38638344 -38.168243 3.3394594
-0.11502706 -11.170163 -1.769274
-0.39918187 -38.117638 4.6805143
-0.14013889 -13.162402 -1.6162314
-0.41277179 -38.144272 6.0418124
-0.22768508 -21.040394 -1.8409036
-0.41811141 -38.023979 7.3915596
-0.30442956 -27.252897 -1.4283531
-0.43845636 -38.06168 -0.66441315
-0.092314906 -7.1472554 -1.915261
-0.1087952 -8.2015257 -1.8936379
-0.12904097 -9.6014109 -1.8664937
-0.15336548 -11.122289 -1.7617651
-0.30113146 -21.039471 -1.8409036
-0.39950025 -27.247677 -1.4281437
-0.57143492 -38.067917 -0.66455275
-0.11719888 -7.1430264 -1.9142257
-0.13739081 -8.1991482 -1.8931881
-0.16285473 -9.6185684 -1.8699282
-0.19102715 -11.054534 -1.7511276
-0.37549135 -21.090088 -1.8454357
-0.49395818 -27.210169 -1.4262596
-0.70682979 -38.201641 -0.66692626
-0.14209461 -7.1406422 -1.9137081
-0.16589123 -8.1927738 -1.8918384
-0.19747137 -9.6689749 -1.8798503
-0.23219702 -11.178222 -1.7708384
-0.27909639 -13.213799 -1.6228124
-0.44885573 -21.076694 -1.8443898
-0.58841521 -27.184317 -1.4250035
-0.85846293 -39.030613 -0.68144667
-0.16715412 -7.1458969 -1.915261
-0.19425829 -8.1824036 -1.889589
-0.22915499 -9.5818682 -1.8630592
-0.23820095 -9.8167086 -1.5552716
-0.54044384 -21.801998 -1.9080135
-0.68340373 -27.186092 -1.4252129
-0.9915421 -38.903439 -0.67928255
-0.19199328 -7.141407 -1.9142257
-0.22292437 -8.1855717 -1.8904886
-0.26297739 -9.5947485 -1.8657305
-0.30880499 -11.124989 -1.7627038
-0.41010177 -14.590622 -1.7922107
-0.61845678 -21.867693 -1.9139401
-0.77566814 -27.091705 -1.420398
-1.1262928 -38.863766 -0.67865425
-0.2167445 -7.1349006 -1.9126729
-0.25185436 -8.1964302 -1.8931881
-0.29786268 -9.6389046 -1.8745077
-0.34609559 -11.074482 -1.754882
-0.45425716 -14.374819 -1.7658869
-0.69364977 -21.829556 -1.9108025
-0.86791998 -27.016968 -1.4166298
-1.2654518 -38.967522 -0.68053919
-0.24158259 -7.1321702 -1.9121553
-0.28026497 -8.1896591 -1.8918384
-0.33069727 -9.6142607 -1.8699282
-0.38516119 -11.085052 -1.7567593
-0.50011557 -14.250145 -1.7507752
-0.64399374 -18.258858 -1.5984362
-0.96194124 -27.005791 -1.4162111
-1.4007438 -38.942883 -0.68019009
-0.26633295 -7.1274223 -1.9111199
-0.30862939 -8.1827879 -1.8904886
-0.36559364 -9.6483612 -1.8767973
-0.42505968 -11.115222 -1.7617651
-0.54378694 -14.155178 -1.7393193
-0.71891659 -18.545179 -1.6237115
-1.0549517 -26.970337 -1.4145364
-1.480731 -37.687176 -0.65833968
-0.29028043 -7.1342206 -1.9131904
-2.013232 -49.267372 0.8606829
-0.3354435 -8.1739321 -1.8886892
-0.39791051 -9.6549425 -1.8783239
-0.45953825 -11.056516 -1.752692
-0.5920493 -14.185031 -1.7432193
-0.79004377 -18.771616 -1.6437572
-1.1447225 -26.97467 -1.414955
-1.6644369 -39.0606 -0.68242401
-0.31410694 -7.1370788 -1.9142257
-2.1713912 -49.142559 0.8586235
-0.3625477 -8.1727743 -1.8886892
-0.4280017 -9.6104202 -1.8699282
-0.49513799 -11.03125 -1.7489375
-0.62550253 -13.827909 -1.6995901
-0.87389404 -19.17079 -1.6789683
-1.233252 -26.950773 -1.4139084
-1.8005953 -39.05056 -0.68235421
-0.34007964 -7.1320205 -1.9131904
-2.3367224 -49.004848 0.85635465
-0.39107403 -8.1714592 -1.8886892
-0.46019778 -9.5460358 -1.8577164
-0.53403348 -10.997792 -1.7439317
-0.68864775 -14.130983 -1.7371258
-0.97020566 -19.766609 -1.731436
-1.3293614 -26.892214 -1.4110823
-1.9390723 -39.087971 -0.6831221
-0.36467776 -7.1250019 -1.9116375
-2.5106783 -48.886124 0.85443497
-0.42142159 -8.1777544 -1.8904886
-0.49706662 -9.6129932 -1.8710731
-0.56810546 -10.913007 -1.7307911
-0.72547561 -13.842903 -1.7020274
-1.063782 -20.230667 -1.7723991
-1.4243867 -26.909348 -1.4122336
-2.0847719 -39.126537 -0.68392491
-0.38996774 -7.1314015 -1.9137081
-2.6770368 -48.799187 0.8530736
-0.44953761 -8.1684513 -1.8886892
-0.53094298 -9.6170807 -1.8722179
-0.60301936 -10.85376 -1.721718
-0.77711505 -13.899746 -1.7093396
-1.1599452 -20.682373 -1.8123164
-1.5178599 -26.896236 -1.4118149
-2.2299531 -39.270744 -0.68657762
-0.41440907 -7.122282 -1.9116375
-2.8374598 -48.619858 0.85010672
-0.47736412 -8.15516 -1.8859898
-0.56520033 -9.6269293 -1.8745077
-0.64381295 -10.900887 -1.7295396
-0.83716893 -14.091146 -1.7332259
-1.2476559 -20.938738 -1.8351513
-1.6098249 -26.858875 -1.4101402
-2.3761666 -39.414425 -0.68923044
-0.4397448 -7.1285057 -1.9137081
-3.0002446 -48.49789 0.8481521
-0.50582731 -8.1534443 -1.8859898
-0.59758234 -9.6053028 -1.8706915
-0.6797623 -10.865058 -1.7242209
-0.886599 -14.092099 -1.7337134
-1.3281429 -21.051575 -1.8454357
-1.7073611 -26.912889 -1.4132804
-2.5768781 -40.395729 -0.70654321
-0.46412185 -7.119216 -1.9116375
-3.1629891 -48.387348 0.84640682
-0.53505099 -8.1632967 -1.8886892
-0.63175023 -9.6129522 -1.8725995
-0.72029048 -10.90204 -1.7304782
-0.93381125 -14.059209 -1.7300574
-1.3932759 -20.921564 -1.8344539
-1.801295 -26.906765 -1.4132804
-2.7264593 -40.514183 -0.70877719
-0.48844033 -7.1098428 -1.909567
-3.3228061 -48.244343 0.8441031
-0.56327367 -8.1574907 -1.8877892
-0.66679353 -9.6322336 -1.8767973
-0.75504982 -10.852166 -1.7229694
-0.98385108 -14.069726 -1.7317636
-1.4612796 -20.845026 -1.8281789
-1.8953471 -26.902306 -1.4133849
-0.51353377 -7.111948 -1.9106023
-3.4833956 -48.124748 0.84221828
-0.59174544 -8.1554747 -1.8877892
-0.69998533 -9.6239729 -1.8756526
-0.79407978 -10.865224 -1.7254723
-1.0381901 -14.137477 -1.7405381
-1.5302335 -20.788136 -1.8236468
-1.994396 -26.96524 -1.4170486
-0.53806365 -7.1062598 -1.909567
-3.6431851 -48.004623 0.84033334
-0.61932307 -8.1416998 -1.8850898
-3.754637 -49.245296 2.5883272
-0.72954535 -9.5686159 -1.8653487
-0.83366013 -10.884052 -1.728914
-1.0933222 -14.208977 -1.7498002
-1.6053907 -20.816435 -1.82661
-2.0885141 -26.958115 -1.4170486
-0.56378156 -7.1158934 -1.9126729
-3.8034558 -47.899914 0.83872777
-0.64742929 -8.1356039 -1.8841901
-3.925561 -49.219948 2.5876994
-0.76481497 -9.5894957 -1.8699282
-0.86880732 -10.845633 -1.7232823
-1.7078295 -21.180092 -1.859032
-2.183084 -26.956633 -1.4173625
-3.4432778 -42.333733 -0.74137825
-0.58766156 -7.1023302 -1.909567
-3.9656732 -47.826561 0.83768058
-0.67614776 -8.1371775 -1.8850898
-0.79697967 -9.5711155 -1.8668753
-0.91143543 -10.89962 -1.7323555
-1.0939873 -13.027966 -1.6052631
-1.5780991 -18.75383 -1.6465462
-2.2823775 -27.010542 -1.4206073
-3.5910254 -42.321457 -0.74137825
-0.61195189 -7.0944614 -1.9080141
-4.1201925 -47.668987 0.83516747
-0.70521957 -8.1425343 -1.8868895
-0.82800817 -9.5408936 -1.8615327
-0.94158775 -10.805848 -1.7179635
-1.1332302 -12.952877 -1.5964885
-1.6538167 -18.865311 -1.6568305
-2.3759515 -26.994453 -1.4201887
-3.7313502 -42.309315 -0.74137825
-0.63602167 -7.0845857 -1.9059435
-4.2671676 -47.531578 0.8330034
-0.73117012 -8.1285057 -1.8841901
-0.86060101 -9.5301237 -1.8600061
-0.97207636 -10.743647 -1.7085775
-1.1030917 -12.144427 -1.4972868
-2.4636393 -26.966534 -1.4191419
-3.8790157 -42.296032 -0.74137825
-0.66040736 -7.0920553 -1.9085318
-4.4126196 -47.297375 0.82916385
-0.75881326 -8.1181431 -1.8823904
-0.89457935 -9.5526285 -1.8649671
-1.0273192 -10.928991 -1.7386128
-1.1355945 -12.035758 -1.4843687
-1.8609432 -19.686707 -1.7300414
-2.5571864 -26.951807 -1.4188279
-4.026629 -42.282234 -0.74137825
-0.68664527 -7.1050901 -1.9126729
-0.7871474 -8.1154442 -1.8823904
-0.92487991 -9.5181828 -1.8588613
-1.0476326 -10.742496 -1.709516
-1.1698644 -11.952695 -1.4746192
-1.9139013 -19.519478 -1.7159222
-2.6530116 -26.960608 -1.41977
-4.1812725 -42.339558 -0.74263483
-0.70932472 -7.0815058 -1.9069788
-0.81547004 -8.1126471 -1.8823904
-0.95908278 -9.5246639 -1.8607695
-1.0875068 -10.762358 -1.7132704
-1.4238589 -14.042001 -1.7329822
-2.134038 -21.009233 -1.8475275
-2.7483211 -26.963102 -1.420398
-0.73423892 -7.0809078 -1.9074965
-0.84438771 -8.1155663 -1.8837402
-0.9925279 -9.5232105 -1.8611511
-1.1275347 -10.782072 -1.7170249
-1.4857082 -14.15935 -1.7480941
-2.192369 -20.858988 -1.8349769
-2.8449345 -26.97718 -1.4216541
-0.75853884 -7.07446 -1.9064611
-0.87208712 -8.1067572 -1.8823904
-1.0245024 -9.5079756 -1.8588613
-1.1520001 -10.656306 -1.6976269
-2.3008845 -21.180012 -1.8639127
-2.9373577 -26.951199 -1.4208167
-4.6417704 -42.520882 -0.74661398
-0.78450483 -7.0832896 -1.909567
-0.89789039 -8.0941362 -1.880141
-1.0579015 -9.5062933 -1.8592429
-1.1943341 -10.715252 -1.7076389
-1.5915389 -14.233739 -1.7585747
-2.3297191 -20.769917 -1.8285275
-3.0222533 -26.901615 -1.4187232
-4.8013659 -42.603771 -0.7483592
-0.80733192 -7.0748911 -1.9080141
-0.92547411 -8.085144 -1.8787912
-1.0918809 -9.524188 -1.8634408
-1.2355655 -10.744379 -1.7129576
-1.6509942 -14.312895 -1.7690556
-2.4198387 -20.914051 -1.8419495
-3.1207378 -26.93058 -1.4208167
-0.83325827 -7.0718842 -1.9080141
-0.95597392 -8.1012182 -1.8832903
-1.1263188 -9.516222 -1.8626775
-1.2905395 -10.871205 -1.7339199
-1.6791511 -14.123721 -1.7463878
-2.2680068 -19.020088 -1.6758306
-3.2251151 -26.966557 -1.4233288
-0.85654145 -7.0574265 -1.9049082
-0.98518908 -8.0937901 -1.8823904
-1.1585798 -9.5044374 -1.8611511
-1.323925 -10.82938 -1.7279752
-1.6528764 -13.481053 -1.6676602
-2.52475 -20.562447 -1.8124908
-3.3387516 -27.11372 -1.4317025
-0.88117146 -7.0543933 -1.9049082
-1.0115402 -8.0866108 -1.8814906
-1.1912609 -9.496439 -1.8603877
-1.3541654 -10.77985 -1.7207794
-1.7427286 -13.833951 -1.7120206
-2.5350819 -20.067245 -1.7696102
-3.4386733 -27.181755 -1.4358894
-0.90554339 -7.0590973 -1.9069788
-1.0387672 -8.0752993 -1.8796909
-1.2222433 -9.4885416 -1.8596245
-1.3882449 -10.74763 -1.7163991
-1.8407279 -14.21167 -1.7595497
-2.2976828 -17.715382 -1.5628768
-3.537138 -27.197315 -1.4373548
-0.92992544 -7.0539775 -1.9064611
-1.0650306 -8.0679464 -1.8787912
-1.2563879 -9.4920034 -1.8611511
-1.4108993 -10.645055 -1.7007557
-1.8695403 -14.067742 -1.742488
-2.4397697 -18.309608 -1.6160418
-3.6283693 -27.193357 -1.4377736
-0.95383024 -7.0546842 -1.9074965
-1.0947573 -8.0757656 -1.8814906
-1.2844239 -9.4624949 -1.8561901
-1.4587045 -10.718358 -1.7132704
-1.9223922 -14.088667 -1.7459003
-2.4996188 -18.27137 -1.613427
-3.7238092 -27.184484 -1.4379829
-5.8878427 -42.870987 -0.75534016
-0.97861725 -7.0434875 -1.9054259
-1.1248192 -8.0854063 -1.8846399
-1.3177413 -9.4480019 -1.8542819
-1.4851227 -10.620993 -1.6985657
-1.9239424 -13.741767 -1.7037336
-2.5608883 -18.244776 -1.6118584
-3.8184111 -27.135052 -1.4360987
-1.0034703 -7.0419407 -1.9059435
-11.350274 -79.552132 1.4026499
-1.1508636 -8.0561514 -1.8787912
-1.352381 -9.4550047 -1.8565717
-1.5148969 -10.564903 -1.6904311
-2.0031054 -13.935042 -1.7285949
-3.0026162 -20.86252 -1.8440411
-3.9068332 -27.078068 -1.433796
-6.1869898 -42.828835 -0.75534016
-1.0269285 -7.0307484 -1.903873
-1.1764448 -8.0445776 -1.8769917
-1.3876553 -9.465766 -1.8596245
-1.5565212 -10.604774 -1.6976269
-2.0452583 -13.900829 -1.7251827
-2.9716411 -20.148243 -1.781812
-3.9954398 -27.05706 -1.4333773
-1.0522368 -7.040679 -1.9074965
-1.2045176 -8.0404215 -1.8769917
-1.4184552 -9.4572296 -1.8588613
-1.6087998 -10.700853 -1.7138962
-1.9500036 -12.939622 -1.6067256
-3.0568664 -20.260424 -1.7926192
-4.0934439 -27.066647 -1.4346334
-1.0762218 -7.033144 -1.9064611
-1.232945 -8.0479403 -1.8796909
-1.4505637 -9.4463987 -1.8577164
-1.6214648 -10.547075 -1.6901182
-1.8305547 -11.879523 -1.4758378
-3.2452648 -21.011648 -1.8600779
-4.1831784 -27.052923 -1.4346334
-1.1001681 -7.0255275 -1.9054259
-1.2630385 -8.0472183 -1.8805909
-1.485054 -9.4509754 -1.8596245
-1.6644133 -10.568379 -1.6944984
-1.8945124 -12.002149 -1.4919246
-3.2234242 -20.397995 -1.8067385
-4.2879286 -27.072918 -1.4365175
-1.1231574 -7.0121059 -1.9028376
-1.2892667 -8.0312157 -1.8778914
-1.5164766 -9.4360418 -1.8577164
-1.6918715 -10.503998 -1.6851122
-1.9373441 -12.001341 -1.4926558
-3.3124101 -20.496763 -1.8164999
-4.4156117 -27.262829 -1.4474034
-1.1476268 -7.0081429 -1.9028376
-1.3163472 -8.0208969 -1.8765416
-1.5487679 -9.4268169 -1.8569533
-1.7188982 -10.439554 -1.6757263
-1.8977809 -11.500937 -1.4312336
-3.2566438 -19.714502 -1.7481698
-4.540112 -27.424585 -1.4568238
-1.1727215 -7.0079045 -1.903873
-4.8355742 -28.865313 0.51086682
-1.3446591 -8.0181751 -1.8769917
-1.5823157 -9.4252243 -1.8577164
-1.7651595 -10.491931 -1.6851122
-3.3191383 -19.665688 -1.7448579
-4.6244869 -27.341618 -1.453265
-4.9040155 -28.932869 -0.51222813
-1.1965249 -6.9999599 -1.9028376
-1.3739569 -8.0211163 -1.8787912
-1.6138783 -9.4119043 -1.8561901
-1.7666484 -10.281286 -1.652261
-2.373832 -13.786062 -1.7176267
-3.5346494 -20.506111 -1.8205091
-4.6947398 -27.179668 -1.4455192
-1.2192916 -6.9862256 -1.9002496
-1.4012753 -8.0124321 -1.8778914
-1.6457065 -9.4004116 -1.8550451
-1.8472384 -10.52994 -1.6932468
-2.4449687 -13.908685 -1.7339572
-3.6314118 -20.636892 -1.8332338
-4.7861218 -27.143444 -1.4444724
-1.2433319 -6.9800248 -1.8997319
-1.4282073 -8.0017357 -1.8765416
-1.6781651 -9.3926773 -1.8546635
-1.8683186 -10.435925 -1.6791677
-2.5369487 -14.15647 -1.7658869
-3.6840615 -20.516233 -1.8236468
-4.870935 -27.071533 -1.4415417
-7.812633 -43.377338 -0.76933694
-1.2685424 -6.987268 -1.9028376
-1.4536883 -7.9912047 -1.875192
-1.7075449 -9.3774033 -1.8527553
-1.9121329 -10.480199 -1.6873024
-3.7786105 -20.648933 -1.8365457
-4.9606819 -27.055231 -1.4415417
-1.2917056 -6.9830227 -1.9028376
-1.479825 -7.9844236 -1.8747422
-1.7389895 -9.37362 -1.8531371
-1.9475983 -10.477685 -1.6879282
-3.8696735 -20.737463 -1.8456099
-5.0503712 -27.038631 -1.4415417
-1.3158568 -6.9706488 -1.9007671
-1.5091343 -7.9868684 -1.8765416
-1.7704126 -9.3517513 -1.8500841
-1.9668461 -10.369556 -1.671659
-2.6048324 -13.720042 -1.7147018
-3.9993713 -21.025253 -1.8724539
-5.159164 -27.07095 -1.4442631
-1.3379921 -6.9546304 -1.8976613
-1.5372905 -7.975544 -1.875192
-1.8030457 -9.3455143 -1.8500841
-2.0431426 -10.57015 -1.7051359
-2.6241522 -13.550595 -1.6947153
-3.8300912 -19.759335 -1.7608945
-5.2444873 -27.005724 -1.4417511
-1.3633744 -6.9556055 -1.8992143
-1.5622293 -7.9627528 -1.8733923
-1.8371702 -9.3468695 -1.8516105
-2.0732279 -10.53812 -1.7010686
-2.7281899 -13.841752 -1.732251
-4.1638122 -21.086735 -1.8804722
-5.3216214 -26.925484 -1.4384016
-1.3875663 -6.9567294 -1.9007671
-1.5892515 -7.9534287 -1.8724926
-1.868156 -9.3407249 -1.8516105
-2.10379 -10.49983 -1.6960627
-2.7268755 -13.584969 -1.7012962
-4.2278295 -21.043509 -1.8778577
-5.4234595 -26.945904 -1.440495
-1.4118408 -6.9518433 -1.9007671
-1.6173931 -7.9497423 -1.8729424
-1.899182 -9.3264532 -1.8500841
-2.1250298 -10.416937 -1.6838609
-2.8700659 -14.044086 -1.7600372
-4.3012576 -21.028624 -1.8778577
-5.5190859 -26.934633 -1.4409137
-1.4345353 -6.9393058 -1.8986967
-1.6447372 -7.9421401 -1.8724926
-1.9301335 -9.3120775 -1.8485577
-2.1605759 -10.405587 -1.683235
-2.8830938 -13.861012 -1.7383444
-4.4156928 -21.192163 -1.8938943
-5.6236739 -26.96604 -1.4436352
-1.4591634 -6.9302197 -1.8976613
-1.6744609 -7.9458847 -1.8747422
-1.9650621 -9.3087816 -1.8493209
-2.2080984 -10.44205 -1.6904311
-2.8134952 -13.293488 -1.6683915
-4.5098891 -21.272125 -1.9024355
-5.7191534 -26.929617 -1.4427978
-1.4817265 -6.9175286 -1.8955908
-1.7019374 -7.9320722 -1.8729424
-1.9983674 -9.3057041 -1.8500841
-2.2603223 -10.507664 -1.7023201
-2.8392003 -13.176357 -1.6549859
-4.4606295 -20.683655 -1.8511879
-5.802156 -26.85873 -1.4400762
-1.5075091 -6.9198642 -1.8976613
-1.7283683 -7.9203725 -1.8715929
-2.0308385 -9.2986727 -1.8500841
-2.2598357 -10.329893 -1.6747875
-2.8006203 -12.780488 -1.6064818
-4.2792702 -19.511953 -1.7476468
-5.9061604 -26.88513 -1.4425884
-1.5329084 -6.9202185 -1.8992143
-1.7543157 -7.9066811 -1.8697932
-2.0603054 -9.2781105 -1.8474127
-2.3078892 -10.375932 -1.6835479
-2.8503187 -12.804071 -1.6106254
-4.3742399 -19.617464 -1.7584542
-5.9660115 -26.712311 -1.434424
-10.050946 -44.965347 -0.80424178
-1.5528802 -6.9019041 -1.8955908
-1.7835248 -7.9141264 -1.8729424
-2.089766 -9.2654819 -1.8462679
-2.3662245 -10.474198 -1.7007557
-2.7912014 -12.345345 -1.554078
-4.3420138 -19.173407 -1.7199314
-6.0801859 -26.805353 -1.440495
-1.5753284 -6.8948336 -1.8950732
-1.8097594 -7.9081688 -1.8729424
-2.1204793 -9.2585011 -1.8462679
-2.3625197 -10.298786 -1.6735362
-3.1703355 -13.798146 -1.7383444
-4.3363681 -18.857937 -1.6929132
-6.0538387 -26.284842 -1.4135944
-1.5989496 -6.8874102 -1.8945554
-1.8351465 -7.892313 -1.8706928
-2.1518948 -9.2472191 -1.8455048
-2.4302909 -10.427067 -1.6957498
-3.195919 -13.690339 -1.7261575
-4.3532128 -18.63315 -1.6740874
-6.0431662 -25.825987 -1.3900431
-1.6238676 -6.8855476 -1.8955908
-1.8595489 -7.8725829 -1.8675436
-2.1850631 -9.2434731 -1.8462679
-2.4653084 -10.412753 -1.6948112
-3.2427707 -13.675238 -1.7256701
-4.9012709 -20.653318 -1.8571144
-6.3327928 -26.644167 -1.4352614
-1.6474438 -6.8779588 -1.8950732
-1.8870174 -7.866044 -1.8675436
-2.2154834 -9.2281523 -1.8447415
-2.5104156 -10.440578 -1.7007557
-3.3086123 -13.739102 -1.7351758
-5.0050778 -20.767796 -1.8689677
-6.4398193 -26.680143 -1.4384016
-1.6691589 -6.8627806 -1.8924849
-1.9140025 -7.8575158 -1.8670937
-2.2467515 -9.216548 -1.8439783
-2.5473135 -10.433669 -1.7010686
-3.3381627 -13.652265 -1.7256701
-5.0223966 -20.509348 -1.8473531
-6.5414686 -26.692417 -1.4402856
-1.6933743 -6.8528657 -1.8914497
-1.9432904 -7.8583541 -1.8688934
-2.2805169 -9.208251 -1.8439783
-2.5693693 -10.359076 -1.6904311
-3.4183152 -13.771541 -1.7422442
-5.0093651 -20.151388 -1.8166744
-6.6479397 -26.70315 -1.4421698
-1.7172843 -6.8469129 -1.8914497
-1.9697061 -7.8417287 -1.8666438
-2.3145607 -9.2078514 -1.8455048
-2.569345 -10.206372 -1.6669658
-3.3372576 -13.237283 -1.6761911
-5.1293888 -20.330826 -1.8344539
-6.7244797 -26.613943 -1.4386109
-1.7430812 -6.8483658 -1.8935202
-1.9942566 -7.8294888 -1.8652942
-2.3457174 -9.1959105 -1.8447415
-2.614903 -10.243732 -1.6744747
-3.336395 -13.051126 -1.6540109
-5.1558557 -20.139084 -1.8187661
-6.8176522 -26.610847 -1.4396576
-1.7643337 -6.836936 -1.8919673
-2.0215738 -7.8224797 -1.8652942
-2.3742335 -9.1804781 -1.8432151
-2.6486623 -10.226892 -1.6732231
-3.3869162 -13.058618 -1.6564482
-5.274662 -20.322439 -1.8368943
-6.7858963 -26.107494 -1.413699
-1.7891661 -6.8344731 -1.8930025
-2.0489848 -7.8213882 -1.8666438
-2.4032748 -9.1607409 -1.8409253
-2.6720278 -10.17793 -1.6666529
-3.4357524 -13.068432 -1.6591294
-5.309556 -20.167107 -1.8245183
-6.8032298 -25.822184 -1.3994637
-1.807857 -6.8135648 -1.8888614
-2.0757737 -7.8123055 -1.866194
-2.435658 -9.1603098 -1.8424517
-2.6897504 -10.101731 -1.6557026
-3.4961805 -13.111982 -1.6661978
-5.1511931 -19.291847 -1.7469497
-6.8046489 -25.466394 -1.3814601
-1.8348268 -6.8143539 -1.890932
-2.1025233 -7.8031301 -1.8657441
-2.4692159 -9.1513214 -1.8424517
-2.7375765 -10.131852 -1.6622728
-3.6035864 -13.327736 -1.6952027
-5.0211568 -18.544876 -1.6808857
-6.9407969 -25.59935 -1.3900431
-1.8596194 -6.811636 -1.8919673
-2.1295686 -7.789732 -1.8643943
-2.5032167 -9.1502218 -1.8439783
-2.7703185 -10.112708 -1.6607084
-3.6072485 -13.149804 -1.6742412
-5.0884972 -18.536844 -1.6817572
-7.3223295 -26.638023 -1.4478221
-1.8844159 -6.8088264 -1.8930025
-2.1538277 -7.7769933 -1.8630446
-2.5319936 -9.1300764 -1.8416885
-2.8223255 -10.170086 -1.671659
-3.4361117 -12.365071 -1.5757707
-5.6584463 -20.334782 -1.8466558
-7.3988376 -26.571264 -1.4455192
-1.9048978 -6.7950993 -1.890932
-2.1804347 -7.7675509 -1.8625948
-2.5611937 -9.1178503 -1.8409253
-2.8626227 -10.177287 -1.6744747
-5.7250695 -20.299562 -1.8452613
-7.5078154 -26.602943 -1.4486594
-1.9255644 -6.7732067 -1.886791
-2.2118006 -7.7748885 -1.866194
-2.591368 -9.0970726 -1.8386356
-2.9026144 -10.176225 -1.6760391
-3.5495925 -12.436225 -1.5879577
-5.8073893 -20.319685 -1.8489219
-7.5766993 -26.475397 -1.4432166
-1.9518694 -6.7757254 -1.889379
-2.2359612 -7.7517495 -1.8625948
-2.6231084 -9.0879707 -1.8386356
-2.9627984 -10.251428 -1.6901182
-3.5962536 -12.426945 -1.5884452
-7.6746283 -26.467968 -1.4442631
-1.9749683 -6.7670164 -1.8888614
-2.25947 -7.7368107 -1.8607951
-2.6559165 -9.0825281 -1.8393987
-2.985682 -10.203629 -1.6838609
-3.4828351 -11.887263 -1.5209296
-5.8330064 -19.8829 -1.8128394
-7.6678467 -26.120422 -1.4266783
-1.99904 -6.7659874 -1.8904144
-2.2881212 -7.7344818 -1.8621449
-2.6860209 -9.0736704 -1.8393987
-3.0442977 -10.270796 -1.6966884
-3.3469639 -11.277476 -1.4443955
-5.9442849 -20.016243 -1.8267844
-7.6758628 -25.813992 -1.4113961
-2.0198755 -6.7497149 -1.8878261
-2.3123093 -7.717114 -1.8598953
-2.7120388 -9.0454359 -1.8355827
-3.0738835 -10.239294 -1.6932468
-3.4885957 -11.606016 -1.4880248
-6.0060825 -19.96866 -1.824344
-7.9260349 -26.318693 -1.440495
-2.0423048 -6.7389255 -1.886791
-2.3414955 -7.716454 -1.8616948
-2.74702 -9.047184 -1.8378724
-3.1084564 -10.224722 -1.6926211
-3.4585636 -11.362081 -1.4582887
-5.984026 -19.646437 -1.7968028
-7.6543093 -25.098778 -1.3751796
-2.0680819 -6.7391429 -1.8888614
-2.3664997 -7.7067847 -1.8612449
-2.77916 -9.0394173 -1.838254
-3.1365376 -10.195477 -1.6894923
-3.4716785 -11.270871 -1.4480517
-6.2099328 -20.135672 -1.8435181
-7.8682408 -25.496933 -1.3984169
-2.0904186 -6.7322478 -1.8888614
-2.3887589 -7.6835899 -1.8576458
-2.8044555 -9.0151529 -1.8352009
-3.1691706 -10.175036 -1.6879282
-3.7030697 -11.874585 -1.5272667
-6.2071404 -19.879948 -1.8220779
-8.2240248 -26.323372 -1.4453099
-2.117398 -6.7319117 -1.890932
-2.4161501 -7.6770635 -1.8580956
-2.8392496 -9.0104322 -1.8363459
-3.1755364 -10.065393 -1.671659
-4.150857 -13.148831 -1.693009
-6.0603385 -19.174248 -1.7593257
-8.3144207 -26.274012 -1.4442631
-2.1385391 -6.7171168 -1.8888614
-2.4460478 -7.673727 -1.8594455
-2.8665073 -8.9873734 -1.8336746
-3.2388961 -10.14269 -1.6863638
-6.059845 -18.942337 -1.7399772
-8.3902445 -26.195375 -1.4415417
-2.1613808 -6.7077723 -1.8883438
-2.4708824 -7.6637182 -1.8589954
-2.9008775 -8.9866552 -1.8355827
-3.2518685 -10.067982 -1.6757263
-4.3036308 -13.308413 -1.717383
-6.150475 -18.996889 -1.7469497
-8.4549084 -26.099009 -1.4377736
-2.1830137 -6.6987314 -1.8878261
-2.4964101 -7.651341 -1.8580956
-2.9288337 -8.971386 -1.8344377
-3.2863789 -10.05469 -1.6754133
-4.0463076 -12.36508 -1.5974635
-5.9970651 -18.315567 -1.6861149
-8.5484457 -26.076929 -1.4381922
-2.2063844 -6.6910701 -1.8878261
-2.5193262 -7.6356192 -1.8562962
-2.9619808 -8.9667006 -1.8355827
-3.3110251 -10.01748 -1.6710331
-4.0604734 -12.270555 -1.5869827
-5.9738665 -18.031631 -1.6618856
-8.6801205 -26.184933 -1.4457285
-2.2315605 -6.6888256 -1.889379
-2.5497656 -7.6337266 -1.8580956
-2.9895277 -8.9451351 -1.833293
-3.4122789 -10.198226 -1.7032586
-4.1020198 -12.252542 -1.5864953
-5.9626904 -17.789644 -1.6414913
-8.7734947 -26.145369 -1.4453099
-2.2531121 -6.6795583 -1.8888614
-2.5750654 -7.6252294 -1.8580956
-3.0172889 -8.9295912 -1.8321481
-3.4448121 -10.183113 -1.7026329
-3.9370563 -11.631536 -1.5077677
-6.3688688 -18.794407 -1.7361423
-8.804966 -25.953474 -1.4363081
-12.754704 -37.574146 -0.69261616
-2.2715082 -6.6610794 -1.8857557
-2.6015971 -7.6203365 -1.8589954
-3.049423 -8.9269686 -1.8336746
-3.4536328 -10.098739 -1.6904311
-4.3126402 -12.596194 -1.6347555
-5.9055586 -17.238911 -1.5942529
-8.7510281 -25.516056 -1.413699
-2.2934861 -6.649457 -1.8847204
-2.6281805 -7.6112089 -1.8589954
-3.0799248 -8.9144144 -1.833293
-3.463033 -10.011948 -1.6779163
-4.461812 -12.884946 -1.6742412
-6.6049266 -19.063131 -1.7650781
-9.0285444 -26.028801 -1.4438446
-12.907156 -37.16872 -0.68678707
-2.3230462 -6.6596518 -1.8898968
-2.6502361 -7.5891094 -1.8558462
-3.1123176 -8.9073153 -1.8340561
-3.4855688 -9.9643707 -1.6719718
-4.1216288 -11.769529 -1.5311666
-6.6477113 -18.972269 -1.7588028
-8.6605339 -24.689167 -1.3712021
-13.036821 -37.12344 -0.68678707
-2.343708 -6.6442142 -1.8878261
-2.6773593 -7.5816507 -1.8562962
-3.1427367 -8.8945456 -1.8336746
-3.5829093 -10.129061 -1.7016943
-4.154737 -11.732615 -1.5282418
-6.9907017 -19.730196 -1.8313165
-9.2821493 -26.168428 -1.4551491
-13.15696 -37.051323 -0.68629843
-2.3668866 -6.6359925 -1.8878261
-2.7051179 -7.5759296 -1.857196
-3.1684818 -8.8687315 -1.8306217
-3.6209061 -10.123934 -1.7029458
-6.6933188 -18.683435 -1.7363167
-9.3559046 -26.086988 -1.4524276
-13.298376 -37.039047 -0.68692672
-2.3861036 -6.616787 -1.8847204
-2.734194 -7.5737715 -1.8589954
-3.1987531 -8.8557701 -1.8302399
-3.6521931 -10.100086 -1.7010686
-4.4433017 -12.274491 -1.6028258
-6.7245688 -18.566294 -1.7276011
-9.4183178 -25.975311 -1.4480314
-13.424853 -36.984882 -0.68678707
-2.4118328 -6.6156778 -1.886791
-2.757942 -7.55686 -1.857196
-3.2303193 -8.8463955 -1.8306217
-3.6989553 -10.118816 -1.7063874
-6.7975578 -18.565159 -1.7296928
-9.5171776 -25.964779 -1.4492874
-13.562575 -36.981464 -0.68755502
-2.4349115 -6.6072183 -1.886791
-2.7802896 -7.5403585 -1.8553963
-3.2611794 -8.8350658 -1.8306217
-3.7208564 -10.074993 -1.7010686
-4.5405178 -12.2812 -1.6077005
-9.5782595 -25.86565 -1.4455192
-13.722166 -37.016399 -0.68909079
-2.4581566 -6.6027279 -1.8878261
-2.8065927 -7.5306082 -1.8553963
-3.2877159 -8.816844 -1.8290951
-3.7649841 -10.086 -1.7051359
-4.6618786 -12.4754 -1.6352429
-6.9453993 -18.576311 -1.7350965
-9.5312662 -25.465433 -1.4250035
-13.851295 -36.968273 -0.68909079
-2.4791479 -6.5886836 -1.8862734
-2.8328636 -7.5207648 -1.8553963
-3.3170869 -8.8016405 -1.8283319
-3.8064425 -10.089432 -1.7079517
-4.2460098 -11.242674 -1.4755942
-7.1130209 -18.824066 -1.760546
-9.778388 -25.850456 -1.4484501
-13.992996 -36.953358 -0.68971908
-2.4980118 -6.5691552 -1.8831675
-2.8632576 -7.5217581 -1.8580956
-3.3491881 -8.7936773 -1.8290951
-3.8367112 -10.063164 -1.7057616
-4.3255744 -11.333496 -1.4894872
-7.0308461 -18.411972 -1.7242892
-9.4891653 -24.823668 -1.3927646
-14.180508 -37.057438 -0.6925813
-2.523699 -6.5676084 -1.8852381
-2.8852994 -7.5008044 -1.8553963
-3.378453 -8.7782688 -1.8283319
-3.8583229 -10.014686 -1.6998171
-7.5268626 -19.506319 -1.8292247
-9.9470997 -25.751755 -1.4467753
-14.285255 -36.944294 -0.69139451
-2.5494061 -6.5659623 -1.8873086
-2.9086399 -7.4834218 -1.8535968
-3.4104979 -8.7700815 -1.8290951
-3.8975556 -10.012201 -1.7016943
-4.2885489 -11.005233 -1.4502453
-7.6079316 -19.51334 -1.8323622
-10.023863 -25.683384 -1.4448912
-2.5701931 -6.5516281 -1.8857557
-14.877559 -37.904621 0.71076673
-2.9347434 -7.4732232 -1.8535968
-3.4382184 -8.7508125 -1.8275685
-3.9368196 -10.009565 -1.7035716
-4.336391 -11.014209 -1.453414
-6.7617731 -17.165764 -1.6141243
-10.119311 -25.663101 -1.4457285
-2.5930469 -6.5426168 -1.8857557
-15.003881 -37.837589 0.71048748
-2.9629688 -7.4683671 -1.8549464
-3.4658458 -8.7314596 -1.8260422
-3.9972661 -10.060016 -1.714522
-5.0893946 -12.795589 -1.6908154
-6.6551628 -16.723686 -1.5747299
-10.236922 -25.698128 -1.4497061
-2.6094067 -6.5173845 -1.8810968
-15.207252 -37.963188 0.71383828
-2.9911947 -7.4634066 -1.8562962
-3.4963036 -8.7193089 -1.8260422
-4.0669408 -10.132162 -1.7292268
-4.7136574 -11.731506 -1.5523719
-7.4075861 -18.426956 -1.7375368
-10.310157 -25.621477 -1.4474034
-2.6379354 -6.5225635 -1.8852381
-15.203165 -37.572502 0.70748568
-3.0135725 -7.4438882 -1.8540466
-3.525244 -8.7034111 -1.8252789
-4.1007996 -10.114242 -1.728601
-5.0151134 -12.356923 -1.6374366
-7.428391 -18.293921 -1.7274269
-10.381478 -25.540926 -1.4448912
-2.6592262 -6.5097384 -1.8842027
-15.409876 -37.704315 0.71097618
-3.0380628 -7.4297142 -1.8531467
-3.5600638 -8.7019548 -1.8275685
-4.1585383 -10.154707 -1.7379872
-5.0491829 -12.317301 -1.6345118
-7.8218284 -19.07159 -1.8034266
-10.352244 -25.216303 -1.4285624
-16.14427 -39.285667 -0.74137825
-2.6819327 -6.5004163 -1.8842027
-15.693997 -38.019974 0.71795708
-3.0639782 -7.419065 -1.8531467
-3.5889173 -8.6858473 -1.8268054
-4.1962252 -10.145605 -1.7389257
-4.8605471 -11.740194 -1.5601715
-7.3820834 -17.821928 -1.6876837
-10.216832 -24.641287 -1.3979982
-2.7008922 -6.4820995 -1.8816146
-3.0870647 -7.4052668 -1.852247
-3.6161907 -8.6660185 -1.8252789
-4.2427826 -10.162624 -1.7442445
-5.282928 -12.641639 -1.6822846
-7.9032679 -18.89337 -1.7917477
-10.579162 -25.277908 -1.4360987
-2.7178795 -6.4624224 -1.8785087
-3.1166749 -7.4034266 -1.8544965
-3.6433847 -8.6503601 -1.8245157
-4.2352586 -10.045818 -1.7267238
-5.3355117 -12.643239 -1.6849656
-7.9162793 -18.749586 -1.7805917
-10.647116 -25.192993 -1.4333773
-2.7449515 -6.4635653 -1.8816146
-3.1373987 -7.3840823 -1.852247
-3.6704848 -8.6303644 -1.8229893
-4.2561712 -10.002637 -1.721718
-5.3330712 -12.521376 -1.6710726
-8.0480938 -18.877626 -1.7954082
-10.732169 -25.161222 -1.4335867
-2.7659743 -6.4503932 -1.8805792
-3.1629043 -7.3689518 -1.8513472
-3.7021377 -8.6211061 -1.8237525
-4.324008 -10.059563 -1.7342327
-5.2220168 -12.137049 -1.6223248
-7.7641754 -18.03688 -1.718014
-10.814834 -25.099707 -1.4323306
-2.7915435 -6.4477897 -1.8826498
-3.1870592 -7.3542905 -1.8504474
-3.7275214 -8.5973234 -1.8214628
-4.3653889 -10.058904 -1.7367356
-5.2643499 -12.118747 -1.6223248
-7.4808416 -17.212973 -1.6420141
-10.923095 -25.109423 -1.4350522
-2.8086176 -6.4256148 -1.8790263
-3.2173963 -7.3538322 -1.8531467
-3.7535732 -8.5752668 -1.8195547
-4.3497381 -9.9278088 -1.7167121
-5.1296291 -11.696712 -1.5682149
-7.5360761 -17.175808 -1.6409683
-11.005861 -25.060165 -1.434424
-16.208906 -36.872452 -0.7030527
-2.8294706 -6.4122372 -1.8779911
-3.2430458 -7.342557 -1.8531467
-3.7858646 -8.5675001 -1.8206996
-4.2261553 -9.5548658 -1.6547639
-5.1688185 -11.675104 -1.5677273
-7.6153502 -17.193119 -1.6451519
-11.072221 -24.974125 -1.4317025
-2.8518357 -6.4023218 -1.8779911
-3.2670705 -7.327632 -1.852247
-3.8141479 -8.5506458 -1.8199363
-4.2474027 -9.5129995 -1.6500709
-5.1641831 -11.5555 -1.554078
-7.6623082 -17.137331 -1.6423628
-11.143017 -24.898863 -1.4296092
-16.384178 -36.575905 -0.69956231
-2.8781281 -6.4011374 -1.8805792
-3.2862303 -7.3019676 -1.8486477
-3.8471956 -8.5444412 -1.8214628
-4.2675962 -9.4693012 -1.6450651
-7.6229134 -16.890741 -1.6212711
-11.266037 -24.939901 -1.4342147
-2.8980594 -6.3857741 -1.8790263
-21.731953 -47.863407 0.91754282
-3.3108928 -7.2886767 -1.8481979
-3.8721247 -8.520237 -1.8191731
-4.3178005 -9.4921064 -1.6516353
-7.5587649 -16.59387 -1.5952986
-11.389479 -24.980385 -1.4388202
-2.9163101 -6.3668375 -1.8764381
-3.3420002 -7.2894754 -1.8513472
-3.8993869 -8.5013142 -1.8180283
-4.5750885 -9.9652767 -1.7367356
-5.0569668 -11.004753 -1.4870498
-7.5359139 -16.39179 -1.5783905
-11.009062 -23.924423 -1.380204
-2.9368958 -6.3531117 -1.8754028
-21.561926 -46.621532 0.89659989
-3.3657887 -7.2742286 -1.8504474
-3.9290385 -8.4876509 -1.8180283
-4.6281166 -9.988678 -1.7436188
-5.5120983 -11.885662 -1.6086755
-8.2169695 -17.710041 -1.7080783
-11.095872 -23.893093 -1.3806226
-2.9615033 -6.348074 -1.8769557
-21.555389 -46.183578 0.88961899
-3.3911602 -7.2624354 -1.8504474
-3.9627964 -8.4827776 -1.8199363
-4.6738324 -9.9957237 -1.7476861
-5.5905771 -11.945458 -1.6194
-7.4110732 -15.828138 -1.5290602
-17.074369 -36.400253 -0.70179617
-2.9836457 -6.337697 -1.8769557
-3.4106739 -7.2382145 -1.8472981
-3.9923832 -8.4688931 -1.8199363
-4.6539016 -9.8632269 -1.7273496
-5.1515841 -10.908113 -1.4812001
-8.3540268 -17.681067 -1.7108672
-11.656889 -24.649206 -1.4289811
-17.244587 -36.448277 -0.70382065
-3.0074067 -6.3307343 -1.8779911
-21.618689 -45.508366 0.87942678
-3.4346585 -7.2268643 -1.8472981
-4.0185461 -8.4478159 -1.8184099
-4.7035618 -9.8834133 -1.7336069
-5.1885824 -10.892762 -1.4814438
-8.3925438 -17.603239 -1.7061608
-11.757483 -24.650074 -1.4312838
-3.0258796 -6.3154998 -1.8764381
-21.74111 -45.356888 0.8779608
-3.4607065 -7.2165875 -1.847748
-4.0439901 -8.4291315 -1.8172649
-4.7440186 -9.8793993 -1.735797
-8.3230915 -17.309563 -1.6803627
-11.879834 -24.684467 -1.43568
-21.986961 -45.644749 -0.88434833
-3.0445437 -6.2979422 -1.8743677
-21.944578 -45.374332 0.87977582
-3.4875739 -7.207972 -1.8486477
-4.0716782 -8.4114304 -1.8165017
-4.7500525 -9.8041143 -1.7254723
-8.4652061 -17.448908 -1.6967479
-11.922301 -24.553019 -1.4304465
-17.719725 -36.459934 -0.7075904
-3.0707433 -6.2959571 -1.8769557
-22.129137 -45.351368 0.88082296
-3.5058742 -7.1817446 -1.8450485
-4.1044617 -8.4042225 -1.8180283
-4.7790418 -9.7768259 -1.7235951
-5.8170714 -11.889876 -1.6252496
-8.4323416 -17.227774 -1.6780967
-12.041325 -24.579411 -1.434424
-3.0935547 -6.2869329 -1.8774734
-22.320869 -45.342018 0.88214934
-3.530061 -7.1677146 -1.8445988
-4.1346407 -8.3916054 -1.8184099
-4.7982874 -9.7299652 -1.7182763
-5.8971982 -11.947822 -1.6359742
-8.5056581 -17.225031 -1.6807113
-12.052716 -24.386824 -1.4256316
-3.1154802 -6.2760968 -1.8774734
-22.514587 -45.335472 0.88354558
-3.5541925 -7.1536031 -1.8441486
-4.1621599 -8.3736057 -1.8176465
-4.8480601 -9.7449913 -1.7239079
-5.9919572 -12.033783 -1.6505985
-8.6172609 -17.298672 -1.6908214
-12.214411 -24.498323 -1.4346334
-18.163052 -36.397633 -0.71003371
-3.1330457 -6.2565465 -1.8748853
-22.690617 -45.292362 0.88424367
-3.5782669 -7.1394114 -1.8436987
-4.1878443 -8.352006 -1.8161201
-4.8847055 -9.7333069 -1.7248467
-6.025908 -11.996829 -1.648405
-8.1855631 -16.289343 -1.5949501
-12.274724 -24.405575 -1.4317025
-18.216263 -36.187538 -0.7071715
-3.1522515 -6.2403994 -1.8733324
-22.868412 -45.252151 0.88501155
-3.6102023 -7.14079 -1.8472981
-4.2169709 -8.3373375 -1.8161201
-4.9293575 -9.7373447 -1.728601
-6.036346 -11.913744 -1.639874
-8.3630829 -16.498806 -1.6183078
-12.047186 -23.746302 -1.3954861
-18.36058 -36.159397 -0.70786959
-3.1731398 -6.2276359 -1.8728148
-23.078905 -45.275379 0.88703603
-3.6262515 -7.1107845 -1.8427991
-4.2487268 -8.3278112 -1.8172649
-4.9687052 -9.7306356 -1.7304782
-6.146553 -12.02694 -1.6583982
-8.3335476 -16.299215 -1.6015739
-12.0372 -23.522749 -1.3848095
-3.1939747 -6.2148037 -1.872297
-23.262409 -45.244339 0.88801336
-3.6501596 -7.0963507 -1.8423492
-4.2759719 -8.3094397 -1.8165017
-5.0225425 -9.7518663 -1.7373614
-6.1130028 -11.858962 -1.6381679
-8.3082085 -16.110653 -1.5858859
-12.5626 -24.339592 -1.4354707
-18.722706 -36.24353 -0.71205819
-3.2209833 -6.2139077 -1.8754028
-23.466228 -45.251621 0.88975859
-3.6722162 -7.0783758 -1.8409994
-23.452492 -45.186535 2.6680872
-4.3049517 -8.2944632 -1.8165017
-5.0583711 -9.7377815 -1.7379872
