# .PCD v0.7 - Point Cloud Data file format
VERSION 0.7
FIELDS x y z
SIZE 4 4 4
TYPE F F F
COUNT 1 1 1
WIDTH 1509
HEIGHT 1
VIEWPOINT 0 0 0 1 0 0 0
POINTS 1509
DATA ascii
10.206303 -0.75845927 -1.9893748
12.148335 -0.90704125 -1.9294629
14.983067 -1.1239526 -1.8448583
19.700922 -1.4813198 -1.7284726
29.742327 -2.2467775 -1.5631706
0.66258055 -0.051215455 -0.17806751
0.64698303 -0.050237004 -0.14981739
10.199678 -0.79377663 -1.9886116
12.160849 -0.95067292 -1.9319658
14.955304 -1.1743816 -1.8419334
19.69166 -1.5497673 -1.728124
29.678553 -2.3461769 -1.5602397
0.67780232 -0.054772813 -0.18220863
0.66234255 -0.053756237 -0.15341662
10.194887 -0.82921612 -1.9882298
12.159426 -0.99327731 -1.9322786
34.615379 -2.8337376 4.2644525
14.947156 -1.2262536 -1.8414459
19.682159 -1.6181681 -1.7277755
29.642317 -2.447459 -1.5587744
0.66028184 -0.055677522 -0.17754988
0.65438372 -0.055410229 -0.15161701
10.191931 -0.86479789 -1.9882298
12.14998 -1.0352124 -1.9313401
34.54594 -2.9494851 4.2571406
14.954652 -1.2794367 -1.8429084
19.660509 -1.6855001 -1.7263809
29.67737 -2.5546839 -1.561077
0.65431005 -0.057474863 -0.17599694
0.67359835 -0.059406109 -0.15611602
10.184939 -0.9000234 -1.9874666
12.144324 -1.077443 -1.9310273
34.56707 -3.0728669 4.2610397
14.926368 -1.3295169 -1.8399835
19.634661 -1.7523466 -1.7246377
29.624506 -2.6543403 -1.5587744
58.620358 -5.2729807 -1.0273533
0.66564852 -0.060813047 -0.17910279
0.66368389 -0.060867172 -0.15386651
10.191511 -0.93646836 -1.9893748
12.136554 -1.119465 -1.9304014
34.520554 -3.1902213 4.2566528
14.917684 -1.3812456 -1.839496
19.616522 -1.8197696 -1.7235919
29.619038 -2.7581034 -1.5589837
0.66543221 -0.063136227 -0.17910279
95.584518 -9.0858946 1.6759546
0.64018786 -0.060966529 -0.14846769
10.195998 -0.97278351 -1.9909012
12.130607 -1.1616343 -1.9300886
34.505253 -3.310322 4.256165
14.900914 -1.43217 -1.8380336
19.590218 -1.8863235 -1.7218487
29.545614 -2.8553283 -1.5556341
0.67482066 -0.066404574 -0.18169098
95.418884 -9.4063473 1.6736159
0.64191049 -0.063392349 -0.1489176
10.184725 -1.0075951 -1.9893748
12.126477 -1.2039711 -1.9300886
34.572506 -3.438607 4.2659149
14.891874 -1.4837818 -1.8375461
19.563686 -1.9527155 -1.7201056
29.559315 -2.9608331 -1.5568901
0.65920955 -0.067192547 -0.17754988
0.65137839 -0.066624075 -0.15116711
10.181147 -1.0431402 -1.9893748
12.128098 -1.2468992 -1.9310273
14.882655 -1.5353476 -1.8370585
19.544861 -2.0197649 -1.7190598
29.532907 -3.0623484 -1.5560528
0.64360136 -0.067872383 -0.17340876
8.6838293 -0.91883719 -2.0160115
10.17549 -1.0784657 -1.9889932
12.119741 -1.2888086 -1.9304014
14.869309 -1.5864459 -1.8360838
19.525805 -2.0867066 -1.718014
29.454517 -3.158179 -1.5524939
7.5762906 -0.82572442 -2.0420823
112.22808 -12.25133 1.9705861
8.6766939 -0.94872004 -2.0151114
10.169713 -1.1137646 -1.9886116
12.095533 -1.3289493 -1.9272728
14.871573 -1.6392097 -1.8370585
19.50256 -2.1531024 -1.7166195
29.451254 -3.2618546 -1.5529126
7.5906401 -0.85410976 -2.046741
8.6617107 -0.97769016 -2.0124121
10.163811 -1.149036 -1.9882298
12.106524 -1.3729433 -1.9297757
14.853926 -1.6897649 -1.8355962
19.490967 -2.220715 -1.7162709
29.415876 -3.3619175 -1.5516566
7.5799365 -0.87971002 -2.0446706
8.662117 -1.0083699 -2.0133121
10.171438 -1.1858716 -1.9905195
12.103619 -1.415424 -1.9300886
14.847938 -1.7416047 -1.8355962
19.455393 -2.2854834 -1.7138306
29.368259 -3.4603708 -1.5497725
7.5710649 -0.90547532 -2.0431178
8.6664648 -1.0380158 -2.0151114
10.159441 -1.2204326 -1.9889932
12.089052 -1.4543735 -1.9285244
14.84208 -1.7908324 -1.8355962
19.447296 -2.3533814 -1.7138306
29.316967 -3.5529346 -1.5476789
7.5603509 -0.9296338 -2.0410471
8.6685915 -1.0689766 -2.0164614
10.155337 -1.2541158 -1.9889932
12.07214 -1.4951066 -1.9266472
14.819979 -1.8406729 -1.8336463
19.419613 -2.4153988 -1.7120874
29.320242 -3.6572261 -1.5485164
7.5628095 -0.9567461 -2.0425999
8.6609402 -1.0987388 -2.0155613
10.152846 -1.2898045 -1.9893748
12.05705 -1.535989 -1.9250828
14.829216 -1.8944052 -1.8355962
19.40316 -2.4821601 -1.7113901
29.338993 -3.7636163 -1.5501912
7.5613399 -0.9833886 -2.0431178
8.6473913 -1.1277045 -2.0133121
10.161909 -1.3270162 -1.992046
12.05749 -1.5788358 -1.9260213
14.818578 -1.9456407 -1.8351088
19.374624 -2.5472775 -1.7096471
29.254395 -3.8566082 -1.5464231
7.5731797 -1.0118232 -2.0472586
117.6656 -15.741748 2.0721591
8.6549911 -1.159435 -2.0160115
10.14943 -1.3614357 -1.9905195
12.055821 -1.6214415 -1.9266472
14.788088 -1.9941716 -1.8321838
19.381409 -2.6170249 -1.7110416
29.209085 -3.9544146 -1.5447482
7.5581179 -1.0366772 -2.044153
8.6470289 -1.1891085 -2.0151114
10.129057 -1.3947129 -1.9874666
12.042261 -1.6624337 -1.9253956
14.788903 -2.0468683 -1.8331589
19.348475 -2.6813805 -1.7089498
29.203016 -4.0574489 -1.545167
51.227528 -7.1357479 -0.90281302
7.5525408 -1.0627847 -2.0436354
117.12116 -16.501999 2.0645499
8.6486149 -1.2201017 -2.0164614
10.128015 -1.4306107 -1.9882298
12.036386 -1.704459 -1.9253956
14.785598 -2.0990369 -1.8336463
19.319271 -2.7460995 -1.7072067
29.164948 -4.1559796 -1.5439109
48.141842 -6.8773184 -0.84885013
7.560257 -1.0907966 -2.046741
8.6404457 -1.2497257 -2.0155613
10.128789 -1.4667996 -1.9893748
12.022542 -1.7453283 -1.9241441
14.774253 -2.1500638 -1.8331589
19.309566 -2.8135195 -1.7072067
29.130501 -4.2548728 -1.5428642
45.094246 -6.602654 -0.7955156
7.5411148 -1.1149198 -2.0425999
8.6341028 -1.279593 -2.0151114
10.125549 -1.5024348 -1.9897563
12.018331 -1.7875746 -1.9244571
14.747023 -2.1986947 -1.8307214
19.272041 -2.8767869 -1.7047664
29.123371 -4.3577132 -1.5432827
37.920013 -5.6874833 -0.66929978
7.5524573 -1.1435502 -2.046741
8.6315107 -1.3100165 -2.0155613
10.118302 -1.5374755 -1.9893748
12.023734 -1.8313001 -1.9263341
14.73141 -2.2489598 -1.8297465
19.250063 -2.9422352 -1.7037203
29.100086 -4.4581366 -1.5428642
37.888065 -5.8179927 -0.66909033
7.5331473 -1.1675391 -2.0425999
52.776318 -8.1890707 0.9322378
8.6288118 -1.3404373 -2.0160115
10.114813 -1.5730875 -1.9897563
12.017268 -1.8732594 -1.9263341
14.731314 -2.3015943 -1.8307214
19.212116 -3.0051017 -1.70128
29.238255 -4.5838165 -1.5510286
37.863583 -5.9495912 -0.66902059
7.5252094 -1.1932225 -2.0415647
48.36298 -7.6772499 0.85474908
8.6471739 -1.3742194 -2.02141
10.103445 -1.6074597 -1.9886116
12.006755 -1.9145741 -1.9257084
14.731031 -2.3542552 -1.8316964
19.197577 -3.071517 -1.7009314
29.174744 -4.6782598 -1.5485164
37.933399 -6.0963197 -0.67062616
7.5343475 -1.2216476 -2.0451882
8.6346312 -1.4031451 -2.0196106
10.121025 -1.6465003 -1.9931908
12.001948 -1.9567918 -1.9260213
14.714887 -2.404381 -1.8307214
19.17494 -3.1365805 -1.6998856
29.177948 -4.7833014 -1.5495632
35.863667 -5.8921838 -0.634395
7.5357547 -1.2488873 -2.046741
8.6104555 -1.430084 -2.0151114
10.111342 -1.6811752 -1.9924276
11.991149 -1.9980252 -1.9253956
14.706405 -2.4557309 -1.8307214
19.159943 -3.2028372 -1.6995369
29.113796 -4.877203 -1.5470511
35.677223 -5.9895253 -0.63146299
7.5237308 -1.2738944 -2.0446706
8.6111755 -1.4611095 -2.0164614
10.099607 -1.7154738 -1.9912828
11.99189 -2.0411959 -1.9266472
14.686003 -2.5050485 -1.829259
19.176144 -3.2743936 -1.7019774
29.116282 -4.9821677 -1.5480977
7.5325632 -1.3024534 -2.0482941
8.6175451 -1.4931556 -2.0191607
10.080017 -1.7483691 -1.9886116
11.984693 -2.0830429 -1.9266472
14.669346 -2.5549343 -1.828284
19.129265 -3.335151 -1.6988397
29.118387 -5.0872092 -1.5491445
7.5184588 -1.3270601 -2.0457058
8.6161175 -1.5239059 -2.0200605
10.083517 -1.7852554 -1.9905195
11.969568 -2.1234844 -1.9253956
34.766853 -6.17414 4.3356237
14.672066 -2.6082094 -1.8297465
19.074354 -3.3942256 -1.6950049
29.112251 -5.1909242 -1.5497725
7.5080767 -1.3522691 -2.044153
8.6088276 -1.5536264 -2.0196106
10.07336 -1.8197446 -1.9897563
11.96597 -2.1659567 -1.9260213
34.71384 -6.2897997 4.3317246
14.666778 -2.6601167 -1.8302339
19.07023 -3.4622102 -1.6957021
29.082163 -5.2903681 -1.5491445
7.5223112 -1.3819597 -2.0493293
8.5940456 -1.5804037 -2.0173612
10.066947 -1.8548962 -1.9897563
11.962607 -2.2063417 -1.9266472
14.638356 -2.7051315 -1.8277966
19.046272 -3.5265799 -1.6946561
29.013401 -5.377316 -1.5464231
7.5176873 -1.4068967 -2.0493293
8.598053 -1.6121886 -2.0196106
10.06074 -1.8882692 -1.9897563
11.962598 -2.2495458 -1.9278985
34.646809 -6.521534 4.3287992
14.632725 -2.7569478 -1.828284
19.007063 -3.5845506 -1.6922158
28.923803 -5.4652095 -1.5426549
7.5165257 -1.433854 -2.0503645
34.318676 -6.5528455 0.60985684
8.5962009 -1.642923 -2.0205104
10.038662 -1.9204253 -1.9867034
34.682995 -6.6412325 3.0894966
11.958553 -2.2920332 -1.9285244
34.600441 -6.6379466 4.3258748
14.619114 -2.80726 -1.8277966
18.978785 -3.6478679 -1.6908214
28.947695 -5.5744467 -1.5449575
7.5114746 -1.4600828 -2.0503645
34.299519 -6.6733646 0.6099267
8.6057158 -1.6758994 -2.0241096
34.710209 -6.7658439 1.8533211
10.047313 -1.9584599 -1.9897563
11.956295 -2.3348985 -1.9294629
34.588753 -6.7609696 4.3273373
14.605329 -2.8575108 -1.827309
18.92683 -3.7064362 -1.6873351
28.94766 -5.6793046 -1.5460043
34.743828 -6.8290625 -0.61805952
7.5101228 -1.4870443 -2.0513999
34.205406 -6.7790565 0.60867018
8.5921679 -1.7044121 -2.02231
10.042341 -1.993902 -1.9901379
11.938385 -2.3746924 -1.9278985
14.599159 -2.9092512 -1.8277966
18.902056 -3.7701418 -1.6862893
28.904156 -5.7756205 -1.5447482
34.864872 -6.9793458 -0.62064248
7.5029922 -1.5128685 -2.0508821
34.193287 -6.9007869 0.60887957
8.5766153 -1.7324647 -2.0200605
10.037244 -2.0293329 -1.9905195
11.930023 -2.4163508 -1.9278985
14.581133 -2.9586148 -1.8268216
18.877062 -3.8337197 -1.6852434
29.001249 -5.9003706 -1.5510286
7.5146976 -1.5425458 -2.055541
34.184669 -7.0233221 0.60915881
8.5743332 -1.7631772 -2.0209603
10.033945 -2.0651491 -1.9912828
11.925385 -2.4587772 -1.9285244
14.555164 -3.0062826 -1.8248718
18.859661 -3.898783 -1.6848948
28.847485 -5.9740267 -1.5439109
7.5035939 -1.5675824 -2.053988
47.599209 -9.9526634 0.84881526
8.5757561 -1.7946932 -2.0227599
10.018989 -2.0985513 -1.9897563
11.91673 -2.5003896 -1.9285244
14.548467 -3.0578878 -1.8253592
18.845938 -3.964592 -1.6848948
28.99453 -6.110105 -1.5529126
7.4942966 -1.592962 -2.0529528
8.5694399 -1.8246171 -2.0227599
10.015443 -2.1343296 -1.9905195
11.902134 -2.5407345 -1.9275857
14.533822 -3.1078227 -1.8248718
18.785225 -4.0203452 -1.6807113
28.836323 -6.1819715 -1.5455856
7.4886909 -1.6191121 -2.0529528
8.5706358 -1.8561687 -2.0245595
10.007932 -2.169277 -1.9905195
11.889331 -2.5814269 -1.92696
14.526765 -3.1593797 -1.8253592
18.76329 -4.0841985 -1.680014
29.181433 -6.3625808 -1.5652639
7.4886537 -1.6464871 -2.0545056
8.5583954 -1.8848174 -2.0232098
10.007967 -2.2058883 -1.992046
11.880248 -2.6229126 -1.92696
14.507894 -3.2083538 -1.8243842
18.721687 -4.1436419 -1.6775737
29.244843 -6.4834256 -1.5698695
36.495323 -8.1041851 -0.65254551
7.4904022 -1.6743032 -2.0565763
8.5574694 -1.9159575 -2.0245595
9.9963751 -2.2399509 -1.9912828
11.867165 -2.663501 -1.9263341
14.500481 -3.2598474 -1.8248718
18.707108 -4.2089677 -1.6775737
29.210342 -6.5828347 -1.5692414
7.4807444 -1.6995833 -2.055541
8.5545292 -1.9466817 -2.0254593
9.9770098 -2.2722154 -1.9889932
11.863573 -2.7062273 -1.9272728
14.477402 -3.3077905 -1.8234093
18.653458 -4.2653599 -1.6740874
29.226124 -6.6936755 -1.571335
7.475368 -1.7230763 -2.055541
8.5483713 -1.973547 -2.0254593
9.9851246 -2.3070834 -1.992046
11.860786 -2.7448204 -1.9282113
14.470806 -3.3541527 -1.8238968
18.632202 -4.3221393 -1.6733903
29.208841 -6.7863631 -1.5715443
7.471189 -1.7496002 -2.0560586
8.5490189 -2.0051541 -2.0272589
9.980834 -2.3428211 -1.9928092
11.829981 -2.7812326 -1.9247699
14.466739 -3.4064648 -1.8248718
18.624758 -4.388979 -1.6740874
29.161646 -6.8827739 -1.5702882
40.43721 -9.5589514 -0.72528714
7.4669156 -1.7761161 -2.0565763
52.498791 -12.497293 0.94197619
8.5268021 -2.0313706 -2.0236597
9.9745045 -2.3781021 -1.9931908
11.831729 -2.8252628 -1.9266472
14.462482 -3.4587893 -1.8258467
18.589172 -4.4525719 -1.6723444
29.129675 -6.9826632 -1.5698695
39.236931 -9.4199543 -0.70434421
7.4753776 -1.8071032 -2.0607173
38.969406 -9.4204922 0.69980663
8.52913 -2.0634136 -2.0259092
9.971446 -2.4160314 -1.9943358
11.815536 -2.8672118 -1.9257084
14.450321 -3.5092516 -1.8258467
18.573517 -4.5174336 -1.6723444
29.123293 -7.0941081 -1.5709162
38.551029 -9.397727 -0.69261616
7.4633956 -1.8318045 -2.0591643
8.5234032 -2.0951259 -2.0263591
9.9629517 -2.4508233 -1.9943358
11.811209 -2.9098558 -1.9266472
14.456635 -3.5669465 -1.828284
18.549896 -4.5803289 -1.6716471
29.113861 -7.1995597 -1.5717536
7.4494576 -1.8559774 -2.0570939
8.5273819 -2.127696 -2.0290585
9.9467163 -2.4836831 -1.9928092
11.799062 -2.9505875 -1.9263341
14.444096 -3.6173875 -1.828284
18.514469 -4.6402087 -1.6699041
28.921957 -7.2593269 -1.5627518
37.051548 -9.3135796 -0.66685647
7.441061 -1.8814962 -2.0565763
8.5274591 -2.1593628 -2.0308583
9.9494047 -2.5212822 -1.9950989
11.775289 -2.9883547 -1.9241441
14.425608 -3.6663179 -1.8275528
18.474987 -4.6989145 -1.6678123
28.72225 -7.3158712 -1.5533314
7.4456749 -1.9103392 -2.0596819
8.5089273 -2.184721 -2.0281587
9.9481497 -2.5579524 -1.9966254
11.75575 -3.0249252 -1.9225799
14.384538 -3.7067046 -1.8238968
18.454613 -4.7623792 -1.6674635
28.922152 -7.4690065 -1.5654732
7.4430385 -1.9359921 -2.0607173
8.4974766 -2.2134268 -2.0272589
9.935812 -2.589937 -1.9958621
11.760408 -3.0699337 -1.9250828
14.383034 -3.7599061 -1.8253592
18.45414 -4.8275857 -1.6688582
29.058201 -7.6124353 -1.5742657
7.4381032 -1.9624543 -2.061235
8.5028877 -2.2465596 -2.0304081
9.9191198 -2.6225965 -1.9943358
11.749621 -3.1109664 -1.9250828
14.350635 -3.8050015 -1.8229219
18.417917 -4.8868628 -1.667115
28.973543 -7.6984353 -1.5711256
7.4218769 -1.9859095 -2.0586467
33.987343 -9.1005239 0.61415023
8.4987583 -2.2772355 -2.0313082
9.9136963 -2.6582217 -1.9950989
11.742506 -3.1529856 -1.9257084
14.352601 -3.859195 -1.8248718
18.369965 -4.9428411 -1.664326
28.981205 -7.8088775 -1.5730096
7.4186282 -2.0128162 -2.0596819
8.485116 -2.3053551 -2.0299582
32.914371 -8.9488058 1.7875872
9.9157248 -2.6959012 -1.9973886
11.716181 -3.1898041 -1.9232055
14.333296 -3.9077051 -1.8241404
18.352598 -5.0069342 -1.664326
28.888266 -7.892097 -1.5694507
33.069637 -9.0468292 -0.59844303
7.4245963 -2.0422864 -2.0633056
8.4732599 -2.3339245 -2.0290585
9.9100389 -2.7315402 -1.9981518
11.697358 -3.2285798 -1.921954
14.317656 -3.9571853 -1.8238968
18.341805 -5.0762911 -1.6650232
28.764299 -7.9662337 -1.5642172
32.536846 -9.0232658 -0.58936775
7.4189219 -2.0700045 -2.0638232
8.4669371 -2.3640115 -2.0295084
9.8961792 -2.7667871 -1.9973886
11.689251 -3.272496 -1.9225799
14.296109 -4.0049968 -1.8229219
18.320135 -5.1392093 -1.6646746
28.581083 -8.0283976 -1.5558435
32.046982 -9.0079994 -0.58106047
7.4079328 -2.0948374 -2.0627878
31.580959 -8.936511 0.57289267
8.4732161 -2.3992758 -2.0331075
31.648897 -8.9676685 1.7239466
9.8751278 -2.7981029 -1.9950989
11.683456 -3.3148963 -1.9235184
14.285153 -4.0584526 -1.8234093
18.282923 -5.197679 -1.6629317
28.403049 -8.0854616 -1.5476789
31.536821 -8.9894505 -0.57240403
7.3950038 -2.1190865 -2.061235
31.603392 -9.0621271 0.57387
8.4610443 -2.4277637 -2.0322077
9.8803959 -2.8368912 -1.9981518
11.666121 -3.3540218 -1.9225799
14.255639 -4.1038995 -1.8214594
18.260838 -5.2603631 -1.6625829
28.378492 -8.1856661 -1.5478884
31.643574 -9.13943 -0.5749172
7.3894172 -2.1454258 -2.0617526
31.598452 -9.1801977 0.57435864
8.4469042 -2.455651 -2.0308583
31.663834 -9.2051868 1.7281334
9.8742046 -2.8724592 -1.9989152
11.66003 -3.3963809 -1.9235184
14.246943 -4.1553035 -1.8221905
18.238539 -5.3229575 -1.6622343
28.284565 -8.2656269 -1.5443295
31.605415 -9.2420692 -0.57477754
7.3855896 -2.1722965 -2.0627878
31.617716 -9.2996035 0.57526624
8.4349756 -2.4825482 -2.0299582
31.608522 -9.3088884 1.7268775
9.8660002 -2.9074643 -1.9992968
11.661966 -3.4389396 -1.9257084
14.231182 -4.2019625 -1.8219469
18.219849 -5.3865891 -1.6622343
28.211033 -8.3457785 -1.5418174
31.592134 -9.358017 -0.57512665
7.3783455 -2.1967764 -2.0627878
31.535233 -9.3950691 0.57435864
8.4430666 -2.5169873 -2.0340075
31.489435 -9.3874083 1.7220626
9.8506603 -2.9384811 -1.9981518
11.657462 -3.4818876 -1.92696
14.197409 -4.2459254 -1.8195094
18.190434 -5.443552 -1.6611885
28.15877 -8.4373236 -1.5405613
31.572424 -9.4661751 -0.57533604
7.3798809 -2.2253065 -2.065376
31.515394 -9.5030556 0.57456809
8.4290752 -2.5432825 -2.0326576
31.498537 -9.5099688 1.7243652
9.8290672 -2.9694419 -1.9958621
11.647743 -3.5210979 -1.9272728
14.188951 -4.2947078 -1.8202407
17.858612 -5.4122453 -1.6326013
28.115349 -8.5260181 -1.539724
31.537271 -9.5757437 -0.57530111
7.3650699 -2.2475116 -2.0633056
31.518368 -9.6241026 0.57523137
8.4350557 -2.5772457 -2.0362568
31.47279 -9.6221962 1.7247839
9.8336611 -3.0083289 -1.9989152
11.639158 -3.562891 -1.9278985
14.171975 -4.3436284 -1.819997
18.098656 -5.5540447 -1.6563078
28.095364 -8.6325274 -1.540352
31.549528 -9.6998758 -0.57613885
7.3697019 -2.2784851 -2.0669291
31.492434 -9.7425137 0.57540584
8.4143839 -2.6046867 -2.0335574
31.473558 -9.7487125 1.7267728
9.8263197 -3.0455132 -1.9996784
11.624135 -3.6049414 -1.9275857
14.163543 -4.3978968 -1.8209718
18.085787 -5.6227083 -1.657005
28.025396 -8.7235727 -1.5382587
31.54813 -9.826149 -0.57676709
7.3613019 -2.3054812 -2.0669291
31.490858 -9.8686361 0.57603413
8.4103584 -2.6372588 -2.0349073
31.462389 -9.8717775 1.7281334
9.8150911 -3.0815079 -1.9996784
11.612729 -3.648114 -1.9278985
14.143542 -4.4485879 -1.8204844
18.076458 -5.6925492 -1.6580508
27.920851 -8.8034105 -1.534281
31.53479 -9.9489336 -0.57718599
7.3528023 -2.3324463 -2.0669291
31.490694 -9.9954853 0.57669735
8.406208 -2.669836 -2.0362568
31.456453 -9.996706 1.7298082
9.7962465 -3.1150813 -1.9981518
11.614338 -3.6954434 -1.9304014
14.113901 -4.4961791 -1.8187783
17.201292 -5.4863253 -1.5796106
27.930252 -8.9190521 -1.5365838
31.513351 -10.069315 -0.57746524
7.3431873 -2.3562257 -2.0664113
31.501165 -10.113917 0.5775001
8.4047298 -2.7000818 -2.0380566
31.449747 -10.10952 1.7312737
9.7864122 -3.1458416 -1.9981518
11.607661 -3.7357535 -1.9313401
14.093246 -4.541131 -1.818047
17.111914 -5.5171041 -1.5729867
27.795656 -8.9723949 -1.5307221
31.506426 -10.182371 -0.57795388
7.331243 -2.3806508 -2.065376
31.475182 -10.226906 0.57767469
8.4008141 -2.7312107 -2.0394061
31.431364 -10.224801 1.7322158
9.790307 -3.1848423 -2.001205
11.59455 -3.7762489 -1.9313401
14.088632 -4.5939908 -1.8195094
17.018682 -5.5527015 -1.5661887
27.77556 -9.0730877 -1.5313503
31.501104 -10.302233 -0.57851237
7.3283949 -2.4080365 -2.0669291
31.463985 -10.344831 0.57812846
8.3875265 -2.7593005 -2.0385065
31.423937 -10.34382 1.7337857
9.7753992 -3.2177691 -2.0004416
11.571918 -3.8136072 -1.9297757
14.080051 -4.6456294 -1.8204844
17.004871 -5.6139483 -1.5667117
27.656488 -9.1411533 -1.5265353
31.489628 -10.420296 -0.57896608
7.3272772 -2.4360404 -2.0689995
31.467531 -10.467854 0.57886147
8.368598 -2.7854846 -2.0362568
31.419853 -10.464177 1.7355652
9.7752838 -3.2555947 -2.0027313
11.569779 -3.8577266 -1.931653
14.059983 -4.6934919 -1.819997
17.000288 -5.6783209 -1.5681061
27.601679 -9.2300367 -1.5252793
31.48909 -10.542213 -0.5796293
7.32056 -2.4622183 -2.0695171
31.463018 -10.588476 0.57945484
8.3699055 -2.8184106 -2.0389564
31.409586 -10.576595 1.7369258
9.7657223 -3.2903235 -2.0031128
11.565602 -3.9012456 -1.9332174
14.04058 -4.738821 -1.8195094
16.982252 -5.738266 -1.5682805
27.591995 -9.3340082 -1.5265353
31.467218 -10.651065 -0.57987368
7.3086967 -2.4852369 -2.0684819
31.459913 -10.7037 0.58004814
8.371582 -2.8499188 -2.0416558
31.423498 -10.697431 1.7396474
9.7640486 -3.325855 -2.0050211
11.552601 -3.9395776 -1.9332174
14.028546 -4.7866378 -1.819997
16.965015 -5.7951932 -1.5684546
27.50042 -9.4047737 -1.5231858
31.469566 -10.768304 -0.58057177
7.293107 -2.5069475 -2.0664113
31.437483 -10.81252 0.58029246
8.3639269 -2.8782985 -2.0421057
31.401072 -10.812256 1.7404847
9.7492533 -3.3569372 -2.0042579
11.533871 -3.9759343 -1.9322786
14.017381 -4.8375201 -1.8207282
16.945704 -5.8514194 -1.5684546
27.457752 -9.4920006 -1.5225577
31.462019 -10.888551 -0.58113021
7.2970853 -2.5368307 -2.0700347
31.535534 -10.969494 0.58280563
8.3483086 -2.905555 -2.040756
9.7374763 -3.3909478 -2.0042579
11.512462 -4.0135694 -1.9310273
14.006033 -4.8883829 -1.8214594
16.955273 -5.9210463 -1.5712438
27.413141 -9.5838346 -1.5219297
7.2827187 -2.5603645 -2.0684819
29.591797 -10.409307 0.54755181
8.3344393 -2.9333842 -2.0398562
29.456036 -10.373107 1.6366502
9.7255802 -3.4249175 -2.0042579
11.513285 -4.0589852 -1.9335302
13.988883 -4.937243 -1.8214594
17.81185 -6.2900186 -1.6526473
27.349392 -9.6688137 -1.5202551
31.456871 -11.133285 -0.58245659
7.2864785 -2.5903001 -2.0721054
29.231222 -10.397274 0.54154819
8.3314924 -2.9650726 -2.0416558
29.167522 -10.386087 1.6226242
9.7080173 -3.4568696 -2.0031128
11.502768 -4.1004758 -1.9341559
13.960347 -4.9820404 -1.819997
17.810423 -6.3595257 -1.6545646
27.281622 -9.7521219 -1.5183709
31.442295 -11.251781 -0.58291036
7.2755742 -2.6150653 -2.0715878
31.433987 -11.304538 0.58308488
8.3284264 -2.9967759 -2.0434554
31.38611 -11.299695 1.7482306
9.6885033 -3.4880755 -2.0015864
11.490242 -4.141273 -1.9344687
13.939135 -5.0293932 -1.8195094
17.786995 -6.4247608 -1.6545646
27.26244 -9.8527231 -1.5192083
31.408466 -11.363505 -0.58301508
7.258678 -2.6390736 -2.0695171
31.405613 -11.418295 0.58329433
8.321578 -3.0271618 -2.0443552
31.380257 -11.421479 1.7501146
9.6774979 -3.5242343 -2.0019681
11.47313 -4.1826825 -1.9341559
13.921494 -5.0780187 -1.8195094
17.742002 -6.4786091 -1.6524729
27.222395 -9.9512081 -1.518999
31.419315 -11.491619 -0.58395755
7.251235 -2.6650615 -2.0700347
31.397333 -11.545747 0.58392262
8.3012819 -3.0542769 -2.0421057
31.364426 -11.546076 1.75158
9.6798763 -3.5634189 -2.0050211
11.456607 -4.2220221 -1.933843
13.921414 -5.1358805 -1.8219469
17.711803 -6.5377417 -1.6517757
27.153769 -10.03371 -1.5171149
31.405119 -11.617105 -0.58448112
7.2473211 -2.6923752 -2.0715878
31.379333 -11.663636 0.58434147
8.2869167 -3.081877 -2.0412059
31.368856 -11.672206 1.7540921
9.6563377 -3.5930786 -2.0027313
11.44365 -4.2626777 -1.9341559
13.892241 -5.1802831 -1.8204844
17.700075 -6.6037054 -1.6528214
27.066191 -10.108867 -1.514184
31.413074 -11.744867 -0.5853886
7.2505393 -2.7224102 -2.0752113
31.383356 -11.789976 0.58517921
8.2688122 -3.1080422 -2.0394061
31.339138 -11.78585 1.75472
9.6437378 -3.6267633 -2.0027313
11.437945 -4.306077 -1.9357203
13.881505 -5.231544 -1.8214594
17.673187 -6.6640449 -1.6524729
26.99337 -10.189178 -1.5120907
31.390593 -11.861515 -0.58573765
7.2355723 -2.7456462 -2.0736582
31.370052 -11.910099 0.58570278
8.2597351 -3.137579 -2.0398562
31.335144 -11.909364 1.7568135
9.6310186 -3.6604044 -2.0027313
11.426537 -4.3473816 -1.9363459
13.866869 -5.2813816 -1.8219469
17.631199 -6.7185998 -1.6507297
26.942709 -10.277645 -1.5112532
31.384493 -11.984572 -0.58640087
7.2241406 -2.770195 -2.0731406
31.360027 -12.031707 0.58629614
8.2742023 -3.1761689 -2.0461547
31.330673 -12.032993 1.758907
9.6035223 -3.6883698 -1.9996784
11.41498 -4.388659 -1.9369718
13.837234 -5.3254752 -1.8204844
17.598341 -6.7765226 -1.6498581
26.917849 -10.375939 -1.5118812
31.37978 -12.108449 -0.58709896
7.212626 -2.794697 -2.072623
31.342077 -12.150497 0.58674991
8.2485313 -3.199394 -2.0425556
31.336889 -12.161071 1.7616284
9.6198721 -3.7332342 -2.0057843
11.403274 -4.4299092 -1.9375975
13.825959 -5.3766217 -1.8214594
17.572723 -6.8371897 -1.649684
26.829355 -10.449541 -1.5089504
31.370859 -12.230987 -0.58772725
7.2100224 -2.822674 -2.0746937
31.334846 -12.273684 0.58741307
8.2445698 -3.2310116 -2.0443552
31.314983 -12.272208 1.7626752
9.606782 -3.7667911 -2.0057843
11.380385 -4.4667993 -1.9363459
13.804358 -5.420989 -1.8209718
17.550604 -6.8992157 -1.6498581
26.770416 -10.534353 -1.5076944
31.372919 -12.351797 -0.58853
7.2078085 -2.8494084 -2.0767641
31.342323 -12.396649 0.58832067
8.2501192 -3.2647874 -2.0484045
31.296404 -12.384805 1.7639313
9.5851116 -3.7950141 -2.0038762
11.369184 -4.505969 -1.9369718
13.775234 -5.4623456 -1.8195094
17.525778 -6.9566431 -1.649684
26.779882 -10.640769 -1.5102065
31.363375 -12.468324 -0.58912343
7.1929374 -2.8711464 -2.0752113
31.32704 -12.5109 0.58880931
8.2356262 -3.2906811 -2.0475044
31.301201 -12.51325 1.7666527
9.5651827 -3.8238635 -2.0023496
11.368851 -4.5495176 -1.9394747
13.767139 -5.5148263 -1.8209718
17.497063 -7.0124993 -1.649161
26.666594 -10.698282 -1.5058103
31.354923 -12.591886 -0.58978665
7.177496 -2.8940692 -2.0736582
31.320267 -12.635138 0.58950734
8.2403545 -3.325974 -2.0515537
31.286963 -12.6344 1.7683275
9.5681601 -3.8638449 -2.0057843
11.345574 -4.5862131 -1.9382232
13.749645 -5.5635934 -1.8212155
17.479864 -7.0765233 -1.6498581
26.499517 -10.738793 -1.4984833
31.34413 -12.714788 -0.59041494
7.1727176 -2.9212923 -2.0752113
31.320417 -12.7625 0.59034508
8.2268887 -3.3539817 -2.0511036
31.298151 -12.766167 1.7714677
9.5582504 -3.8987036 -2.0065475
11.327667 -4.625042 -1.9379103
13.730142 -5.6115551 -1.8212155
17.45137 -7.1359878 -1.6495095
26.380537 -10.797937 -1.4938776
31.329166 -12.836253 -0.59097344
7.16605 -2.9477813 -2.0762465
31.301563 -12.882402 0.59083372
8.2151308 -3.3826783 -2.0511036
31.286638 -12.889033 1.7733518
9.5445824 -3.9320443 -2.0065475
11.31876 -4.6675673 -1.9391619
13.693955 -5.6526313 -1.8190219
17.433718 -7.1999025 -1.6502067
26.394369 -10.911324 -1.4968085
31.324816 -12.962355 -0.59174132
7.1641173 -2.9777339 -2.0788348
31.298454 -13.015472 0.59167147
8.2206707 -3.4202518 -2.0556028
31.259893 -13.005837 1.7743986
9.5464191 -3.9737906 -2.0099821
11.297929 -4.7075009 -1.938536
13.684138 -5.7073689 -1.8204844
17.416409 -7.26759 -1.6510783
26.343142 -11.003371 -1.4961804
31.316282 -13.087043 -0.59243941
7.146554 -2.9997323 -2.0767641
31.303059 -13.139311 0.59257901
8.1985025 -3.4429662 -2.0529034
31.251131 -13.130347 1.7764918
9.5288706 -4.005568 -2.0092189
11.278614 -4.7434092 -1.9379103
13.665137 -5.7527161 -1.8204844
17.381752 -7.3244705 -1.6502067
26.277063 -11.078253 -1.4945058
31.314625 -13.214936 -0.59327716
7.1223369 -3.017386 -2.072623
31.286461 -13.260986 0.59313744
8.1900234 -3.4730849 -2.053803
31.260269 -13.262758 1.7796321
9.5137281 -4.0363784 -2.0088372
11.256533 -4.7804337 -1.9369718
13.65228 -5.8034873 -1.8214594
17.363415 -7.3882213 -1.6509041
26.274984 -11.185555 -1.4965991
31.286699 -13.332003 -0.59362614
7.1325426 -3.0525918 -2.0788348
31.258366 -13.377983 0.59348655
8.1778498 -3.5016525 -2.053803
31.261513 -13.392242 1.7823534
9.504283 -4.0735407 -2.0099821
11.238936 -4.8216591 -1.9369718
13.639235 -5.8542385 -1.8224343
17.321043 -7.4417071 -1.6493353
26.219131 -11.275471 -1.4957618
31.284058 -13.460098 -0.59446383
7.1271629 -3.0797694 -2.0803876
31.249508 -13.50992 0.59425449
8.1649609 -3.5316021 -2.053803
31.245214 -13.521011 1.7842376
9.4900055 -4.1066923 -2.0099821
11.216599 -4.8585052 -1.9360331
13.610402 -5.9010315 -1.8214594
17.307756 -7.5076742 -1.6505555
26.190607 -11.371696 -1.4963897
31.296867 -13.60177 -0.59565061
7.1216817 -3.1069467 -2.0819407
31.246143 -13.638119 0.59509218
8.1579418 -3.5624218 -2.0551529
31.227104 -13.642788 1.7859123
9.4702158 -4.1374359 -2.0088372
11.212241 -4.9031687 -1.9382232
13.582447 -5.9453206 -1.8204844
17.286919 -7.5704412 -1.6510783
26.110508 -11.44541 -1.4940871
31.285826 -13.727004 -0.59634876
7.1090255 -3.1310084 -2.081423
31.249588 -13.769681 0.59606951
8.1525888 -3.5940204 -2.0569522
31.199968 -13.754321 1.7869591
9.4611044 -4.1728444 -2.0099821
11.196864 -4.9430747 -1.938536
13.565242 -5.9943004 -1.8209718
17.264032 -7.632349 -1.6514269
26.081356 -11.541331 -1.4947151
31.26939 -13.84363 -0.59690726
7.0892258 -3.15188 -2.0788348
31.251255 -13.894354 0.596977
8.1495285 -3.6249957 -2.059202
31.21381 -13.890757 1.7905179
9.4482746 -4.2066431 -2.0103636
11.182216 -4.9809818 -1.9388491
13.559795 -6.0457187 -1.8229219
17.215452 -7.6828213 -1.6493353
26.006464 -11.61147 -1.4926215
31.26104 -13.970645 -0.59767514
7.0734468 -3.1729991 -2.0772817
31.231758 -14.016458 0.59753549
8.1332693 -3.6518242 -2.0583022
31.216145 -14.022543 1.7934487
9.4432268 -4.2419734 -2.0122719
11.157555 -5.0167441 -1.9375975
13.544039 -6.095458 -1.823653
17.091776 -7.6956954 -1.6399224
25.929358 -11.685768 -1.4905282
31.284994 -14.112571 -0.59907126
7.0764074 -3.204046 -2.081423
31.215429 -14.140244 0.59816378
8.111598 -3.6761703 -2.0560527
31.192474 -14.14297 1.7949141
9.4140587 -4.268425 -2.0092189
11.138176 -5.0548444 -1.9372847
13.519065 -6.1410575 -1.8231655
16.979557 -7.7165656 -1.6317297
25.873863 -11.769591 -1.4896908
31.282864 -14.243236 -0.59997886
7.0651803 -3.2287278 -2.081423
31.220438 -14.274064 0.59921098
8.1075773 -3.7085159 -2.0583022
31.168341 -14.263402 1.7963796
9.4026709 -4.3028941 -2.0099821
11.127646 -5.096983 -1.938536
13.490328 -6.1848998 -1.8221905
16.851105 -7.7292724 -1.6219683
25.821733 -11.854836 -1.4890628
31.232952 -14.352347 -0.59997886
7.0521121 -3.2525606 -2.0809052
31.213997 -14.403062 0.6000486
8.1069679 -3.7425113 -2.0614514
31.176386 -14.398909 1.799729
9.3804655 -4.3323965 -2.0084558
11.120544 -5.1407685 -1.9404132
13.474061 -6.2344537 -1.8229219
16.800518 -7.7771668 -1.6197023
25.754824 -11.933143 -1.4875973
31.222572 -14.47979 -0.60074675
7.03371 -3.2738965 -2.0788348
31.18891 -14.52375 0.6005373
8.1026869 -3.7749021 -2.0637012
31.164673 -14.519083 1.8018224
9.3759613 -4.3700905 -2.0107453
11.091792 -5.1745443 -1.938536
13.463008 -6.2864876 -1.8243842
16.800344 -7.8484125 -1.622317
25.709394 -12.02128 -1.487388
31.235968 -14.612057 -0.60193348
7.0222392 -3.2984288 -2.0788348
31.184013 -14.6475 0.60137498
8.0760136 -3.79512 -2.0601017
31.182487 -14.660071 1.8058
9.3659811 -4.4052992 -2.0118902
11.067422 -5.2079329 -1.9372847
13.449272 -6.3344817 -1.8253592
16.780054 -7.9104075 -1.6230143
25.636871 -12.091134 -1.4855039
31.231787 -14.743196 -0.60284102
7.0147538 -3.3233516 -2.07987
31.183292 -14.780246 0.60235232
8.0644798 -3.8241229 -2.0605516
31.134731 -14.770541 1.8060094
9.3513203 -4.4363337 -2.0118902
11.063451 -5.2533131 -1.9397876
13.416321 -6.3762779 -1.8238968
16.781128 -7.9826264 -1.6258032
25.529589 -12.149652 -1.4817358
31.21624 -14.869324 -0.60353911
7.0060115 -3.3507063 -2.0809052
31.167591 -14.906262 0.60305047
8.0510817 -3.8522499 -2.0605516
31.140631 -14.906727 1.809359
9.3420792 -4.4739695 -2.0134165
11.042342 -5.2929735 -1.9394747
13.401141 -6.4265032 -1.8248718
16.765734 -8.0471897 -1.6270235
25.459681 -12.231032 -1.4802703
31.192986 -14.992061 -0.6040976
6.9907928 -3.3734624 -2.07987
31.159569 -15.043 0.60395801
8.0491915 -3.8876653 -2.0637012
31.132544 -15.043356 1.8120803
9.3299417 -4.5082607 -2.0141799
11.03091 -5.3349257 -1.9407262
13.373922 -6.4738479 -1.8243842
16.760851 -8.1169529 -1.6292894
25.413237 -12.318087 -1.4800609
31.177406 -15.125489 -0.60486549
6.9720278 -3.3944619 -2.0777996
31.157207 -15.176196 0.60493535
8.037324 -3.9165924 -2.0641508
31.122929 -15.172943 1.8145924
9.3176765 -4.5425215 -2.0149431
11.008671 -5.3716664 -1.9401004
13.354812 -6.5222349 -1.8248718
16.744947 -8.1815319 -1.6305095
25.362907 -12.403211 -1.4796423
31.167524 -15.255325 -0.60570323
6.9670715 -3.4221847 -2.07987
31.13994 -15.302503 0.60563344
8.0253525 -3.9454837 -2.0646007
31.119045 -15.298979 1.817314
9.3052864 -4.5767512 -2.0157063
10.993398 -5.4118052 -1.9407262
13.34977 -6.5775857 -1.827309
16.719862 -8.2416954 -1.6308583
25.283634 -12.473995 -1.477549
31.170563 -15.385149 -0.60675037
6.9637389 -3.4507723 -2.0824583
31.124855 -15.423437 0.60633147
8.0087328 -3.9703438 -2.0637012
31.101234 -15.425256 1.8194072
9.3050823 -4.6170592 -2.019141
10.973621 -5.4473529 -1.9404132
13.331441 -6.6235857 -1.8277966
16.705261 -8.3071051 -1.6322527
25.188484 -12.531081 -1.4744086
31.166792 -15.518818 -0.60772771
6.9660826 -3.4807539 -2.0865991
31.131641 -15.562389 0.60751826
8.0105114 -4.0061202 -2.06775
31.0865 -15.55339 1.8217102
9.2826977 -4.6443768 -2.0176144
10.965137 -5.4909315 -1.9422905
13.30114 -6.666523 -1.8268216
16.682964 -8.3651352 -1.6327757
25.133879 -12.613554 -1.4737808
31.15889 -15.650852 -0.60863519
6.9383645 -3.4972236 -2.0819407
31.123554 -15.694376 0.60842586
7.9895186 -4.0305467 -2.0659504
31.081945 -15.687004 1.824641
9.2699347 -4.6785202 -2.0183775
10.951194 -5.531846 -1.9432292
13.281331 -6.7147031 -1.827309
16.632328 -8.412528 -1.6306839
25.079004 -12.695797 -1.4731526
31.150448 -15.783021 -0.60954279
6.9261141 -3.5214214 -2.0819407
31.097099 -15.817426 0.60898429
7.9875584 -4.0645976 -2.0690999
31.073273 -15.818962 1.8273624
9.2657948 -4.7170849 -2.021049
10.926537 -5.567349 -1.9422905
13.26135 -6.762826 -1.8277966
16.606413 -8.4723444 -1.6310325
24.974056 -12.752382 -1.4695938
31.123652 -15.906219 -0.61010122
6.9120612 -3.5446954 -2.081423
31.080839 -15.945961 0.60975224
7.964653 -4.0880051 -2.0668504
31.067614 -15.952877 1.8302932
9.256258 -4.7529869 -2.0225754
10.908793 -5.6063581 -1.9426033
13.242957 -6.8118 -1.8285278
16.557249 -8.5202322 -1.6291151
24.893877 -12.821189 -1.4675003
31.121264 -16.042252 -0.61114836
6.9168048 -3.5776763 -2.0865991
31.088923 -16.08744 0.61100876
7.9503345 -4.1157823 -2.0668504
31.050756 -16.081434 1.8325961
9.2465849 -4.7888799 -2.024102
10.892666 -5.6462212 -1.9432292
13.219099 -6.857985 -1.8285278
16.523872 -8.5761414 -1.6287665
24.778076 -12.87118 -1.4633135
31.114758 -16.176615 -0.61212569
6.904274 -3.601799 -2.0865991
31.078669 -16.219919 0.61191624
7.9428291 -4.1471167 -2.0686498
31.040457 -16.213764 1.8353175
9.2263308 -4.8193092 -2.0233386
10.87639 -5.6860394 -1.9438549
13.19332 -6.9031658 -1.828284
16.493834 -8.6337671 -1.6287665
24.740072 -12.9613 -1.4637321
31.097061 -16.305557 -0.61289358
6.8916593 -3.6258774 -2.0865991
31.067871 -16.352522 0.61282384
7.9283042 -4.1748166 -2.0686498
31.019016 -16.340635 1.8374109
9.2059784 -4.8496556 -2.0225754
10.856477 -5.7239704 -1.9438549
13.169143 -6.9491768 -1.828284
16.453024 -8.685708 -1.6277206
24.687614 -13.043848 -1.4633135
31.092987 -16.442051 -0.61394078
6.8738413 -3.6471949 -2.0850463
31.070656 -16.492746 0.61401057
7.9240108 -4.2079501 -2.0713491
31.021755 -16.480673 1.8409698
9.2045975 -4.8900504 -2.02601
10.852127 -5.7701788 -1.9466707
13.143053 -6.9941711 -1.8280404
16.419088 -8.7412138 -1.627372
24.656036 -13.137458 -1.4641509
31.084808 -16.576832 -0.61491811
6.8644743 -3.6729898 -2.0860815
31.05521 -16.623753 0.61484832
7.9041195 -4.2328253 -2.0699997
31.027418 -16.622814 1.8447379
9.1892023 -4.9230781 -2.0263917
10.816252 -5.799623 -1.9438549
13.13605 -7.0493927 -1.8304777
16.383209 -8.7956467 -1.6268491
24.592432 -13.213991 -1.4631041
31.083113 -16.715544 -0.61603504
6.8550119 -3.6987634 -2.0871167
31.042742 -16.75675 0.6157558
7.8875818 -4.2594638 -2.0695498
31.000834 -16.748106 1.846622
9.1805983 -4.9597902 -2.0282996
10.804629 -5.8420415 -1.9454193
13.102635 -7.0904803 -1.829259
16.343645 -8.8480387 -1.6259774
24.511036 -13.280724 -1.4610107
31.08083 -16.854448 -0.61715204
6.8522406 -3.7282093 -2.0902226
31.040264 -16.895599 0.61687273
7.8829341 -4.2925625 -2.0722492
30.970245 -16.871504 1.8482969
9.1597815 -4.9899282 -2.0275364
10.796311 -5.8863397 -1.9476093
13.077805 -7.1361732 -1.829259
16.326653 -8.912672 -1.627372
24.447002 -13.356627 -1.459964
31.056896 -16.982023 -0.61785007
6.8408785 -3.7530346 -2.0907402
31.037191 -17.034636 0.61798966
7.8644853 -4.3181767 -2.0713491
30.981182 -17.017969 1.8524836
9.1285419 -5.0143094 -2.0244837
10.770506 -5.9211349 -1.9466707
13.059771 -7.1856074 -1.8302339
16.286715 -8.9648046 -1.6265004
24.37574 -13.42839 -1.4584986
31.028952 -17.107708 -0.61847842
6.8175936 -3.7712801 -2.0876343
31.019533 -17.166107 0.6188274
7.8595939 -4.3512654 -2.0740488
30.977003 -17.149635 1.8556238
9.1298752 -5.0566072 -2.0286815
10.751499 -5.9596534 -1.9469837
13.041553 -7.235003 -1.8312089
16.225706 -9.0051641 -1.6235371
24.234432 -13.461026 -1.4528463
31.045464 -17.251307 -0.61994439
6.8111367 -3.7988193 -2.089705
31.011337 -17.296154 0.61980474
7.8451214 -4.377305 -2.0740488
30.958807 -17.281025 1.8581359
9.1155968 -5.0903597 -2.0294447
10.738575 -5.9991274 -1.948235
13.022686 -7.281117 -1.8319401
16.20113 -9.0656404 -1.6242344
24.200117 -13.547169 -1.4534743
31.03739 -17.388891 -0.62099153
6.8052382 -3.8251712 -2.0917757
31.006556 -17.435663 0.62092173
7.8348899 -4.4075294 -2.0753984
30.943552 -17.414454 1.8608575
9.1157751 -5.1301885 -2.0332606
10.717569 -6.0365753 -1.948235
12.992004 -7.323606 -1.8312089
16.167505 -9.1173582 -1.6238856
24.110935 -13.607999 -1.4509622
31.039188 -17.532532 -0.62224811
6.8069715 -3.8574743 -2.0964344
30.997688 -17.573376 0.62196887
7.807591 -4.428122 -2.0722492
30.952055 -17.561785 1.8650444
9.0858593 -5.1551957 -2.0305893
10.705021 -6.0788274 -1.9497994
12.969812 -7.3708725 -1.8316964
16.132118 -9.1717682 -1.6235371
24.02857 -13.672324 -1.4488688
31.019503 -17.664524 -0.62308586
6.778368 -3.8725872 -2.0917757
30.977823 -17.705284 0.62280655
7.7988529 -4.4592175 -2.0740488
30.932175 -17.693521 1.8675565
9.0558796 -5.1800556 -2.0279181
10.690593 -6.1200829 -1.9510508
12.957783 -7.4239955 -1.8336463
16.106918 -9.231987 -1.6242344
23.959909 -13.744192 -1.4476128
31.006208 -17.800568 -0.62406319
6.7648091 -3.8962243 -2.0917757
30.971279 -17.845257 0.62392348
7.7849278 -4.4873867 -2.0744987
30.911751 -17.825333 1.8700686
9.0496483 -5.2185006 -2.0305893
10.665743 -6.1553884 -1.9504251
12.918038 -7.4612393 -1.8316964
16.057344 -9.2781868 -1.6224912
23.904871 -13.823743 -1.447194
30.985426 -17.932735 -0.62490088
6.7611918 -3.9256346 -2.0948815
30.957218 -17.981382 0.62490088
7.7725868 -4.5164928 -2.0753984
30.911182 -17.961861 1.8736275
9.0245886 -5.2461119 -2.029063
10.644193 -6.1925807 -1.9504251
12.893631 -7.5072851 -1.8319401
16.02486 -9.3341808 -1.6224912
23.825413 -13.888998 -1.4453099
30.998337 -18.077696 -0.62636691
6.752449 -3.9521391 -2.0964344
7.752522 -4.5392876 -2.0740488
9.0282412 -5.2904854 -2.034024
10.620191 -6.2258463 -1.9497994
12.877226 -7.5550237 -1.8331589
16.012796 -9.4021664 -1.624583
23.758558 -13.95579 -1.4440539
6.7675943 -3.9911921 -2.1052344
7.738307 -4.5673118 -2.0744987
9.0123377 -5.3213925 -2.0344057
10.622202 -6.2769489 -1.9541795
12.847358 -7.5979056 -1.8326714
15.97302 -9.4539433 -1.6238856
23.67189 -14.016253 -1.4417511
6.7695246 -4.0258441 -2.1104105
7.7290163 -4.5982819 -2.0762982
8.991087 -5.3533845 -2.034024
10.605913 -6.3198838 -1.9554311
12.815642 -7.6396565 -1.8319401
15.939922 -9.5096426 -1.6238856
23.60321 -14.092682 -1.4407043
6.7372036 -4.0385237 -2.1047165
7.717124 -4.6295862 -2.0776479
8.9773941 -5.3877673 -2.0351689
10.590561 -6.3609357 -1.9566824
12.796062 -7.6916904 -1.8331589
15.906631 -9.5652256 -1.6238856
23.536762 -14.164687 -1.4396576
6.7346406 -4.0690103 -2.1083403
7.7059202 -4.6595211 -2.0789976
8.9719715 -5.4272003 -2.0382218
10.559843 -6.3927493 -1.9551181
12.775928 -7.7404237 -1.8341339
15.87996 -9.6248245 -1.624583
23.480343 -14.242617 -1.439239
6.7137961 -4.0884743 -2.1062696
7.6846156 -4.6833487 -2.0776479
8.954649 -5.4595075 -2.0386035
10.544209 -6.4336863 -1.9563696
12.752218 -7.7870431 -1.8346213
15.842867 -9.6781197 -1.6242344
23.396402 -14.303654 -1.4371455
6.6994839 -4.1118851 -2.1062696
7.6715431 -4.7121849 -2.0785477
8.9439011 -5.4958706 -2.0405114
10.530101 -6.4756279 -1.957934
12.723269 -7.8304682 -1.8343775
15.81238 -9.7354517 -1.624583
23.33613 -14.378951 -1.4365175
6.6850901 -4.1352453 -2.1062696
7.6716161 -4.7491922 -2.0830467
8.9113092 -5.5187879 -2.0374587
10.515827 -6.5175481 -1.9594984
12.705979 -7.8811116 -1.83584
15.785071 -9.7947893 -1.6252803
16.608412 -10.309695 3.7997706
23.262043 -14.445569 -1.4350522
6.6640558 -4.1544676 -2.1041989
7.6582994 -4.7780056 -2.0839467
8.8919916 -5.549861 -2.0374587
10.496365 -6.5563097 -1.9601241
12.713739 -7.9475117 -1.8409585
15.750786 -9.8498297 -1.6252803
16.595625 -10.382184 3.8051133
23.19116 -14.513968 -1.433796
6.663331 -4.1847639 -2.1083403
7.6341624 -4.7981892 -2.0816972
8.8868332 -5.5876775 -2.0405114
10.466206 -6.5858197 -1.9585598
12.695713 -7.9949183 -1.8421772
15.719723 -9.9030695 -1.6254547
16.577715 -10.447627 3.8089294
23.085459 -14.554574 -1.4302372
16.655924 -10.50504 4.5462608
6.6535802 -4.2110958 -2.1098928
7.6330276 -4.8328614 -2.085746
8.8722496 -5.6218171 -2.0416565
10.454318 -6.6268358 -1.9604369
12.667456 -8.0359106 -1.8419334
15.701878 -9.9685593 -1.6271976
16.571154 -10.520431 3.8154168
23.020205 -14.620341 -1.4291904
16.512436 -10.491242 4.5165672
6.6509814 -4.240407 -2.1135163
7.655539 -4.8846335 -2.0965438
8.8519039 -5.6501513 -2.0412748
10.439446 -6.6686058 -1.9620013
12.632637 -8.0758028 -1.8409585
15.666986 -10.023309 -1.6271976
16.466526 -10.534833 3.7997706
22.94548 -14.685534 -1.427725
16.406786 -10.504686 4.4976716
6.6418958 -4.2689342 -2.115587
7.6400809 -4.9123802 -2.0969937
8.8344383 -5.6846814 -2.042038
10.42324 -6.7121706 -1.9635657
12.60604 -8.1209249 -1.8412023
15.625204 -10.073617 -1.6265004
16.338711 -10.537654 3.7791634
22.8915 -14.769534 -1.427725
16.253561 -10.490772 4.4661779
6.6318178 -4.2952428 -2.1171398
54.21843 -35.129192 1.1276698
7.633472 -4.9477696 -2.100143
8.8178358 -5.7176208 -2.0428011
10.401402 -6.7495885 -1.9638785
12.596169 -8.180048 -1.8441271
15.604983 -10.137866 -1.6280692
16.26232 -10.568947 3.7700045
22.816364 -14.834111 -1.4262596
16.122093 -10.48582 4.440084
6.6248736 -4.3236451 -2.1197281
7.6112599 -4.9711881 -2.0987935
8.7945366 -5.7462192 -2.042038
10.371164 -6.7815313 -1.9626271
12.567538 -8.2239656 -1.8441271
15.566166 -10.190093 -1.6277206
22.721008 -14.885207 -1.4235381
16.072353 -10.533485 4.4364843
6.6210394 -4.3541741 -2.1233516
7.5906048 -4.9955821 -2.0978935
8.7809839 -5.7812004 -2.0435643
10.358976 -6.8252997 -1.964817
12.540412 -8.268878 -1.8443708
15.540481 -10.250951 -1.6287665
22.642241 -14.946821 -1.4218634
16.367224 -10.808597 4.5282645
6.6058002 -4.3772597 -2.1233516
7.5812416 -5.0274339 -2.100143
8.770565 -5.8183274 -2.0458541
10.348255 -6.8701577 -1.96732
12.511473 -8.312602 -1.8443708
15.504603 -10.305136 -1.6287665
16.40579 -10.908237 3.8295369
22.543364 -14.994796 -1.4189326
6.5824471 -4.3949275 -2.1207633
7.5717473 -5.0592799 -2.1023927
8.7469378 -5.8467255 -2.0450909
10.329136 -6.909533 -1.9682587
12.484029 -8.3573294 -1.8446145
15.473502 -10.362517 -1.6292894
22.474295 -15.062276 -1.4178859
6.5558457 -4.4103298 -2.1171398
7.5540414 -5.0856795 -2.1023927
8.737875 -5.8848996 -2.0477622
10.309868 -6.9488587 -1.9691973
12.466301 -8.4086256 -1.8463207
15.432282 -10.413125 -1.6287665
22.421581 -15.140635 -1.4178859
6.5228205 -4.4212646 -2.1114457
7.5330167 -5.1098285 -2.1014926
8.7172794 -5.9153643 -2.0477622
10.282281 -6.982585 -1.9685715
12.438514 -8.4532051 -1.8465644
15.405725 -10.473651 -1.6298124
22.325659 -15.189596 -1.4151644
6.5073476 -4.444006 -2.1114457
7.5176411 -5.1358805 -2.1019428
8.7208881 -5.9623785 -2.0534863
10.268852 -7.0233355 -1.9704487
12.418605 -8.5000124 -1.8477831
15.377291 -10.532993 -1.6306839
22.238922 -15.23871 -1.4128617
6.4925747 -4.4655609 -2.1114457
69.123604 -47.560638 1.4645711
7.5125093 -5.1709299 -2.1055419
8.6913662 -5.9845848 -2.0511968
10.242647 -7.0580168 -1.9701359
12.377419 -8.5354214 -1.846077
15.348837 -10.588453 -1.6313812
22.17573 -15.309438 -1.4122336
6.4674211 -4.481595 -2.1083403
68.976883 -47.815304 1.4649899
7.5008183 -5.2015634 -2.1073413
8.6704235 -6.0148869 -2.0511968
10.224438 -7.0982327 -1.9713873
12.349179 -8.5797081 -1.8463207
15.323235 -10.649924 -1.6326013
22.109035 -15.377629 -1.4113961
15.724304 -10.940889 4.4225378
6.4311457 -4.4897671 -2.1016109
7.4953961 -5.2366443 -2.1109407
8.678339 -6.0653591 -2.0580659
10.19798 -7.1327472 -1.9710745
12.338672 -8.6364212 -1.8492455
15.277806 -10.697635 -1.6317297
22.029055 -15.436374 -1.4097214
15.564743 -10.910699 4.3883452
6.4233341 -4.5177455 -2.1041989
75.281303 -52.967503 1.6067034
7.4818516 -5.26614 -2.1122904
8.657115 -6.0956154 -2.0580659
10.161716 -7.1603374 -1.9688843
12.313315 -8.6828699 -1.8499768
15.245255 -10.754345 -1.6322527
21.919563 -15.474011 -1.4061626
15.434236 -10.899762 4.3622508
6.3933392 -4.5300879 -2.0995402
7.4459376 -5.2798257 -2.1073413
8.6469936 -6.1337485 -2.0607371
10.152768 -7.2071986 -1.9720131
12.284551 -8.7269487 -1.8502206
15.215746 -10.813266 -1.6331242
21.842628 -15.534225 -1.4046973
15.202372 -10.815748 4.3073626
6.394783 -4.5647235 -2.1052344
74.104149 -52.916534 1.5894256
7.4005051 -5.2865276 -2.0996931
8.628726 -6.1661787 -2.0615005
10.130762 -7.2448936 -1.9726388
12.244327 -8.762846 -1.8487581
15.182767 -10.869793 -1.6336472
21.749304 -15.582458 -1.4021851
6.361558 -4.5746112 -2.0995402
7.3756795 -5.3077741 -2.0978935
8.611928 -6.1997013 -2.0626454
10.107014 -7.2813663 -1.9729517
12.239429 -8.8241072 -1.8526579
15.149579 -10.926221 -1.6341701
21.675344 -15.644255 -1.400929
6.347115 -4.5979223 -2.1000578
7.342258 -5.3207703 -2.0933945
8.5997705 -6.2366405 -2.064935
10.082812 -7.3148427 -1.9729517
12.200461 -8.8576479 -1.8511955
15.117795 -10.983721 -1.6348674
21.581343 -15.685516 -1.3982075
14.842738 -10.791798 4.2367282
6.3209076 -4.6109757 -2.0964344
7.3047528 -5.3325782 -2.0879958
8.5869694 -6.2709131 -2.0668433
10.062003 -7.3534904 -1.9738904
12.179081 -8.9072142 -1.8526579
15.090937 -11.040852 -1.6359133
21.532902 -15.765473 -1.3986262
14.749949 -10.80324 4.2209816
6.309444 -4.6364422 -2.0979872
7.2672553 -5.3441901 -2.0825968
8.6124697 -6.3357496 -2.0782917
10.048999 -7.3979373 -1.9763933
12.144718 -8.9473171 -1.8521705
15.061929 -11.100554 -1.6369592
21.426304 -15.802608 -1.3952768
14.633744 -10.796814 4.1984868
6.2978802 -4.6618867 -2.0995402
7.2548199 -5.3741651 -2.0843966
8.60923 -6.3798018 -2.082871
10.029461 -7.437676 -1.9776447
12.118196 -8.9932041 -1.8529016
15.034286 -11.161375 -1.6381793
21.361391 -15.870156 -1.3946487
14.508378 -10.782731 4.1732917
6.2629838 -4.6699848 -2.0933285
7.2344551 -5.3982911 -2.0839467
10.016098 -7.4820981 -1.9801477
12.08355 -9.0330734 -1.8524141
14.996829 -11.21498 -1.6383536
21.318659 -15.954196 -1.3954861
14.38953 -10.77258 4.1498966
6.2458258 -4.6929083 -2.0933285
7.225523 -5.4329681 -2.087096
8.5288401 -6.4152808 -2.0744755
9.9996548 -7.5270739 -1.9823378
12.063046 -9.0868559 -1.854364
14.954034 -11.268671 -1.6381793
21.237713 -16.01539 -1.3940207
14.265942 -10.761874 4.1256022
6.221704 -4.7088523 -2.0907402
7.1996984 -5.4510179 -2.0848465
8.5157843 -6.4521255 -2.0767653
9.9730654 -7.559 -1.982025
12.037591 -9.1304083 -1.8550954
14.927301 -11.330439 -1.6395737
21.149494 -16.059158 -1.3917179
14.165001 -10.759614 4.1067061
6.2014451 -4.7259459 -2.0891874
7.1775284 -5.473753 -2.0839467
8.4959021 -6.4815211 -2.0771468
9.9560375 -7.6009588 -1.9839021
12.002491 -9.169961 -1.8546078
14.899145 -11.387136 -1.6406198
21.086962 -16.128033 -1.3912992
14.032946 -10.73676 4.0792623
6.1864433 -4.7487407 -2.089705
7.1454253 -5.4868422 -2.0798974
8.4685545 -6.5075488 -2.0760019
9.9448738 -7.6447673 -1.9867179
11.975164 -9.2121334 -1.8550954
14.876672 -11.452443 -1.6425371
21.030197 -16.195433 -1.3910899
13.841627 -10.671038 4.6830721
6.1614904 -4.7621408 -2.0865991
7.1262302 -5.5117497 -2.0798974
8.4546928 -6.5416031 -2.0779099
9.9321852 -7.6903195 -1.9895338
11.946074 -9.2563105 -1.8555828
14.833455 -11.501863 -1.6421884
20.957758 -16.256502 -1.3900431
13.724951 -10.657677 4.6561551
6.1363735 -4.7787571 -2.0840108
7.1130962 -5.5413828 -2.0816972
8.4353046 -6.5761685 -2.0790551
9.905489 -7.7278857 -1.9898466
11.919949 -9.3028374 -1.8565578
14.786937 -11.548664 -1.6414913
20.863411 -16.306149 -1.3877404
12.812858 -10.017707 3.7548831
6.1181355 -4.7989554 -2.0834932
7.0820084 -5.5589938 -2.0785477
8.4153862 -6.6079974 -2.0798182
9.8815603 -7.7648563 -1.9904724
11.888893 -9.348918 -1.8570452
14.763759 -11.61376 -1.6434087
20.825197 -16.3937 -1.3889964
12.808431 -10.086482 3.763881
13.02168 -10.26178 4.4423704
6.101347 -4.8202825 -2.0834932
7.0503306 -5.5740113 -2.0749483
8.4015083 -6.6446404 -2.0821078
9.8605909 -7.8042059 -1.9917238
11.859299 -9.3928251 -1.8575326
14.735622 -11.675124 -1.6448032
20.742807 -16.446442 -1.3873217
12.792994 -10.146874 3.7697299
12.926767 -10.26033 4.4221821
6.0875072 -4.8439569 -2.0845287
7.0338798 -5.6010165 -2.0758483
8.3736544 -6.6702566 -2.0809629
