# .PCD v0.7 - Point Cloud Data file format
VERSION 0.7
FIELDS x y z
SIZE 4 4 4
TYPE F F F
COUNT 1 1 1
WIDTH 1557
HEIGHT 1
VIEWPOINT 0 0 0 1 0 0 0
POINTS 1557
DATA ascii
12.54623 15.55982 -2.454205
17.814974 22.086243 -2.4825442
32.638962 40.435463 -2.7233541
5.2215681 6.4458055 -2.222738
6.1542811 7.5917735 -2.2562592
7.5505581 9.3108749 -2.3301597
9.458869 11.655754 -2.3774912
12.585447 15.497442 -2.4512801
17.849253 21.97134 -2.4766176
32.631237 40.138424 -2.7110028
5.233047 6.4140668 -2.2180793
6.1758122 7.564208 -2.2544594
7.5631447 9.2601299 -2.3240535
9.4844923 11.604312 -2.3737369
12.609309 15.416537 -2.4454305
17.887981 21.862642 -2.4713881
32.730667 39.974815 -2.7076533
5.2480474 6.3868041 -2.2149734
6.1984682 7.5380883 -2.2531099
7.5954251 9.2336712 -2.3240535
9.5149021 11.558931 -2.3712339
12.640316 15.344856 -2.4410431
17.928717 21.757011 -2.4665074
32.615845 39.552162 -2.6867189
5.2715397 6.3699355 -2.2154911
6.2210155 7.5119004 -2.25176
7.6150842 9.1919861 -2.3202376
9.5551949 11.525646 -2.3712339
12.663387 15.263969 -2.4351933
17.956207 21.63603 -2.4598837
5.2962179 6.3544617 -2.2165263
6.2334642 7.4736819 -2.2468112
7.6446099 9.1623316 -2.3194742
9.5776358 11.470999 -2.3668537
12.693686 15.192251 -2.4308062
18.006052 21.54266 -2.4563975
5.3196073 6.3374162 -2.2170439
6.2582622 7.4503832 -2.246361
7.6689663 9.1265745 -2.3171847
9.6150789 11.43447 -2.3662279
12.731297 15.129624 -2.4278812
18.022125 21.409555 -2.448379
5.3367071 6.3129096 -2.2149734
6.2766776 7.4195671 -2.2436619
7.6931663 9.0907583 -2.3148949
9.6447191 11.388781 -2.3637249
12.753234 15.048743 -2.4220314
18.065823 21.310043 -2.4441955
5.3486938 6.2824736 -2.2108324
6.3075962 7.4035439 -2.2454615
7.7133927 9.0503988 -2.3114603
9.6869812 11.358047 -2.3643508
12.77991 14.973938 -2.4171569
18.072832 21.168055 -2.4351313
5.3705902 6.2637658 -2.2108324
6.3156176 7.3633585 -2.2396126
7.7398214 9.0174618 -2.3099339
9.6988544 11.29589 -2.3580933
12.803619 14.901366 -2.412282
18.128433 21.083685 -2.4326911
5.397644 6.2532315 -2.2134204
6.338737 7.3383179 -2.238713
7.7696838 8.991744 -2.3099339
9.7356443 11.258975 -2.3574677
12.829582 14.826557 -2.4074073
18.156519 20.975252 -2.4271131
5.4156365 6.22998 -2.2118676
6.3604746 7.3117361 -2.2373631
7.7881336 8.9497595 -2.3061175
9.7696943 11.218966 -2.3562162
12.855179 14.751747 -2.4025323
18.192963 20.869698 -2.4222324
5.4297132 6.2023168 -2.2087619
6.3846765 7.2880225 -2.2369132
7.8076801 8.9092331 -2.3026831
9.7775402 11.149148 -2.3487074
12.896115 14.694852 -2.4005826
18.231531 20.767134 -2.4177003
5.44239 6.1731815 -2.2051384
6.4139438 7.2700768 -2.2382631
7.8309388 8.8730907 -2.3003933
9.8216267 11.120874 -2.3499587
12.93419 14.634868 -2.3981452
18.25112 20.643663 -2.4107277
32.979733 37.276791 -2.6084244
5.4613419 6.1512561 -2.2041032
6.4315181 7.2389007 -2.2355635
7.8592582 8.8427639 -2.2996302
9.8367586 11.059952 -2.3443272
12.958789 14.559981 -2.3932703
18.296574 20.550062 -2.4072416
5.4840665 6.1335955 -2.2046208
6.4463544 7.2047873 -2.2319643
7.8809099 8.8050375 -2.2969587
9.9253893 11.08146 -2.3562162
12.990991 14.493961 -2.389858
18.3416 20.456398 -2.4037554
5.5067377 6.11585 -2.2051384
6.4701548 7.1807976 -2.2315145
7.9050279 8.7701817 -2.2950509
9.9296045 11.008616 -2.3480816
13.017567 14.421997 -2.3854709
18.375494 20.350855 -2.3988748
33.03352 36.558918 -2.5822563
5.5228572 6.0908694 -2.2030678
6.4899449 7.1523943 -2.2297149
7.9223909 8.7280025 -2.2912345
9.9201593 10.921246 -2.3368182
13.046463 14.35297 -2.3815711
18.390127 20.22467 -2.3915534
33.160923 36.44339 -2.5822563
5.5323625 6.0587134 -2.1984091
6.5227575 7.1383295 -2.2324142
7.9475141 8.6944971 -2.2897081
9.9688845 10.898213 -2.3393211
13.06432 14.272196 -2.3757212
18.439081 20.136847 -2.3887646
33.085545 36.106529 -2.5665555
5.5600171 6.0464735 -2.2009974
6.5463176 7.1140819 -2.2319643
7.9645214 8.6522551 -2.2858918
10.004191 10.860441 -2.3386955
13.100602 14.211911 -2.3732839
18.460642 20.019627 -2.3824892
5.5719008 6.017108 -2.1973739
6.5631652 7.0826092 -2.229265
7.9946723 8.624403 -2.2858918
10.023236 10.805177 -2.3343153
13.139324 14.15446 -2.3713338
18.511436 19.93462 -2.380049
33.132854 35.65522 -2.5508547
5.5928717 5.9976201 -2.1973739
6.5851874 7.056808 -2.2283652
8.0113344 8.5820904 -2.2820759
10.039314 10.747028 -2.3293095
13.15341 14.070801 -2.3649967
18.55641 19.843691 -2.3769114
5.6124496 5.9766536 -2.1968563
6.6097784 7.0337796 -2.2283652
8.0224142 8.5340481 -2.2767329
10.074058 10.709044 -2.3286836
13.186115 14.007459 -2.3620718
18.587313 19.738186 -2.3720307
5.6213326 5.9443913 -2.1921973
6.6250334 7.0033259 -2.2256656
8.0467587 8.500288 -2.2752066
10.106802 10.672707 -2.328058
13.21065 13.940598 -2.3581719
18.609482 19.624033 -2.3661041
33.135372 34.929607 -2.5232213
5.642345 5.9271183 -2.1927149
6.6413736 6.9716945 -2.2229664
8.0762558 8.4749804 -2.2755883
10.116727 10.608773 -2.3218007
13.251007 13.885786 -2.3567097
18.649698 19.536268 -2.3629665
33.276424 34.833939 -2.5246868
5.6603255 5.9045987 -2.1916797
6.660408 6.9454136 -2.2216165
8.0989943 8.4396524 -2.27368
10.143641 10.566618 -2.3199234
13.272229 13.815994 -2.3523221
18.681883 19.433701 -2.3584344
5.6771908 5.8830171 -2.1906445
6.6927357 6.9305315 -2.2243161
8.111927 8.3972216 -2.2694824
10.155753 10.505579 -2.3142917
13.287249 13.735343 -2.3464727
18.71851 19.34301 -2.354948
33.16539 34.247948 -2.4985187
5.6896148 5.8548498 -2.1875386
6.7060165 6.8959522 -2.220717
8.1357155 8.363224 -2.2679558
10.178582 10.455913 -2.3111632
13.329575 13.683186 -2.3454976
18.744196 19.234751 -2.3497188
33.215027 34.060467 -2.4932852
63.506992 65.078079 -1.5871917
5.7059655 5.8308101 -2.1859856
6.7423201 6.8850303 -2.224766
8.1607399 8.3305645 -2.2668109
10.190129 10.394925 -2.3055315
13.357786 13.616745 -2.3420851
18.769365 19.126537 -2.3444896
33.123783 33.730583 -2.4775846
5.7249269 5.8094816 -2.185468
6.7567358 6.8517389 -2.2216165
8.1801167 8.2922449 -2.2641397
10.209702 10.342419 -2.3017769
13.396871 13.561559 -2.3406229
18.80801 19.032557 -2.3410032
33.151447 33.523857 -2.4708853
5.7397294 5.7839766 -2.1833978
6.7819796 6.8294983 -2.2220664
8.2007122 8.2552814 -2.2618499
10.242949 10.303923 -2.3011513
13.421731 13.492191 -2.3367231
18.852337 18.93808 -2.3378656
33.194996 33.334335 -2.4654424
5.7595224 5.7615347 -2.1828799
6.8044019 6.8044043 -2.2216165
8.2211914 8.215456 -2.2591786
10.272262 10.257933 -2.299274
13.449074 13.425626 -2.3333108
18.867552 18.821497 -2.3315904
33.161346 33.057346 -2.4539285
5.7796006 5.7413936 -2.1828799
6.8306766 6.7807932 -2.2220664
8.2372789 8.1742611 -2.255744
10.299588 10.213671 -2.2973969
13.478446 13.356682 -2.3298981
18.901985 18.724688 -2.3277557
33.222591 32.888 -2.4499512
5.7886033 5.7103319 -2.1787388
6.8448024 6.7498932 -2.219367
8.2559719 8.1358137 -2.2530727
10.33622 10.182229 -2.2980225
13.508524 13.297985 -2.327461
18.916103 18.608288 -2.3214803
33.189072 32.637604 -2.4394839
5.8033671 5.6870499 -2.177186
6.8557935 6.7136865 -2.215318
8.2758894 8.1015253 -2.2511647
10.36323 10.137796 -2.2961452
13.546346 13.242421 -2.3259985
18.963835 18.525442 -2.3193886
33.214211 32.435028 -2.4329941
5.826941 5.6684375 -2.1782212
6.8694057 6.6802053 -2.2121687
8.3027143 8.0684004 -2.2504015
10.400314 10.099748 -2.2961452
13.569696 13.172935 -2.3220987
18.985491 18.417509 -2.3141594
33.281235 32.263031 -2.4292259
34.150318 33.093971 -0.83007139
5.8522511 5.6534305 -2.1802919
6.8910379 6.6522775 -2.2112689
8.3195238 8.0284643 -2.2473485
10.446878 10.074354 -2.2986481
13.592159 13.098311 -2.3177114
19.018101 18.320709 -2.3103244
33.197971 31.958273 -2.4149904
5.8594041 5.6209292 -2.175633
6.9114051 6.625484 -2.2103691
8.3333244 7.9857888 -2.2435322
10.493398 10.048753 -2.3011513
13.62058 13.034327 -2.3147867
19.032982 18.20739 -2.3043978
33.248665 31.784254 -2.4105942
5.8761902 5.5977788 -2.1745977
6.9274349 6.5945988 -2.2081196
8.3611479 7.9566531 -2.2435322
10.496921 9.9821129 -2.2942681
13.637834 12.964464 -2.3103991
19.058867 18.105158 -2.2998657
33.330448 31.640493 -2.4085009
5.8877034 5.5716233 -2.1720095
6.9365201 6.5595403 -2.2040703
8.3760719 7.9180961 -2.2404792
10.501244 9.9201212 -2.2880106
13.672089 12.910995 -2.3089368
19.060837 17.987164 -2.2928932
32.531391 30.677477 -2.343395
5.9061489 5.5520668 -2.1720095
6.9497085 6.528501 -2.201371
8.3965616 7.8848977 -2.2389529
10.522561 9.8744259 -2.2855077
13.693909 12.841462 -2.305037
19.097336 17.896002 -2.2897556
32.551308 30.492973 -2.3375332
5.9306955 5.534338 -2.1735625
6.9667568 6.4988837 -2.1995716
8.4139137 7.8433619 -2.2358999
10.538445 9.8169451 -2.2811277
13.715403 12.77194 -2.301137
19.115936 17.788506 -2.2845263
32.695023 30.403393 -2.3398364
5.9414763 5.5057216 -2.1704566
6.9876676 6.4706578 -2.1986716
8.423954 7.7979379 -2.2313204
10.561045 9.7693701 -2.2786248
13.751161 12.715897 -2.2996747
19.125231 17.672997 -2.2782512
33.194206 30.652201 -2.3678882
5.9497514 5.4768319 -2.1668332
7.0076542 6.4461298 -2.1982217
8.4425402 7.7633181 -2.2294126
10.578836 9.7209311 -2.275496
13.76986 12.648743 -2.2957749
19.1485 17.577147 -2.2740676
33.331001 30.57435 -2.3704004
5.9664564 5.4557662 -2.1663156
7.0203624 6.4149671 -2.1955223
8.4609928 7.7286563 -2.2275043
10.586214 9.6631546 -2.2701774
13.813931 12.600596 -2.2957749
19.168518 17.472612 -2.269187
33.352482 30.391018 -2.364748
5.9849806 5.4325643 -2.1657977
7.0354943 6.3838758 -2.1932726
8.4834423 7.6923194 -2.2259779
10.606924 9.6110229 -2.2670486
13.816634 12.51499 -2.2889502
19.199852 17.378849 -2.2657006
33.339214 30.156034 -2.3559556
6.0053439 5.4129319 -2.1663156
7.0559511 6.3554368 -2.192373
8.5044088 7.6574035 -2.2244515
10.640406 9.5739412 -2.2670486
13.853549 12.456303 -2.2874877
19.227795 17.282425 -2.2618659
33.41457 30.012775 -2.3538623
6.0141239 5.3829179 -2.1626918
7.0780916 6.3307695 -2.192373
8.516449 7.6145864 -2.2206352
10.654608 9.5196323 -2.2629812
13.879179 12.392 -2.2845628
19.255299 17.18602 -2.2580309
33.435654 29.821514 -2.3480005
6.0299907 5.3593235 -2.1616566
35.710293 31.727373 0.83380616
7.0943179 6.3008494 -2.1905735
8.5341692 7.5769887 -2.2183454
10.66413 9.4614105 -2.2579753
13.907501 12.330304 -2.2821257
19.282366 17.089632 -2.2541959
33.449844 29.625158 -2.3417203
6.0414186 5.3318524 -2.1590683
7.1133466 6.2734671 -2.1896734
8.5517292 7.5393658 -2.2160556
10.694128 9.4215126 -2.2573495
13.938535 12.271193 -2.2801757
19.285072 16.972197 -2.2475724
33.433064 29.402706 -2.3333466
6.0672565 5.3170986 -2.1616566
7.1220064 6.2370453 -2.1856244
8.5720844 7.5042982 -2.2145293
10.709113 9.368516 -2.2535954
13.954389 12.198943 -2.2757883
19.326199 16.889038 -2.2454805
33.445236 29.206989 -2.3270662
6.0886955 5.2984223 -2.1626918
7.1411786 6.2121162 -2.1851747
8.5863752 7.4640231 -2.2114763
10.723712 9.3187065 -2.2501535
13.979773 12.139588 -2.273351
19.339888 16.782305 -2.2402511
33.478535 29.040958 -2.32267
6.0960035 5.2693577 -2.1590683
7.1628213 6.187149 -2.1851747
8.5962219 7.4226751 -2.2076602
10.747205 9.2734699 -2.2482765
13.998006 12.069978 -2.2694511
19.371284 16.697268 -2.237462
33.476795 28.835293 -2.3155522
6.1099586 5.2442765 -2.1575158
7.178863 6.1595531 -2.1838248
8.6220751 7.3926296 -2.2076602
10.762901 9.2249222 -2.2451477
14.019861 12.007999 -2.2665262
19.381016 16.588085 -2.2318842
33.438679 28.609863 -2.3063412
6.1243773 5.221478 -2.1564806
7.1929064 6.1281362 -2.1815755
8.6405649 7.3589025 -2.2061336
10.767962 9.1642485 -2.239516
14.049595 11.948694 -2.2645762
19.34181 16.443708 -2.221077
33.504864 28.46451 -2.3040383
6.1410923 5.1988173 -2.1559627
7.2068105 6.0967031 -2.1793258
8.6632042 7.32616 -2.2053704
10.795352 9.1227884 -2.2385774
14.060888 11.87396 -2.2597017
19.364065 16.346546 -2.2170677
33.445255 28.213438 -2.2931526
6.1577229 5.1761079 -2.1554451
7.2190957 6.0639868 -2.1766264
8.672184 7.2819886 -2.2011726
10.812001 9.0723505 -2.2354488
14.071827 11.799301 -2.2548268
19.419483 16.277569 -2.2168934
33.411854 27.986237 -2.2841506
6.1668539 5.1471558 -2.1523392
7.2387218 6.0375042 -2.1761765
8.6824703 7.2391028 -2.1973565
10.837532 9.0294971 -2.2341974
14.109879 11.747565 -2.2543392
19.480776 16.213511 -2.2174163
33.493992 27.856657 -2.2831039
6.1758595 5.1182008 -2.1492336
7.2537503 6.007225 -2.174377
8.7016392 7.2037411 -2.1958301
10.847677 8.9739809 -2.2298172
14.129379 11.680537 -2.250927
19.488108 16.104792 -2.2118382
33.440098 27.614946 -2.272846
6.193687 5.0966129 -2.1492336
7.2746773 5.9818664 -2.174377
8.7267303 7.1733246 -2.1958301
10.854516 8.9159975 -2.2248113
14.154724 11.618546 -2.2484896
19.485682 15.988638 -2.2052147
6.215929 5.0786271 -2.1507864
7.2819266 5.9453464 -2.1703279
8.7410717 7.1341262 -2.1931586
10.874856 8.8693171 -2.2226212
14.182881 11.559036 -2.2465396
19.54446 15.923042 -2.2055633
6.2351174 5.0581164 -2.151304
7.3011227 5.9186621 -2.169878
8.7567682 7.0961571 -2.1908689
10.901146 8.82757 -2.2216825
14.198451 11.489482 -2.2426398
19.562752 15.824644 -2.2013798
37.289089 30.120745 -0.83670324
6.2391973 5.0254135 -2.1466453
7.3232532 5.8943677 -2.1703279
8.7646608 7.0520067 -2.1866713
10.928807 8.7869959 -2.2210569
14.219902 11.424925 -2.2397149
19.566597 15.715103 -2.1956275
37.403362 29.997913 -0.83691269
6.2567024 5.0036025 -2.1466453
7.3376956 5.8639002 -2.1685281
8.7892256 7.0213666 -2.1866713
10.943978 8.7364655 -2.2179282
14.237968 11.357892 -2.2363026
19.562143 15.599498 -2.1890037
33.538948 26.72592 -2.2475154
6.2741265 4.9817362 -2.1466453
7.3489609 5.8309813 -2.1658287
8.8136759 6.9906502 -2.1866713
10.954285 8.6822577 -2.2138608
14.271308 11.303189 -2.2353277
19.569618 15.494011 -2.1837742
33.538063 26.534321 -2.2412353
6.2778244 4.9490385 -2.1419864
7.3585529 5.7968535 -2.1626794
8.8333988 6.9561958 -2.1855264
10.975208 8.6366396 -2.2119834
14.276349 11.226304 -2.2299654
19.617315 15.420685 -2.1830769
33.501698 26.315914 -2.2326522
6.3041887 4.9342408 -2.1450922
7.3710699 5.7651267 -2.16043
8.8467989 6.9168563 -2.1828551
10.999065 8.5934095 -2.2107322
14.296665 11.161754 -2.2270405
19.639614 15.327592 -2.1795907
33.479939 26.110397 -2.2251158
6.3137484 4.9062762 -2.1425042
7.3911476 5.7393637 -2.16043
8.8615856 6.8787079 -2.1805654
11.019628 8.5477009 -2.2088549
14.307302 11.089886 -2.2226534
19.642595 15.219896 -2.1740127
33.51403 25.949341 -2.2213476
6.3170714 4.8735852 -2.1378453
7.4126792 5.7147202 -2.1608799
8.8746595 6.8393421 -2.1778939
11.033744 8.4971323 -2.2057261
14.336485 11.032617 -2.2211909
19.641909 15.10994 -2.1680863
33.496727 25.749435 -2.2142298
6.335577 4.8526812 -2.1383629
7.4161177 5.6782589 -2.1563809
8.8984785 6.8083239 -2.1778939
11.035191 8.440093 -2.2004075
14.360376 10.975368 -2.2192409
19.678703 15.029187 -2.166343
33.534313 25.601845 -2.2110896
6.3577838 4.8363242 -2.1404335
7.4234815 5.6429043 -2.1527817
8.913188 6.7728405 -2.1759858
11.050423 8.3907719 -2.1975915
14.385945 10.915576 -2.2172909
19.699865 14.942169 -2.1632056
33.489765 25.383301 -2.2022972
6.3730869 4.8129363 -2.1399159
7.4431353 5.6169553 -2.1527817
8.9336433 6.7393188 -2.1752226
11.065451 8.341444 -2.1947758
14.401761 10.848576 -2.2138786
19.723248 14.851743 -2.1600678
33.418568 25.146166 -2.1918299
6.3805733 4.7837095 -2.1368101
7.4595752 5.588604 -2.1518817
8.9461126 6.6998577 -2.1725514
11.091336 8.3004026 -2.1941502
14.417288 10.78159 -2.2104664
19.730286 14.749407 -2.1551871
33.454945 24.9911 -2.1884806
6.3894849 4.7556386 -2.1342218
7.4774733 5.5613694 -2.1514318
8.9584179 6.6603875 -2.1698802
11.098042 8.2451448 -2.18977
14.435711 10.716996 -2.2075415
19.736851 14.647204 -2.1503065
33.471397 24.821812 -2.1838748
6.404489 4.7321625 -2.1337044
7.4890041 5.5294452 -2.1491826
8.9721336 6.6220832 -2.1675904
11.114038 8.1969728 -2.1872668
14.466639 10.661833 -2.2065666
19.742949 14.545128 -2.1454258
33.477409 24.645626 -2.1786413
6.42097 4.7097764 -2.1337044
7.4972568 5.4952073 -2.146033
8.9777727 6.5779624 -2.1633925
11.140988 8.1569624 -2.186954
14.478137 10.592511 -2.2026668
19.745358 14.440832 -2.1401963
33.392315 24.403694 -2.167546
6.4264402 4.6793723 -2.1300809
7.519546 5.4712949 -2.1469328
8.9990931 6.5454259 -2.1630108
11.153417 8.1064072 -2.1838255
14.482893 10.518589 -2.1977918
19.773069 14.355437 -2.1377561
33.448177 24.265896 -2.1656621
6.4380369 4.6535177 -2.1285279
7.53228 5.4404473 -2.1451333
9.0027838 6.5001845 -2.1584315
11.180046 8.0662661 -2.1835127
14.506643 10.458678 -2.195842
19.777805 14.253707 -2.1328754
33.441925 24.083622 -2.1598005
6.4463954 4.6253834 -2.1259398
7.5464702 5.4107199 -2.1437836
9.0174427 6.4629989 -2.1565235
11.177615 8.0053453 -2.177568
14.53015 10.398731 -2.193892
19.775576 14.1475 -2.1272974
33.334072 23.829674 -2.1474493
6.4640737 4.6039753 -2.1264575
7.5637255 5.3832135 -2.1433337
9.0367489 6.429204 -2.15576
11.194222 7.9582648 -2.1753781
14.550175 10.336454 -2.1914546
19.789104 14.052999 -2.1234624
33.397499 23.699306 -2.1461933
34.448101 24.426731 -0.73711985
6.4785275 4.5802698 -2.1259398
7.564961 5.3444109 -2.1383848
9.04951 6.3908319 -2.1534703
11.212249 7.9123096 -2.1735008
14.563457 10.269582 -2.1880424
19.789188 13.949393 -2.1182332
33.385323 23.515865 -2.1401222
34.441574 24.241884 -0.73516518
6.4897327 4.5542965 -2.1243868
7.5819764 5.3168511 -2.1379349
9.0572968 6.3490591 -2.1500359
11.222004 7.8606544 -2.1700592
14.573193 10.200474 -2.1841426
19.811638 13.861961 -2.1154442
33.43119 23.374018 -2.1378195
34.427624 24.052805 -0.73307085
6.4976635 4.5260954 -2.1217985
7.6036892 5.2925768 -2.1388347
9.0665102 6.3084369 -2.1469829
11.249376 7.8214312 -2.1700592
14.582629 10.131415 -2.1802428
19.837 13.776804 -2.1130037
33.391155 23.172901 -2.1300735
34.389771 23.848167 -0.73048794
6.503891 4.4967942 -2.1186929
7.6012735 5.2516041 -2.1329858
9.0739374 6.266706 -2.1435483
11.252222 7.7652884 -2.1653662
14.598293 10.066932 -2.1773179
19.829189 13.669033 -2.1070771
33.383022 22.995031 -2.1244214
34.397045 23.675817 -0.72888231
6.5227323 4.4762506 -2.1197281
7.625989 5.2294455 -2.1347857
9.0989981 6.2372122 -2.1443117
11.266223 7.7170296 -2.162863
14.633342 10.015915 -2.1773179
19.853765 13.583977 -2.1046369
33.357559 22.806225 -2.1177223
34.429947 23.521753 -0.72783518
6.5319319 4.4491029 -2.1176574
7.6216388 5.187448 -2.1284869
9.1142216 6.2009974 -2.1427851
11.276751 7.6665578 -2.1597345
14.648514 9.9513836 -2.1743929
19.868095 13.492209 -2.1011508
22.185543 15.054651 -1.405116
34.528389 23.412657 -0.72818422
6.5474234 4.4262733 -2.1176574
7.6413164 5.161901 -2.1289368
9.1227961 6.1603527 -2.1397321
11.303445 7.6271448 -2.1597345
14.65024 9.8779974 -2.1695182
19.888634 13.404963 -2.0983615
34.75922 23.392462 -0.73132569
6.553206 4.3969378 -2.1145515
7.6592898 5.1351943 -2.1289368
9.1311932 6.1197333 -2.1366794
11.323437 7.5832424 -2.158483
14.691234 9.831212 -2.1704934
19.888939 13.304433 -2.0934808
34.973679 23.359865 -0.73411804
6.5604763 4.368681 -2.1119635
34.605846 23.035608 0.72563618
7.6739216 5.1062694 -2.128037
9.1459618 6.0834703 -2.1351528
11.333385 7.5327377 -2.1553543
14.742 9.7908478 -2.1729305
19.895418 13.208484 -2.0892975
34.638329 22.961416 -0.72539186
6.5724607 4.3436246 -2.1109281
34.585918 22.848558 0.72354186
7.6868224 5.0762277 -2.1266873
9.1671429 6.0515056 -2.1351528
11.338176 7.4789882 -2.1512871
14.769451 9.7349701 -2.1719556
19.908133 13.117025 -2.0858111
34.614693 22.772215 -0.72322774
6.5859685 4.3195949 -2.1104105
34.565132 22.6619 0.72144759
7.6865654 5.0376163 -2.1217382
9.1849251 6.0173197 -2.1343896
11.350991 7.4307127 -2.1487842
14.746863 9.6464052 -2.1636686
19.923786 13.027821 -2.0826735
34.606312 22.602615 -0.72148246
6.5977697 4.2944698 -2.1093752
34.566357 22.499146 0.71991181
7.7015934 5.0110378 -2.1212883
9.1894159 5.9745178 -2.1305733
11.363974 7.3854971 -2.146594
22.747435 14.778014 3.3306894
14.755466 9.5823088 -2.1602564
19.945732 12.943026 -2.0802333
33.334621 21.622948 -2.0823433
31.832325 20.6327 -0.6621443
6.6038609 4.2673264 -2.1067872
34.527096 22.302404 0.71746844
7.712491 4.9798937 -2.119489
9.1992798 5.9376259 -2.1282835
11.383045 7.3414989 -2.1453426
22.738823 14.659792 3.3219149
14.762122 9.5135412 -2.1563563
19.951698 12.853068 -2.0763984
31.821182 20.483784 -1.9833235
31.769615 20.43491 -0.65935194
6.6089582 4.2379932 -2.1036813
34.547493 22.145065 0.71628171
7.7298288 4.9529395 -2.119489
9.2232552 5.907598 -2.1290469
11.398622 7.2953267 -2.1434653
22.778147 14.572845 3.3202088
14.765139 9.4427061 -2.151969
19.972944 12.768315 -2.0739582
31.804968 20.316685 -1.9778807
31.75984 20.272251 -0.65767652
6.6302323 4.2190447 -2.105752
34.51659 21.955656 0.71404773
7.7372036 4.9196548 -2.1167896
9.23388 5.8690453 -2.1267571
11.404006 7.2427883 -2.1397109
14.787954 9.3847227 -2.1505065
19.993835 12.683581 -2.0715177
31.787975 20.149927 -1.9724379
31.728924 20.104733 -0.65565199
6.6367507 4.1907191 -2.1031637
34.504677 21.787682 0.71230257
7.7435861 4.8877306 -2.11409
9.2476673 5.8325901 -2.1252308
11.414592 7.196506 -2.137208
23.138802 14.582571 3.358232
14.802198 9.3250551 -2.1480694
19.997519 12.588243 -2.0673342
31.773483 19.993338 -1.9674135
31.721043 19.944885 -0.65404642
6.6473365 4.1666374 -2.1021285
34.47546 21.601267 0.71013844
7.7523437 4.8554969 -2.1118405
9.2652922 5.8008513 -2.1248491
11.427922 7.149281 -2.1350179
23.199657 14.508032 3.3596942
14.800994 9.2522793 -2.1431944
20.005362 12.500738 -2.0638478
31.765144 19.833652 -1.9625984
31.71236 19.793001 -0.65251058
6.6503582 4.1362643 -2.098505
34.495956 21.455143 0.70909125
7.773366 4.8328505 -2.1131902
9.2704773 5.7591476 -2.1214147
11.436463 7.1019688 -2.1322021
14.814726 9.1926842 -2.1407571
20.008236 12.405638 -2.0596645
31.769621 19.690334 -1.9588304
31.696251 19.629551 -0.65076536
6.6647568 4.1130233 -2.098505
34.462029 21.259281 0.70678753
7.7761006 4.7951198 -2.1091411
9.2821693 5.7215996 -2.1195064
11.442235 7.0475698 -2.1284475
24.530993 15.10337 3.5371363
14.824649 9.1237593 -2.1373446
20.020874 12.316923 -2.0565269
31.736082 19.508919 -1.9523406
31.747541 19.500675 -0.65034646
6.6757774 4.0877175 -2.0974696
34.457581 21.090826 0.70518196
7.7961121 4.7699866 -2.1100409
9.3037586 5.6901898 -2.1198881
11.468452 7.0086131 -2.1287606
14.846244 9.0657454 -2.1358824
20.073956 12.253186 -2.0575728
31.89607 19.454172 -1.957993
31.941774 19.466755 -0.65292943
6.6850538 4.061379 -2.0959167
34.442108 20.916451 0.70336688
7.7960587 4.7326298 -2.1055419
9.3151741 5.6525841 -2.11798
11.470884 6.9552317 -2.1246932
24.798805 15.03052 3.560535
14.850633 8.9974136 -2.1319826
20.079102 12.160345 -2.0537379
32.127827 19.441975 -1.9680414
32.165276 19.456989 -0.65617561
6.7008414 4.039021 -2.0964344
34.442768 20.760834 0.7019707
7.8016953 4.7007141 -2.1028426
9.3348436 5.6200399 -2.11798
11.505734 6.9242806 -2.1268833
24.98119 15.028024 3.5795467
14.866776 8.9399357 -2.1300325
20.083857 12.067601 -2.0499029
32.311962 19.407335 -1.9753686
34.492859 20.700834 -0.70218009
6.7075682 4.0128088 -2.0943637
34.418926 20.582998 0.70001602
7.818058 4.6734505 -2.1028426
9.3348932 5.5779738 -2.1137822
11.519661 6.8779974 -2.125006
25.144289 15.006863 3.5953896
14.867208 8.8696756 -2.1256454
20.113503 11.994806 -2.0488572
33.453568 19.934431 -2.0408931
34.451504 20.512793 -0.69987637
6.706584 3.9804947 -2.089705
34.397701 20.407621 0.6981312
7.8376727 4.6481256 -2.1037421
9.3407974 5.537343 -2.1107292
11.529998 6.8296981 -2.122503
14.887831 8.8116541 -2.1241827
20.1038 11.894103 -2.043628
33.543583 19.829721 -2.0421491
34.436813 20.341549 -0.6981312
6.720437 3.9570618 -2.089705
34.396343 20.244833 0.69666517
7.8437734 4.6148071 -2.1010427
9.3617611 5.5057011 -2.1111107
11.528224 6.774395 -2.11781
14.908226 8.7536058 -2.1227205
20.117704 11.807714 -2.0408387
32.23777 18.906239 -1.9586211
34.424801 20.17268 -0.69645572
6.7358761 3.9345546 -2.0902226
34.401184 20.086319 0.69533879
7.8463688 4.5795422 -2.0974436
9.3843136 5.4749699 -2.1118741
11.543266 6.7291403 -2.1162457
25.881498 15.081537 3.6780171
14.91811 8.6895199 -2.1197956
20.138132 11.72539 -2.0387471
32.134392 18.695152 -1.9483631
34.415482 20.006172 -0.69485015
6.7512417 3.9119847 -2.0907402
34.374184 19.909994 0.69338411
7.8639941 4.5530996 -2.0978935
9.3965721 5.4382434 -2.1103475
11.558136 6.6838589 -2.1146812
25.975227 15.01495 3.6838667
14.920849 8.6215057 -2.1158957
20.140987 11.633096 -2.0349123
33.572952 19.375551 -2.0314727
34.391556 19.83198 -0.69296527
6.7481065 3.8787692 -2.0855639
34.370655 19.748035 0.69191813
7.8730817 4.5217376 -2.0960939
9.3865519 5.3887949 -2.1038601
11.579685 6.6424866 -2.1143684
26.106693 14.969615 3.6950788
14.94741 8.5673904 -2.1154084
20.16073 11.55083 -2.0328205
33.640388 19.258232 -2.0314727
34.373779 19.662174 -0.69122005
6.7565708 3.8523176 -2.0840108
34.352509 19.578438 0.69017285
7.8854294 4.4923 -2.0951941
9.4035997 5.355022 -2.1034784
11.583914 6.5912814 -2.1109269
26.134636 14.864649 3.6916666
14.97032 8.511241 -2.1144333
20.159351 11.456763 -2.0286369
33.662243 19.115051 -2.0287511
34.365757 19.506609 -0.68975401
6.7716579 3.8296621 -2.0845287
34.33717 19.419138 0.68856728
7.8968892 4.4642096 -2.0942943
9.4307814 5.3269954 -2.1053865
11.591945 6.545064 -2.1084239
25.959049 14.651053 3.6599805
14.981174 8.4517927 -2.1119957
20.161039 11.364795 -2.0248022
33.638447 18.954287 -2.0235176
34.353485 19.341393 -0.68814838
6.7893734 3.8100228 -2.0860815
34.296619 19.238497 0.68640316
7.898828 4.4289904 -2.0906951
9.4638081 5.3043332 -2.1088212
11.599212 6.4958711 -2.1056082
25.985773 14.546793 3.6565681
15.003654 8.3955727 -2.1110208
20.177748 11.286208 -2.0227103
34.343967 19.178469 -0.68661261
6.7941928 3.7816007 -2.0834932
34.311146 19.089483 0.68535596
7.9091296 4.3985519 -2.0893452
9.4685383 5.2636318 -2.1057682
11.606272 6.446712 -2.1027923
25.98086 14.425154 3.6487684
15.022458 8.3373652 -2.1095586
20.203081 11.207979 -2.0213161
33.654663 18.655077 -2.0166092
34.337227 19.017786 -0.68514663
6.8090434 3.7587934 -2.0840108
34.300526 18.927116 0.68382019
7.9176111 4.3671503 -2.0875459
9.4731016 5.2229624 -2.1027153
11.621786 6.4023438 -2.1015408
26.156258 14.403313 3.6663177
15.023638 8.2695704 -2.1056585
20.221134 11.125856 -2.0192242
33.649559 18.499025 -2.0124226
34.329796 18.857365 -0.68368059
6.8102608 3.7285099 -2.0803876
34.275169 18.757341 0.68200517
7.9379368 4.3422894 -2.0888956
9.4826612 5.1851563 -2.1008072
11.628463 6.3532104 -2.0987251
15.038477 8.209466 -2.1037087
20.200388 11.022751 -2.0132976
31.389107 17.121014 6.9500275
33.696396 18.371881 -2.0113757
34.29707 18.683853 -0.68172586
6.821537 3.7037911 -2.07987
34.329887 18.631866 0.68179572
7.935914 4.3052678 -2.0843966
9.4972534 5.1501498 -2.100044
11.643619 6.3088245 -2.0974736
15.037691 8.1444206 -2.0998089
20.224716 10.9446 -2.0119033
31.378761 16.959373 -0.62259716
6.8337812 3.6811512 -2.07987
7.9347043 4.2706132 -2.0803473
9.5211945 5.1223502 -2.1015704
11.655777 6.2654986 -2.0959091
15.036635 8.0794783 -2.0959091
20.2609 10.877467 -2.0119033
31.403107 16.838205 -0.62196887
6.8442478 3.657557 -2.0793524
34.255157 18.298246 0.67788637
7.9505405 4.2451963 -2.0807972
9.5208092 5.0815015 -2.0977542
11.671258 6.2240252 -2.0949705
15.029707 8.008275 -2.0910344
20.275757 10.798985 -2.0098114
31.507603 16.752886 -0.62287641
6.8467312 3.6282179 -2.0762465
34.219872 18.126137 0.67593175
7.965312 4.2174158 -2.0807972
9.5280771 5.0427279 -2.0954645
11.680692 6.1767802 -2.0927804
15.03651 7.9446306 -2.0881095
20.295713 10.718832 -2.0080683
31.947329 16.858175 -1.8930963
34.261681 18.064142 -0.67607135
6.849092 3.598906 -2.0731406
34.215656 17.971249 0.67460537
7.9799838 4.1895876 -2.0807972
9.5299749 5.0012302 -2.09203
11.689934 6.1295505 -2.0905905
15.060635 7.8902483 -2.0876222
20.311823 10.636834 -2.0059764
33.796875 17.683596 -1.9990244
34.225285 17.892561 -0.67411667
6.8701792 3.5794411 -2.0757289
34.207237 17.814749 0.67320913
7.98419 4.1563058 -2.0780978
9.552598 4.9706545 -2.0931747
11.70425 6.0850596 -2.089339
15.070468 7.8284817 -2.0851846
20.317001 10.549336 -2.0028389
33.766205 17.517696 -1.9935815
34.227173 17.741686 -0.67292988
6.872334 3.5501161 -2.072623
34.187481 17.653038 0.6716035
7.9778681 4.1176867 -2.0726991
9.5664024 4.9354768 -2.0924115
11.711372 6.0369296 -2.0868361
15.062407 7.7576532 -2.0803099
20.343071 10.472884 -2.0017929
33.926613 17.450874 -1.9994431
34.221306 17.587376 -0.6716035
6.8829665 3.525223 -2.0721054
34.184811 17.500797 0.67034698
7.9904594 4.0889239 -2.0722492
9.5660944 4.8931103 -2.0885954
11.728856 5.9942112 -2.0862103
15.068177 7.6941986 -2.0773852
20.351114 10.387313 -1.999004
33.912582 17.294256 -1.9950469
34.207661 17.429674 -0.67013752
6.8883381 3.4976783 -2.0700347
34.170799 17.34334 0.66888088
8.0098963 4.0636535 -2.0735989
9.5761118 4.8561392 -2.087069
11.744425 5.950552 -2.0852716
15.080775 7.6343765 -2.0754352
20.355253 10.300014 -1.9958665
33.912144 17.145126 -1.991488
34.183182 17.274645 -0.66853189
6.8901534 3.4683988 -2.0669291
34.156685 17.193956 0.66748476
8.0163631 4.0335674 -2.071799
9.5894976 4.8209167 -2.0863059
11.765857 5.9124622 -2.0855846
15.095367 7.5789766 -2.0739727
20.38039 10.223552 -1.9948206
33.929539 17.012871 -1.9891853
34.171741 17.119411 -0.66713572
6.9102588 3.449847 -2.0695171
34.144909 17.038929 0.66608852
8.0164452 3.9985998 -2.0681999
9.6027489 4.7856684 -2.0855424
11.765204 5.8607888 -2.08183
15.1004 7.5156345 -2.0710478
20.387411 10.138149 -1.9920316
33.859299 16.822643 -1.9814395
34.181149 16.975113 -0.66615838
6.9211245 3.4236414 -2.0689995
34.15337 16.887056 0.66504145
8.0205631 3.9640119 -2.0655005
9.6096668 4.7452178 -2.0832527
11.775976 5.8123846 -2.079953
15.12429 7.4584718 -2.0705605
20.402983 10.052795 -1.9899398
34.19648 16.826771 -0.66525078
6.9301562 3.3965523 -2.0679643
8.031539 3.9328728 -2.0646007
9.6155882 4.7064729 -2.0809629
11.786554 5.7639747 -2.0780756
15.114558 7.3882074 -2.0656855
20.423632 9.974514 -1.9885454
6.9396443 3.3727059 -2.0674467
34.119331 16.574825 0.66210943
8.0410318 3.9045129 -2.0637012
9.6205473 4.6694145 -2.0786731
11.805606 5.724854 -2.0780756
15.128261 7.3328462 -2.0642233
20.427904 9.8928308 -1.9857564
34.148212 16.515238 -0.66210943
6.9403481 3.3446441 -2.0643408
34.102051 16.426868 0.6607132
8.0574455 3.8795228 -2.0646007
9.6385584 4.6366529 -2.0790551
11.808502 5.6779723 -2.0752599
15.135872 7.2713938 -2.0617857
20.469498 9.8249178 -1.9864537
33.921597 16.267071 -1.9716003
34.1227 16.356184 -0.66050375
6.9508181 3.3183501 -2.0638232
34.097057 16.270775 0.65945667
8.0663347 3.8474457 -2.0632513
9.6519413 4.599607 -2.0782917
11.816749 5.6287098 -2.0730698
15.155251 7.21246 -2.0608108
20.476582 9.7361317 -1.9836646
33.916046 16.111788 -1.9678322
34.113781 16.198406 -0.65917736
6.9664268 3.2945015 -2.0648584
34.09137 16.114933 0.65820003
8.0715714 3.8136947 -2.0610015
9.6555138 4.5600166 -2.0756204
11.83194 5.5828295 -2.0721312
15.163626 7.1484032 -2.0583735
20.492418 9.6561079 -1.9819216
33.957619 15.986501 -1.9669949
34.11945 16.055393 -0.65820003
6.9726362 3.2677066 -2.0633056
34.086685 15.974629 0.65708309
8.0824108 3.7860787 -2.0605516
9.6571455 4.519629 -2.0725675
11.852178 5.5444021 -2.0724442
15.158476 7.0846276 -2.0544736
20.482672 9.564291 -1.9777381
33.912716 15.828182 -1.9613425
34.095543 15.899022 -0.65666425
6.9886889 3.2470095 -2.0648584
34.055187 15.81511 0.65540767
8.0938091 3.7570195 -2.0601017
9.6613941 4.4826241 -2.0702777
11.853539 5.4946856 -2.0693154
15.165104 7.0233254 -2.0520363
20.470884 9.476222 -1.9735546
33.978645 15.71473 -1.9619706
34.100002 15.756431 -0.65568697
6.9894533 3.217746 -2.0617526
34.142868 15.711207 0.65603596
8.1068735 3.7287457 -2.0601017
9.6769838 4.4488697 -2.0702777
11.86726 5.4508047 -2.0683768
15.189525 6.9703498 -2.0520363
20.492971 9.3997288 -1.9725088
33.964291 15.564416 -1.957993
7.0006418 3.19333 -2.0617526
32.119644 14.644547 0.6161747
8.1092024 3.6955743 -2.0574024
9.68888 4.4134378 -2.0695145
32.381649 14.743531 3.1128547
11.879024 5.4060707 -2.0671253
31.238224 14.209762 4.2137547
15.192076 6.9074287 -2.0491114
20.55468 9.341321 -1.9752978
34.054787 15.462286 -1.9600865
7.0135069 3.1696675 -2.0622702
34.023075 15.376307 0.65170777
8.1178589 3.6670594 -2.0565026
9.6970701 4.376358 -2.0679879
32.26947 14.556666 3.0971665
11.896885 5.3666511 -2.0671253
31.668818 14.279082 4.2654271
15.175085 6.8390636 -2.0437491
20.663458 9.3038845 -1.9826188
32.375629 14.570567 -1.8606482
7.0310307 3.1495528 -2.0643408
32.295242 14.45988 0.61764067
8.1306095 3.6387022 -2.0565026
32.284626 14.441619 1.8535303
9.7007761 4.3393693 -2.0656981
32.310287 14.446314 3.0964689
11.89751 5.3170333 -2.0639966
15.191618 6.7828112 -2.0427742
20.655781 9.2138367 -1.9787838
32.221992 14.366367 -1.8489249
32.414268 14.438553 -0.6193859
7.0372291 3.1214132 -2.0627878
32.327232 14.338975 0.61729163
8.1379185 3.6079278 -2.0551529
9.7094345 4.3006067 -2.0641718
11.924144 5.2765856 -2.065248
15.193411 6.7201152 -2.0398493
20.629505 9.1159048 -1.973206
32.354816 14.283669 -1.8535303
32.310799 14.257498 -0.61645395
7.0410075 3.0937192 -2.0607173
34.001747 14.932827 0.64821732
8.1582241 3.5812113 -2.0569522
9.7153988 4.2627416 -2.0622637
11.920779 5.2254162 -2.0614936
15.203397 6.6580019 -2.0378993
20.635645 9.0326586 -1.9707656
32.393509 14.165834 -1.8529024
32.312725 14.123808 -0.61554635
7.0482206 3.0675821 -2.0596819
33.977737 14.788059 0.64682108
8.1575451 3.5486979 -2.053803
9.7284184 4.2280221 -2.0618823
11.918112 5.1772017 -2.0580521
15.229031 6.6091399 -2.0383868
20.663395 8.9589806 -1.970417
32.392651 14.037692 -1.8501809
32.464596 14.055412 -0.61750102
7.061903 3.0457208 -2.0607173
33.985081 14.650358 0.64598334
8.1591444 3.5155721 -2.0511036
9.73878 4.1941824 -2.0611188
11.930668 5.1332231 -2.0571134
15.230124 6.5465298 -2.0354621
20.64694 8.8663616 -1.9658849
32.672707 14.023801 -1.8633695
34.013145 14.585089 -0.64598334
7.0836802 3.0243669 -2.0638232
33.973495 14.504934 0.64479661
8.1659899 3.4847775 -2.0497539
9.7360277 4.1507578 -2.0573027
11.940313 5.0855923 -2.0555491
15.227315 6.4824371 -2.0320497
20.670427 8.7911205 -1.9651875
34.109898 14.492863 -1.9422923
33.997589 14.438139 -0.64472681
7.0835171 2.9951091 -2.0607173
33.960114 14.352301 0.64354002
8.1822977 3.4563384 -2.0506537
9.7396049 4.1121678 -2.0550129
11.956175 5.0431113 -2.0552363
15.249849 6.4292474 -2.0320497
20.693645 8.7158146 -1.9644904
34.112419 14.353559 -1.9395707
33.985107 14.29301 -0.64354002
7.0827184 2.9671257 -2.0576115
33.941116 14.211809 0.6422835
8.1919165 3.4284353 -2.0502038
9.7495651 4.0783343 -2.0542498
11.954608 4.9958158 -2.0521076
15.238111 6.3648725 -2.0276623
20.700373 8.6379318 -1.9623986
34.167206 14.243424 -1.9399893
33.954796 14.14792 -0.64207405
7.0943041 2.9443607 -2.0581291
33.917873 14.070052 0.64095706
8.1924391 3.3967743 -2.0475044
9.759409 4.0444751 -2.0534863
11.956503 4.9501076 -2.0496047
15.2518 6.3112655 -2.0266874
20.721533 8.5662088 -1.9617014
34.1441 14.101078 -1.9360118
33.960861 14.018467 -0.64130616
7.1129618 2.9244933 -2.0607173
33.923653 13.940784 0.64018923
8.191041 3.3644037 -2.0443552
9.7727661 4.0120912 -2.0534863
11.960061 4.9051809 -2.0474145
15.257949 6.2546339 -2.0247374
20.701891 8.477809 -1.9571693
34.087154 13.945415 -1.9301503
33.95903 13.886099 -0.64039856
7.1254215 2.899133 -2.061235
8.2015123 3.3336234 -2.0439053
9.7801304 3.9732921 -2.05196
11.979791 4.862052 -2.0477273
15.259778 6.187047 -2.0218124
20.73798 8.3997583 -1.957518
34.138035 13.820394 -1.9301503
7.1360002 2.8729959 -2.061235
8.2203302 3.3078864 -2.0457051
9.7727699 3.9286249 -2.0473807
11.999363 4.8188505 -2.0480404
15.270232 6.129303 -2.0203502
20.726494 8.3109989 -1.953683
7.1298347 2.8416336 -2.0565763
33.886745 13.498873 0.63669872
8.2269669 3.2755742 -2.0443552
9.7900696 3.8959458 -2.0481439
11.992249 4.7674456 -2.043973
15.263074 6.0615735 -2.0164504
20.751677 8.2371235 -1.9533345
34.080105 13.513912 -1.9213579
33.936275 13.450026 -0.63718736
7.1451015 2.8188534 -2.0581291
33.998287 13.412851 0.63795525
8.2395954 3.248991 -2.044805
9.7963047 3.8588679 -2.0466175
11.996961 4.7233176 -2.0420959
15.26831 6.005116 -2.0145004
20.754341 8.1544409 -1.9508941
34.489101 13.543921 -1.9418734
34.042591 13.354861 -0.63830429
7.1598086 2.7972507 -2.0596819
34.402538 13.433755 0.64465702
8.2381792 3.2152479 -2.0416558
9.8017311 3.8235042 -2.0450909
12.007854 4.6792564 -2.041157
15.26328 5.9417048 -2.0110881
20.781267 8.0855761 -1.9508941
34.524998 13.419115 -1.9412456
34.420815 13.364775 -0.64451736
7.1713295 2.7729433 -2.0601997
34.729012 13.421706 0.64989275
8.2529907 3.1878741 -2.0425556
9.8003645 3.7836168 -2.042038
12.016745 4.6344671 -2.0399058
15.269109 5.8826761 -2.0091381
20.79077 8.0058212 -1.9491509
34.60146 13.309981 -1.9429202
34.709915 13.337796 -0.649055
7.1827703 2.7485819 -2.0607173
35.01099 13.390395 0.65429074
8.2640667 3.1590481 -2.0425556
9.8080101 3.7472792 -2.0408931
12.029155 4.5910859 -2.0392799
15.259873 5.8180223 -2.0052383
20.788799 7.9218521 -1.946362
34.632778 13.183426 -1.9420829
34.958126 13.293324 -0.6528247
7.1778674 2.7180216 -2.0565763
35.338043 13.3743 0.65952641
8.273221 3.1294897 -2.0421057
9.8155222 3.7109392 -2.0397482
12.043261 4.548367 -2.0389671
15.280087 5.7647228 -2.0052383
20.816328 7.8492317 -1.946362
34.663631 13.056829 -1.9412456
35.322487 13.290926 -0.65875852
7.1963568 2.6963365 -2.0591643
8.2822685 3.0999105 -2.0416558
9.8320942 3.6780272 -2.0405114
12.04241 4.5000796 -2.0361512
15.274081 5.7016349 -2.001826
20.817465 7.7667756 -1.9439217
34.74268 12.948314 -1.9431295
35.594986 13.258867 -0.66301692
7.2075372 2.6718695 -2.0596819
8.274229 3.06566 -2.0371568
9.8393497 3.6416373 -2.0393667
12.049855 4.4573822 -2.0348997
15.285458 5.6481967 -2.0008512
20.818283 7.6843972 -1.9414812
34.740459 12.81643 -1.9406174
35.948769 13.247945 -0.66874129
7.2236118 2.6506174 -2.0617526
36.288696 13.308515 0.67467511
8.290369 3.0387683 -2.0385065
9.8421545 3.6056144 -2.0374587
12.056067 4.4118958 -2.0333354
15.275249 5.5839043 -1.9969513
20.856207 7.6157861 -1.9425271
34.747459 12.681399 -1.938524
36.239029 13.211429 -0.67327899
7.2223825 2.6201689 -2.0586467
36.643223 13.293595 0.68039948
8.3045912 3.0111372 -2.0394061
9.8405371 3.5641656 -2.0344057
12.070297 4.3670092 -2.0330224
15.28718 5.5278454 -1.9959762
20.848934 7.5307589 -1.9393896
34.812496 12.560728 -1.9395707
36.608471 13.201534 -0.67928255
7.2278461 2.593642 -2.0576115
36.974045 13.260471 0.68563527
8.3155708 2.9806812 -2.0394061
9.854764 3.530463 -2.0347872
12.07617 4.3215184 -2.0314584
15.292384 5.4664364 -1.9940264
20.852579 7.4498873 -1.9372978
34.837315 12.432426 -1.938524
36.887886 13.156959 -0.6836108
7.2350359 2.5677483 -2.0570939
37.206261 13.204678 0.68912572
8.3180647 2.9504814 -2.0376067
9.8577757 3.4927607 -2.0328791
12.082987 4.2788072 -2.0302067
15.299197 5.411726 -1.9925638
20.86343 7.3717475 -1.9359034
34.848217 12.3062 -1.9368494
37.30698 13.159817 -0.6905219
7.2380438 2.5418196 -2.055541
8.3264723 2.9207885 -2.0371568
9.8841267 3.4652455 -2.0359321
12.088525 4.2333474 -2.0286424
15.303006 5.3530412 -1.9906142
20.865191 7.2946353 -1.9338117
34.872108 12.177887 -1.9358026
37.703884 13.152025 -0.69701427
7.2651219 2.5228741 -2.0607173
37.958748 13.174088 0.7013424
8.3347759 2.8910651 -2.0367069
9.8887434 3.4281476 -2.0344057
12.095763 4.1885366 -2.027391
15.299085 5.2918072 -1.9876893
20.890528 7.2217526 -1.9338117
34.925728 12.060006 -1.9364305
37.897011 13.071179 -0.69973677
7.2592659 2.4924848 -2.0565763
38.38279 13.171308 0.70832336
8.348505 2.8632159 -2.0376067
9.8895035 3.389796 -2.0321159
12.102836 4.1437263 -2.0261395
15.317466 5.2383671 -1.9876893
20.892986 7.1410475 -1.9317199
34.910915 11.918652 -1.9332905
38.343643 13.075671 -0.70713663
7.2642641 2.4658861 -2.055541
38.712585 13.133622 0.71355909
8.3602924 2.8346841 -2.0380566
9.9012775 3.3552516 -2.0321159
12.09103 4.0925899 -2.0217593
15.328135 5.1823196 -1.9867141
20.895134 7.0604248 -1.9296281
34.929596 11.789042 -1.9320343
38.688457 13.04267 -0.71265161
7.2673316 2.4386718 -2.053988
39.042576 13.093794 0.71879482
8.3756809 2.8073397 -2.0394061
9.9073439 3.3188007 -2.0309711
12.095876 4.0472221 -2.020195
15.323535 5.1212425 -1.9837892
20.908314 6.9836516 -1.9285822
34.917477 11.649369 -1.9291035
39.092312 13.027018 -0.71924859
7.2831354 2.41572 -2.0560586
8.3632307 2.7707336 -2.0340075
9.9170055 3.2835777 -2.0305893
12.100552 4.0018764 -2.0186305
15.322471 5.0614924 -1.981352
20.913645 6.9043837 -1.9268392
34.919998 11.514895 -1.9270102
39.437634 12.989328 -0.72476357
7.2970309 2.3920858 -2.0576115
8.3839626 2.7451637 -2.0367069
73.052216 23.919512 4.0285087
9.9172115 3.2452748 -2.0282996
12.105059 3.956547 -2.0170662
15.320303 5.0044851 -1.9789146
20.933828 6.8301082 -1.9264905
34.997955 11.405314 -1.9291035
39.780918 12.95631 -0.73027849
7.3012471 2.3666885 -2.0565763
8.3930206 2.717344 -2.0367069
9.9148426 3.2081413 -2.0256283
12.114353 3.9151652 -2.0164404
15.336813 4.9536567 -1.9789146
20.929817 6.7520814 -1.9240501
35.016579 11.28306 -1.9280567
40.242413 12.95918 -0.73795754
7.298017 2.3389242 -2.0534704
8.4131203 2.693063 -2.0394061
9.9235563 3.1746488 -2.0252469
12.114099 3.870765 -2.0142503
15.338027 4.897943 -1.9769646
20.933111 6.6765885 -1.9223071
34.981483 11.143849 -1.9240792
40.662449 12.945763 -0.7448687
7.3094158 2.3158786 -2.0545056
8.4108582 2.6616194 -2.0367069
9.94526 3.1452777 -2.0275364
12.104265 3.8234286 -2.0104959
15.357968 4.8482513 -1.977452
20.947536 6.6047325 -1.9216098
35.006821 11.024176 -1.9234513
40.941677 12.885299 -0.74919689
7.3196993 2.2896476 -2.0550234
8.4056749 2.6261268 -2.0331075
9.9492254 3.1064622 -2.02601
12.116311 3.7784531 -2.0101831
15.353731 4.7821584 -1.9745274
20.944969 6.5196266 -1.9191694
34.982143 10.875644 -1.9198924
41.487389 12.882167 -0.75827217
7.3276463 2.2640846 -2.0550234
8.4296885 2.6013646 -2.0367069
9.9562569 3.070559 -2.0252469
12.112436 3.7308998 -2.0073674
15.355153 4.7238607 -1.9725773
20.952368 6.4417858 -1.917775
34.989346 10.744077 -1.9182175
41.864754 12.83932 -0.76434559
7.3281145 2.2362349 -2.0529528
8.4368525 2.5713573 -2.0362568
9.959403 3.0334957 -2.0237205
12.114046 3.6851499 -2.0054901
15.360155 4.6667666 -1.971115
20.967096 6.3662982 -1.9170777
35.011349 10.617229 -1.9173803
42.257637 12.798593 -0.77069831
7.3469734 2.2139876 -2.0560586
8.4551077 2.5446973 -2.0385065
9.9661703 2.9975834 -2.0229571
12.126837 3.6428382 -2.0054901
15.368741 4.6108494 -1.97014
20.947208 6.2804761 -1.9132428
35.029057 10.489246 -1.9163336
42.669903 12.761004 -0.77740002
7.3398447 2.183919 -2.0519176
8.4527302 2.5118432 -2.0358069
9.976573 2.962774 -2.0229571
12.124326 3.596 -2.0029871
15.380936 4.5560427 -1.9696525
20.965178 6.206202 -1.9128942
35.027157 10.355575 -1.91424
7.3548379 2.1604607 -2.053988
8.4577065 2.4812229 -2.0349073
9.9962749 2.9306903 -2.0248652
12.133013 3.5525429 -2.0023613
15.381502 4.4978714 -1.9677025
20.952291 6.1229162 -1.9097565
34.974892 10.207512 -1.9094251
7.366044 2.1358554 -2.0550234
8.4569578 2.4489722 -2.0326576
9.9970131 2.8930571 -2.0229571
12.139647 3.5085204 -2.0014229
15.378038 4.4386435 -1.9652653
20.965881 6.0475283 -1.9090594
34.979607 10.076509 -1.9077506
43.919651 12.635251 -0.79771465
7.3660254 2.1080019 -2.0529528
8.474823 2.4221165 -2.0349073
9.9938374 2.8543665 -2.0202856
12.15372 3.4666686 -2.0017357
15.381985 4.38167 -1.9638027
20.967699 5.9688559 -1.9073162
34.991516 9.9477835 -1.9064944
7.3659024 2.0801785 -2.0508821
8.4851027 2.3930459 -2.0353572
10.003739 2.8194661 -2.0202856
12.161944 3.4231491 -2.0011098
15.385719 4.3247304 -1.9623404
20.961554 5.8880796 -1.9048759
34.995255 9.8169546 -1.9048196
44.936565 12.597258 -0.81460851
7.3731194 2.0544519 -2.0508821
8.4911137 2.3643742 -2.0349073
10.026761 2.7882085 -2.0229571
12.158003 3.3785713 -1.998607
15.399976 4.2736888 -1.9623404
20.981979 5.8148789 -1.9048759
34.996819 9.6923313 -1.903145
7.3892055 2.0325503 -2.0534704
8.4824028 2.3300762 -2.0308583
72.749275 19.970194 3.9536681
10.02838 2.7528617 -2.0214307
12.175436 3.3376806 -1.9995456
15.403313 4.2167578 -1.9608778
20.974239 5.7379127 -1.9024355
35.018883 9.5669422 -1.9025168
7.4018483 2.0082638 -2.0550234
8.4942474 2.30147 -2.0317578
10.034137 2.716815 -2.0206673
12.188921 3.2956727 -1.9998584
15.394938 4.1567578 -1.957953
20.982603 5.6615438 -1.9013897
34.994205 9.4290638 -1.8993766
46.37331 12.477764 -0.83823907
7.3976159 1.9794201 -2.0519176
46.535812 12.443112 0.84082204
8.5059929 2.2728131 -2.0326576
10.043559 2.6817751 -2.0206673
12.206078 3.2546287 -2.000797
15.390175 4.0978827 -1.9555157
20.986835 5.5841622 -1.8999952
35.00761 9.3017168 -1.8983301
46.513222 12.341467 -0.8399843
7.3970094 1.9516122 -2.0498469
8.513876 2.2431056 -2.0326576
10.049063 2.6456978 -2.0199041
12.200168 3.2074835 -1.9979812
15.396701 4.04213 -1.9545406
20.97151 5.5017743 -1.8968576
34.997356 9.1683321 -1.8960272
7.4056458 1.9262677 -2.0503645
8.5216541 2.2133706 -2.0326576
10.054436 2.6096199 -2.019141
12.194082 3.160414 -1.9951655
15.3915 3.9833837 -1.9521034
20.96744 5.4225445 -1.8947659
35.005936 9.0401268 -1.8947712
7.4160681 1.901363 -2.0513999
8.5123367 2.1792674 -2.0286086
10.082504 2.5793705 -2.0229571
12.201209 3.1168599 -1.9945397
15.389925 3.9257035 -1.9501534
20.96693 5.3444147 -1.8930227
34.979218 8.9030905 -1.891631
7.4357705 1.8787752 -2.0550234
8.5236712 2.1504915 -2.0295084
10.070508 2.5388782 -2.0187593
12.213932 3.0747302 -1.9948525
15.388132 3.8680904 -1.9482036
20.962271 5.2653642 -1.890931
34.998451 8.7780266 -1.8910029
7.4235363 1.8481462 -2.0498469
8.5405817 2.1230779 -2.0317578
10.075496 2.5027704 -2.0179961
12.21117 3.0287445 -1.9926625
15.397688 3.8133938 -1.947716
20.976656 5.1911974 -1.8905823
35.176243 8.6922092 -1.898958
49.30368 12.164931 -0.88640773
7.4280663 1.8217598 -2.0493293
8.5498343 2.0937138 -2.0322077
10.080358 2.4666491 -2.0172329
12.19864 2.9804773 -1.9889081
15.40319 3.7577441 -1.9467411
20.952063 5.1075664 -1.8867475
35.466415 8.6326551 -1.912984
7.4418912 1.7976359 -2.0513999
8.5551968 2.0633974 -2.0317578
10.081271 2.4296093 -2.0157063
12.203209 2.9364884 -1.9879694
15.412352 3.7030296 -1.9462537
20.977512 5.0362535 -1.8874446
7.4500008 1.7720929 -2.0519176
8.5414906 2.0285702 -2.026809
10.114524 2.4002945 -2.0206673
12.205696 2.8920543 -1.9867179
15.390413 3.6409779 -1.9418663
20.967819 4.9565854 -1.8850043
36.303352 8.5683756 -1.9548528
51.065125 12.043064 -0.91579759
7.4561415 1.7460749 -2.0519176
8.5538626 2.0015683 -2.0281587
10.111371 2.3622913 -2.0183775
12.213295 2.8511162 -1.9864051
15.39467 3.5881145 -1.9408913
20.957825 4.8770461 -1.8825639
36.428841 8.4705505 -1.9600865
7.4505954 1.7187394 -2.0488117
8.5645952 1.9725698 -2.0290585
10.103842 2.3252323 -2.0153246
12.230874 2.8102326 -1.9876565
15.399362 3.5325835 -1.9399164
20.919506 4.7950511 -1.8776833
36.621723 8.3807707 -1.9688789
52.245365 11.946599 -0.93548387
7.4584336 1.6931472 -2.0493293
8.5748901 1.9450216 -2.0299582
10.123385 2.2925482 -2.0176144
12.222785 2.7657368 -1.9848408
15.387754 3.4762516 -1.9369916
20.928343 4.7202501 -1.876986
36.018032 8.1170244 -1.9349651
52.942265 11.911628 -0.94721192
7.4567571 1.6654156 -2.0472586
8.5819626 1.9135779 -2.0299582
10.121745 2.2550595 -2.0157063
12.217415 2.7174852 -1.9823378
15.408143 3.4215539 -1.9379665
20.913572 4.6402569 -1.8741971
36.067039 7.989285 -1.9360118
7.4681854 1.6406218 -2.0488117
8.5771685 1.8811023 -2.0272589
10.129555 2.2197163 -2.0157063
12.222967 2.6739743 -1.981712
15.408357 3.3652034 -1.936504
20.917963 4.5646725 -1.8731512
35.954205 7.8327203 -1.9284756
7.477644 1.6153568 -2.0498469
8.5817766 1.8507463 -2.026809
10.133404 2.1835144 -2.0149431
12.232224 2.6313002 -1.981712
15.396721 3.306392 -1.9335792
20.918182 4.4882979 -1.8717568
35.621983 7.630188 -1.9092159
7.4718971 1.5868422 -2.046741
8.5977163 1.8227974 -2.0290585
10.129438 2.1456947 -2.0126534
12.250999 2.590626 -1.9832764
15.408168 3.2526305 -1.9335792
20.890835 4.4062009 -1.8679218
35.523315 7.4794688 -1.9025168
7.473609 1.5599593 -2.0457058
8.6040268 1.7927766 -2.0290585
10.144556 2.1119213 -2.0141799
12.244494 2.5446336 -1.9807734
15.423316 3.1996284 -1.9340667
20.882675 4.3284035 -1.8658301
35.353626 7.3149462 -1.8920496
7.4790092 1.5338601 -2.0457058
8.6102333 1.7627298 -2.0290585
