# .PCD v0.7 - Point Cloud Data file format
VERSION 0.7
FIELDS x y z
SIZE 4 4 4
TYPE F F F
COUNT 1 1 1
WIDTH 1478
HEIGHT 1
VIEWPOINT 0 0 0 1 0 0 0
POINTS 1478
DATA ascii
-17.270098 0.79027069 -2.1227205
-24.791063 1.1387559 -2.1712239
-40.050106 1.8536851 -2.1011841
-58.497513 2.7279701 -1.0221875
-7.8362155 0.37640083 -2.1021285
-58.888634 2.8389142 1.0290986
-9.0919294 0.43989587 -2.1014926
-10.838137 0.52628142 -2.1092029
-72.616112 3.5388 6.3606257
-13.308009 0.65087026 -2.1103013
-17.287062 0.85152692 -2.1251578
-24.818775 1.2268664 -2.1740127
-40.773479 2.0298221 -2.1394939
-7.8367829 0.40384981 -2.1026461
-9.0942316 0.47183436 -2.1023927
-10.834274 0.56400603 -2.1088212
-13.301711 0.69711357 -2.1096754
-17.299841 0.91269773 -2.1271076
-24.818321 1.313704 -2.1743615
-40.730247 2.170224 -2.13761
-7.846899 0.43184 -2.105752
-9.0847464 0.50314331 -2.1005929
-10.840079 0.60225719 -2.1103475
-13.307086 0.74398237 -2.1109269
-17.292585 0.97286153 -2.1266203
-24.857347 1.4027984 -2.1781962
-40.678558 2.3098962 -2.1353073
-7.8511291 0.45956701 -2.1073048
-9.0887709 0.53519589 -2.1019428
-10.832032 0.63974547 -2.1092029
-13.318211 0.79124546 -2.113117
-17.289085 1.0332185 -2.1266203
-24.852299 1.489553 -2.1781962
-40.817776 2.4607718 -2.1430531
-58.154316 3.5263085 -1.0169518
-7.8417649 0.48649338 -2.1052344
-9.0887918 0.56703991 -2.1023927
-10.833652 0.67780048 -2.109966
-13.321282 0.8381024 -2.1140556
-17.297258 1.0943106 -2.1280825
-24.874786 1.5780613 -2.1806366
-40.761101 2.6001773 -2.1405408
-58.141651 3.7292852 -1.0169518
-7.836163 0.51360887 -2.1041989
-9.1003695 0.5996573 -2.1055419
-10.829261 0.71548122 -2.1095843
-13.318276 0.88460076 -2.1140556
-17.30522 1.1554768 -2.1295452
-24.825392 1.6619596 -2.1768019
-39.942719 2.6879988 -2.0980439
-7.8381772 0.54122549 -2.1052344
-9.0884991 0.63074762 -2.1032922
-10.832572 0.75368708 -2.1107292
-13.313137 0.93094426 -2.1137428
-17.301081 1.2158767 -2.1295452
-24.855213 1.7511216 -2.1799393
-40.247871 2.8497066 -2.1145823
-7.8458738 0.56928176 -2.1078224
-9.0823555 0.66218543 -2.1023927
-10.843581 0.79249716 -2.1134005
-13.313746 0.97769988 -2.1143684
-17.312571 1.2774305 -2.131495
-24.864847 1.8390484 -2.181334
-39.584377 2.9416237 -2.0802498
-7.8476925 0.59695697 -2.1088579
-9.0801096 0.69230032 -2.1023927
-10.830962 0.82959157 -2.1114926
-13.316339 1.0222986 -2.1153071
-17.32407 1.3360516 -2.1334448
-24.882113 1.9276789 -2.1834257
-39.877079 3.0963776 -2.0961599
-7.8475952 0.62313074 -2.1093752
-59.369236 4.7245979 1.0395701
-9.0854082 0.72461152 -2.104192
-10.828152 0.86550421 -2.1114926
-13.322535 1.0695658 -2.1168714
-17.30743 1.3955631 -2.1319826
-24.883528 2.0108235 -2.1841228
-39.989449 3.245574 -2.1026497
-7.8395963 0.65004146 -2.1078224
-59.153099 4.9152489 1.0360795
-9.0867071 0.7566427 -2.105092
-59.005669 4.9237232 3.1031039
-10.827022 0.90345991 -2.1118741
-13.320688 1.1162257 -2.1171842
-17.314322 1.4569679 -2.1334448
-24.892241 2.099005 -2.1855175
-39.751003 3.3659337 -2.0907171
-7.8295813 0.67673951 -2.105752
-58.936359 5.104435 1.0325891
-9.0840111 0.78835684 -2.105092
-10.835536 0.94227105 -2.1141639
-13.314743 1.1625453 -2.1168714
-17.332859 1.5194739 -2.1363697
-24.900637 2.1872776 -2.1869118
-39.778805 3.5081711 -2.0928104
-7.8310189 0.7044102 -2.1067872
-59.045647 5.32162 1.0348229
-9.0734396 0.81936032 -2.1032922
-10.836092 0.98043996 -2.1149271
-13.312571 1.2091976 -2.1171842
-17.31559 1.5788867 -2.1349075
-24.956345 2.2799909 -2.1924899
-39.603222 3.6320477 -2.0842273
-7.8342829 0.73228091 -2.1083403
-9.0705242 0.85102779 -2.1032922
-10.826739 1.0177081 -2.1137822
-13.30827 1.2556571 -2.1171842
-17.302065 1.6385715 -2.1339324
-24.944263 2.366709 -2.1921411
-39.602234 3.7714128 -2.0848553
-7.833602 0.75980985 -2.1088579
-9.0771971 0.88362902 -2.1055419
-10.813352 1.0545418 -2.1118741
-13.327397 1.3044132 -2.1209388
-17.315998 1.7008981 -2.1363697
-24.955681 2.4557183 -2.1938844
-39.561001 3.9068711 -2.08339
-61.356018 6.0808773 -1.0762202
-7.8270574 0.78676146 -2.1078224
-59.456238 5.9869275 1.0430605
-9.0759964 0.91550475 -2.1059918
-10.829137 1.0942525 -2.1156902
-13.314901 1.35013 -2.1196871
-17.333654 1.7637439 -2.1392946
-24.958849 2.5440278 -2.1949303
-39.408043 4.0307169 -2.0760629
-61.211082 6.2823706 -1.074056
-7.8281069 0.81448019 -2.1088579
-9.0766211 0.94758302 -2.1068916
-10.817441 1.1312326 -2.1141639
-13.312073 1.3968028 -2.1200001
-17.319496 1.8234079 -2.1383197
-24.997372 2.6361449 -2.1991136
-61.260365 6.5035853 -1.0753126
-7.8386617 0.84324706 -2.1124811
-9.0751963 0.97947001 -2.1073413
-10.832945 1.1710961 -2.11798
-13.313005 1.4439045 -2.1209388
-17.313026 1.8838495 -2.1383197
-25.031591 2.7281415 -2.2029486
-38.934208 4.2571015 -2.0526164
-7.83183 0.8701756 -2.1114457
-9.0581636 1.0096337 -2.104192
-10.828792 1.2089007 -2.11798
-13.321628 1.4919062 -2.1231289
-17.31818 1.9456018 -2.1397822
-24.990236 2.8119378 -2.2001595
-39.383514 4.4454117 -2.0771098
-60.072933 6.8019638 -1.0552772
-7.8268251 0.89728868 -2.1109281
-9.073945 1.0434709 -2.1086912
-10.812803 1.2453454 -2.1156902
-13.326151 1.539529 -2.1246932
-64.943764 7.5142379 8.0272903
-17.354666 2.0110736 -2.1451445
-24.960478 2.8968565 -2.1984165
-39.030506 4.5435996 -2.0593154
-60.048824 7.0116038 -1.0552772
-7.8198085 0.92415071 -2.1098928
-9.0683117 1.0749093 -2.1082413
-10.820087 1.2844704 -2.11798
-13.322657 1.5862703 -2.125006
-17.355423 2.0725825 -2.1461194
-24.954172 2.9844351 -2.198765
-38.958881 4.6731544 -2.0563848
-7.8242064 0.95237529 -2.1119635
-60.012566 7.3154573 1.0552772
-9.0625706 1.1063213 -2.1077914
-10.835027 1.3246145 -2.1217961
-63.865368 7.819046 5.6292152
-13.320959 1.6332467 -2.1256318
-17.324438 2.1302404 -2.1431944
-25.002926 3.0788291 -2.2039945
-39.869999 4.9236698 -2.105371
-7.8208346 0.97968131 -2.1119635
-9.0549831 1.1358829 -2.1068916
-10.830337 1.3624281 -2.1217961
-13.31351 1.6771652 -2.1253188
-17.325159 2.1886747 -2.1441696
-24.995977 3.1665943 -2.2043431
-39.631538 5.0277061 -2.0936477
-7.8290377 1.0070897 -2.1150692
-59.267223 7.6343651 1.0430605
-9.0586948 1.1684791 -2.1086912
-10.819917 1.397581 -2.1206512
-13.389854 1.7342819 -2.1384594
-64.223717 8.3298025 7.9517312
-17.329224 2.2506719 -2.1456318
-25.005098 3.2520249 -2.2060859
-39.483036 5.1489701 -2.0867395
-7.8197298 1.0336529 -2.1135163
-9.0564928 1.2003512 -2.1091411
-10.813026 1.4350833 -2.1202698
-13.321059 1.7726759 -2.1284475
-17.32126 2.3111489 -2.1456318
-25.040989 3.3456283 -2.2102695
-39.488579 5.2899437 -2.0879955
-7.8084164 1.0599015 -2.1114457
-59.212482 8.0479279 1.0430605
-9.0541782 1.2322199 -2.109591
-10.815734 1.4738771 -2.1217961
-63.751492 8.6988497 5.6292152
-13.30696 1.818095 -2.1271961
-17.332756 2.3742921 -2.1480694
-25.033106 3.4335592 -2.2106183
-39.651905 5.452786 -2.0976253
-60.088352 8.2845039 -1.0587677
-7.81041 1.0879513 -2.1129987
-9.0478926 1.2635483 -2.1091411
-10.814411 1.512166 -2.1225593
-13.277058 1.8612434 -2.1234417
-17.340088 2.4369907 -2.1500192
-25.020967 3.5209208 -2.2106183
-39.502102 5.572751 -2.0907171
-7.8086715 1.1141187 -2.1135163
-60.34409 8.6204672 1.0640035
-9.0436525 1.2935456 -2.1091411
-10.832658 1.5513599 -2.1271389
-13.282544 1.9069462 -2.1253188
-17.351559 2.4973075 -2.1524565
-25.048595 3.6095586 -2.2141044
-39.613873 5.7225623 -2.0976253
-7.8142924 1.1427672 -2.1161046
-9.0487232 1.3265172 -2.1113906
-10.799983 1.5851723 -2.1217961
-13.287534 1.9550219 -2.1271961
-17.334883 2.5567029 -2.1514816
-25.039785 3.6975493 -2.214453
-60.54184 8.9832354 -1.0683316
-7.8026137 1.1688906 -2.1140339
-9.0536737 1.3595423 -2.1136403
-60.180153 9.0476904 3.1893535
-10.796324 1.6231563 -2.1221778
-64.118042 9.6511536 5.6727929
-13.288443 2.0025699 -2.1284475
-17.333702 2.6183794 -2.1524565
-25.042488 3.7873168 -2.2158475
-40.232506 6.0989537 -2.1325858
-60.759216 9.2323637 -1.0727296
-7.7984858 1.1961218 -2.1140339
-60.250511 9.2519093 1.0640035
-9.0873947 1.3970598 -2.1226382
-10.804175 1.6629211 -2.1248491
-13.277465 2.048341 -2.1278217
-17.348 2.6825101 -2.1553814
-25.040928 3.8765435 -2.2168934
-40.155708 6.2307806 -2.1296549
-7.8038054 1.2248343 -2.1166222
-9.0516605 1.4239269 -2.1154397
-10.798305 1.7006247 -2.1248491
-13.270234 2.094676 -2.1278217
-17.354218 2.7455318 -2.1573315
-25.058729 3.9689102 -2.2196825
-40.090321 6.3640242 -2.1273522
-7.8032966 1.2526798 -2.1176574
-9.0238008 1.4502231 -2.1100409
-10.800056 1.7395564 -2.1263754
-64.898605 10.464771 5.7512336
-13.267118 2.1392965 -2.1284475
-17.32934 2.8005326 -2.1553814
-25.080124 4.0620923 -2.22282
-39.946758 6.4771152 -2.1208625
-7.7857552 1.2763622 -2.1140339
-9.0340681 1.4842432 -2.1136403
-10.786479 1.7740872 -2.1248491
-13.271262 2.1875255 -2.1303248
-17.32729 2.8622961 -2.1563563
-25.078308 4.1471896 -2.2238657
-40.046074 6.6367545 -2.1273522
-7.7850628 1.3041685 -2.1150692
-9.0211439 1.5144786 -2.1118405
-10.784093 1.8123767 -2.1256123
-13.271338 2.2351501 -2.1315763
-17.340683 2.9267316 -2.1592813
-25.047964 4.2320495 -2.2224715
-39.924194 6.7598391 -2.1221185
-7.8071227 1.3358973 -2.1223164
-9.0350094 1.5492506 -2.1163394
-10.785441 1.851338 -2.1271389
-13.267348 2.2821293 -2.1322021
-68.611443 11.814247 8.5484037
-17.338186 2.9885933 -2.1602564
-25.044819 4.321485 -2.2235172
-40.069611 6.9284267 -2.1311202
-7.7909937 1.3611466 -2.1192105
-9.0314674 1.5811155 -2.1167896
-10.788582 1.8906726 -2.1290469
-64.285019 11.27734 5.7100959
-13.251519 2.3270607 -2.1309505
-17.33547 3.0504692 -2.161231
-25.053127 4.4130292 -2.2256091
-40.245804 7.1036558 -2.1417971
-7.7861948 1.3883342 -2.1192105
-9.0163012 1.6109182 -2.1145399
-10.793511 1.9303914 -2.1313365
-13.251093 2.3746972 -2.1322021
-17.344255 3.1144717 -2.1636686
-25.0611 4.5046906 -2.2277007
-39.729355 7.155591 -2.115629
-7.7984066 1.4186164 -2.1238692
-9.0221252 1.644478 -2.1172395
-10.771257 1.9652375 -2.1282835
-13.250496 2.4223588 -2.1334534
-68.87645 12.603911 8.5973959
-17.317656 3.1721342 -2.1617186
-25.084419 4.5993237 -2.2311869
-40.140232 7.3743472 -2.1388662
-7.7820106 1.4437152 -2.1207633
-9.0144148 1.6756052 -2.1167896
-62.726006 11.659551 3.3436399
-10.768192 2.0035429 -2.1290469
-66.972183 12.473019 5.9600582
-13.257493 2.4714932 -2.1359563
-17.318186 3.2347522 -2.1631808
-25.072128 4.6875901 -2.2315357
-41.048683 7.6894732 -2.1886899
-7.7750258 1.4705101 -2.1202457
-9.0202961 1.7076641 -2.119489
-10.763062 2.0414822 -2.1294286
-13.249226 2.5154438 -2.1359563
-17.326864 3.2958696 -2.1656184
-25.083015 4.7803025 -2.2339761
-40.069485 7.6436696 -2.1378195
-7.7739005 1.4970158 -2.1212809
-9.0181074 1.739879 -2.1203887
-10.769726 2.0797687 -2.1320999
-13.236485 2.5609269 -2.1353307
-17.319151 3.3570919 -2.1661057
-25.07876 4.8657317 -2.2350218
-40.089607 7.7926288 -2.1403315
-7.7762103 1.5256306 -2.1233516
-9.0062428 1.770218 -2.1190388
-10.768179 2.1184866 -2.1332448
-13.237157 2.6090224 -2.1368952
-17.326803 3.4213727 -2.1685433
-25.069441 4.9547834 -2.235719
-39.991631 7.9185548 -2.1365633
-7.7708373 1.5527675 -2.1233516
-9.0057411 1.8027927 -2.1203887
-10.753018 2.1545219 -2.1317184
-13.229905 2.655602 -2.137208
-17.306971 3.4802647 -2.1675684
-25.063713 5.0446215 -2.2367649
-40.085133 8.0825815 -2.1430531
-7.7672629 1.5802667 -2.1238692
-9.0051222 1.8353853 -2.1217382
-10.758898 2.1947882 -2.1343896
-13.243779 2.7065163 -2.1409624
-17.310272 3.5438411 -2.1695182
-25.057659 5.1344857 -2.2378109
-40.252327 8.2626076 -2.1535201
-7.7465663 1.6042362 -2.1197281
-9.004384 1.8679957 -2.1230881
-10.753094 2.2327302 -2.1347711
-13.224581 2.7507181 -2.1393981
-17.293911 3.6034346 -2.1690307
-25.047388 5.2235498 -2.2385082
-41.97887 8.769846 -2.2475154
-7.7465897 1.6324621 -2.1212809
-8.995903 1.8990134 -2.1226382
-10.747155 2.2706578 -2.1351528
-13.212967 2.796452 -2.1390851
-17.308414 3.6695483 -2.1724429
-25.048491 5.3150797 -2.2402511
-40.095974 8.5226669 -2.1482863
-7.7559566 1.6627309 -2.1254222
-8.9892187 1.9304036 -2.1226382
-10.7526 2.311044 -2.1378241
-13.214711 2.8450518 -2.1409624
-17.279978 3.7265921 -2.1704934
-25.076527 5.4125724 -2.2444346
-40.065983 8.6625671 -2.1482863
-7.7576547 1.6914423 -2.1274927
-8.9862347 1.9625998 -2.123538
-10.732959 2.346051 -2.1355343
-13.216278 2.8936949 -2.1428397
-17.270741 3.7877386 -2.1709807
-25.108076 5.5111794 -2.2489667
-40.05891 8.807519 -2.1495426
-7.7460451 1.7172571 -2.1259398
-8.9964495 1.9977578 -2.1275871
-10.730453 2.3847799 -2.1366794
-13.209951 2.9406724 -2.1434653
-17.265163 3.84973 -2.1719556
-25.061462 5.5927148 -2.2465265
-41.384537 9.2505369 -2.2223942
-7.741888 1.7447085 -2.1264575
-8.9913216 2.0295806 -2.128037
-10.731638 2.4243848 -2.1385872
-13.20346 2.987638 -2.1440909
-17.270981 3.9143577 -2.1743929
-25.096193 5.692503 -2.2514071
-40.491142 9.1993608 -2.1761293
-65.374466 14.87671 -1.1702886
-7.7288356 1.7672995 -2.1243868
-8.9754047 2.0556407 -2.1257875
-10.73928 2.4615943 -2.1416404
-13.190158 3.0282168 -2.1434653
-17.274075 3.9721603 -2.176343
-25.077179 5.7756948 -2.2514071
-41.166576 9.4889193 -2.2140205
-7.7260704 1.7964906 -2.1254222
-8.9624796 2.0856333 -2.1244378
-66.070778 15.387316 3.5552866
-10.739744 2.5031674 -2.1435483
-13.186666 3.0783405 -2.1447167
-17.260105 4.0324306 -2.176343
-25.099545 5.8731828 -2.2552419
-40.94873 9.5969 -2.2041812
-7.7366724 1.8274456 -2.1300809
-8.9661541 2.1211605 -2.1271372
-10.717567 2.5374751 -2.140877
-13.181606 3.1257164 -2.1456554
-17.237482 4.0938344 -2.1753678
-25.144796 5.9764204 -2.2611687
-40.786747 9.7092543 -2.197273
-7.7170973 1.8512843 -2.1264575
-8.968545 2.1531568 -2.1293867
-10.708645 2.5748711 -2.140877
-13.173089 3.1698735 -2.1459682
-17.246971 4.1565552 -2.1782928
-25.150896 6.0707006 -2.2636089
-40.816448 9.8594627 -2.2006223
-7.7090387 1.8764085 -2.1259398
-8.9628677 2.1849113 -2.1298366
-10.719122 2.6150219 -2.1446934
-13.16962 3.2177126 -2.1472197
-17.247782 4.2205038 -2.1802428
-25.173199 6.1644969 -2.2674437
-40.490822 9.9305096 -2.1849217
-7.7099428 1.9051604 -2.1280103
-8.9627523 2.2180572 -2.1316364
-10.70421 2.6510041 -2.1435483
-13.15639 3.2631884 -2.1469069
-17.232944 4.2806849 -2.1802428
-25.166998 6.2561769 -2.2688382
-40.649723 10.120041 -2.1953888
-7.7088671 1.9334735 -2.1295633
-8.9436159 2.2464793 -2.1289368
-10.712029 2.6926634 -2.1469829
-13.15833 3.3124659 -2.149097
-17.214048 4.3398433 -2.1797554
-25.163218 6.3532543 -2.2705815
-40.486347 10.229582 -2.1884806
-7.7054734 1.962667 -2.1305985
-8.9432726 2.2796121 -2.1307364
-10.692576 2.7294765 -2.1450748
-13.126961 3.355782 -2.1459682
-17.198795 4.3999014 -2.1797554
-25.218088 6.4608312 -2.2775538
-40.464054 10.381874 -2.1893179
-7.6929646 1.9881022 -2.1290457
-8.9386311 2.3133502 -2.1316364
-10.675381 2.7648151 -2.1435483
-13.134289 3.4065402 -2.149097
-17.197924 4.4669051 -2.1817052
-25.226236 6.5568333 -2.2803428
-40.721363 10.59953 -2.2052281
-7.6841073 2.0144556 -2.1285279
-8.9380407 2.3465171 -2.1334357
-10.671361 2.8035617 -2.1446934
-13.126139 3.4533718 -2.1497226
-17.186066 4.5279174 -2.1821926
-25.24943 6.6570401 -2.2845263
-40.494873 10.691636 -2.1949701
-7.6770291 2.0412641 -2.1285279
-8.9241457 2.3761985 -2.132086
-10.672894 2.8438253 -2.1469829
-13.110186 3.4981549 -2.149097
-17.189333 4.5930052 -2.1846299
-25.268383 6.7564664 -2.2883611
-40.341553 10.801931 -2.1886899
-7.6810493 2.0710676 -2.1316338
-8.9214411 2.4088593 -2.1334357
-10.666692 2.8820882 -2.1477461
-13.109337 3.5469894 -2.1509743
-17.184694 4.656095 -2.1860926
-25.267723 6.8508797 -2.2904527
-40.00676 10.862102 -2.1725705
-7.6793637 2.0993953 -2.1331868
-8.9148569 2.4405007 -2.1338856
-10.667926 2.9224164 -2.1500359
-13.093064 3.5916827 -2.1503484
-17.142359 4.7056999 -2.1826801
-25.312815 6.9580498 -2.2967281
-41.181755 11.335617 -2.2385137
-7.6704979 2.1243343 -2.1326692
-8.9142265 2.4721336 -2.1356852
-10.643044 2.9535773 -2.1469829
-13.09631 3.639313 -2.1528513
-17.153435 4.7699661 -2.1860926
-25.289602 7.0419536 -2.2967281
-41.344025 11.52791 -2.2493997
-7.6596904 2.1487155 -2.1316338
-8.9059801 2.5016811 -2.1356852
-10.63319 2.9888551 -2.1469829
-13.076562 3.6805813 -2.1515999
-17.140501 4.8308873 -2.1865799
-25.358156 7.1517386 -2.3050952
-41.317101 11.668185 -2.2500277
-7.652144 2.1754379 -2.1316338
-8.8990679 2.5332875 -2.1361351
-10.64535 3.0324056 -2.1515625
-13.063635 3.7262053 -2.1515999
-17.146439 4.8972359 -2.1895049
-25.371349 7.2511621 -2.3085814
-41.42205 11.854112 -2.2579827
-7.6593547 2.2064142 -2.1357749
-8.8826828 2.5621736 -2.1343358
-10.630927 3.0684574 -2.150799
-13.061935 3.7750709 -2.1534772
-17.106356 4.9504366 -2.1865799
-25.428804 7.3684974 -2.316251
-41.62212 12.068714 -2.2711716
-7.6549253 2.2355556 -2.1368101
-8.8699427 2.5920711 -2.1334357
-10.623378 3.1085043 -2.1515625
-13.049906 3.8234789 -2.15379
-17.104212 5.0145869 -2.1885297
-25.444984 7.4695683 -2.3200858
-41.604435 12.229062 -2.2726369
-7.6396646 2.2600706 -2.1347394
-8.87533 2.6289914 -2.1370349
-10.593639 3.1399891 -2.1477461
-13.042162 3.8706949 -2.1547287
-17.097136 5.0806365 -2.1899924
-25.441673 7.5651574 -2.3221776
-7.6354303 2.2878335 -2.1357749
-8.8716993 2.6616364 -2.1383848
-10.593896 3.1803355 -2.1500359
-13.024788 3.9150567 -2.1541028
-17.086899 5.1425748 -2.1909673
-25.472343 7.6711502 -2.3274069
-40.393658 12.180185 -2.2110896
-7.6237006 2.3133485 -2.1347394
-8.8604898 2.6920221 -2.1379349
-10.586487 3.2184355 -2.150799
-13.018601 3.9627991 -2.1553543
-17.080238 5.205657 -2.1924298
-25.510208 7.7797794 -2.3333335
-41.328918 12.619739 -2.2646818
-7.6248121 2.3427851 -2.1373277
-8.8435888 2.7206409 -2.1361351
-10.586446 3.2588382 -2.1530888
-13.016016 4.0117068 -2.1572316
-17.06955 5.2675877 -2.1934047
-25.520969 7.8805366 -2.3368199
-41.051826 12.691957 -2.2519119
-7.6184325 2.3699605 -2.1378453
-8.8340378 2.7514963 -2.1361351
-10.567509 3.2934358 -2.1515625
-13.001933 4.0571203 -2.1572316
-17.051058 5.3271403 -2.1934047
-25.546553 7.9862204 -2.3417006
-41.906937 13.116771 -2.301317
-7.6082711 2.3959575 -2.1373277
-8.837388 2.786418 -2.1392844
-10.544715 3.3267596 -2.1492727
-12.991459 4.1036711 -2.1578572
-17.070211 5.3985987 -2.1982794
-25.537514 8.081357 -2.3434434
-41.975132 13.299169 -2.3075972
-7.6007061 2.4198482 -2.1373277
-8.8304491 2.8147583 -2.1397343
-10.545433 3.3634498 -2.1515625
-12.97474 4.14326 -2.1572316
-17.083422 5.4618731 -2.2021794
-25.565136 8.1785383 -2.3483243
-41.982597 13.446815 -2.3103187
-7.5940509 2.4469593 -2.1378453
-8.8131523 2.8431721 -2.1379349
-10.548575 3.4050651 -2.1546154
-12.960197 4.1885257 -2.1572316
-17.075584 5.525135 -2.2036417
-25.570547 8.2787809 -2.3514619
-41.85181 13.566172 -2.3057132
-7.5928106 2.4758468 -2.1399159
-8.7994671 2.8727109 -2.1370349
-10.532893 3.440644 -2.153852
-12.968028 4.2411118 -2.1609859
-17.048647 5.5822358 -2.2026668
-25.613443 8.3915615 -2.3580859
-41.697922 13.67732 -2.2998514
-7.5877905 2.503546 -2.1409512
-8.7986383 2.9064636 -2.1392844
-10.524548 3.4786224 -2.1546154
-12.949394 4.2851086 -2.1603601
-17.062975 5.6529551 -2.2070539
-25.670988 8.5097504 -2.3661041
-41.555141 13.791346 -2.2946179
-7.5790057 2.5300174 -2.1409512
-8.790287 2.937777 -2.1397343
-10.504892 3.5128486 -2.1530888
-12.941851 4.3327932 -2.1616118
-17.065727 5.720048 -2.2099788
-25.647182 8.6063242 -2.3668013
-42.47995 14.263069 -2.3484192
-7.5623608 2.5553052 -2.1388805
-8.7799788 2.9684432 -2.1397343
-10.499386 3.5538452 -2.1546154
-12.918399 4.3776622 -2.1603601
-17.068214 5.7872329 -2.2129037
-25.696224 8.7226896 -2.3741224
-7.5515671 2.5810626 -2.1383629
-8.7708845 3.0012348 -2.1401844
-10.494346 3.5930171 -2.1561418
-12.910515 4.425292 -2.1616118
-17.080685 5.8613501 -2.2172909
-25.676926 8.8162165 -2.3751683
-7.5498152 2.60993 -2.1404335
-8.7498331 3.0264816 -2.137485
-10.485451 3.6309104 -2.1569052
-12.895769 4.468081 -2.1616118
-17.094917 5.9296665 -2.2216785
-25.709988 8.9280148 -2.3810949
-7.5429425 2.6355894 -2.1409512
-8.7484131 3.0602231 -2.1397343
-10.473352 3.6656616 -2.1569052
-12.887549 4.5156817 -2.162863
-17.09659 5.9971924 -2.2246032
-25.762957 9.0422554 -2.3887646
-7.5336967 2.6619031 -2.1409512
-8.7413521 3.0920401 -2.1406343
-10.45309 3.6995783 -2.1553786
-12.882881 4.5645957 -2.1647403
-17.112968 6.0701065 -2.2294779
-25.74626 9.1374559 -2.3901591
-7.5170817 2.685585 -2.1388805
-8.7488546 3.1290972 -2.1451333
-10.454899 3.7413387 -2.1584315
-12.874308 4.6122022 -2.1659918
-17.1141 6.1378436 -2.2324028
-25.744213 9.23804 -2.3929479
-7.516746 2.7150898 -2.1414688
-8.719553 3.1529908 -2.1406343
-10.441776 3.7778077 -2.1584315
-12.846986 4.6530781 -2.1641147
-17.129896 6.2110791 -2.2372777
-25.794216 9.3577509 -2.4006176
-7.5035939 2.7399867 -2.1404335
-8.7084932 3.183409 -2.1406343
-10.435902 3.8169315 -2.1599579
-12.838085 4.7006116 -2.1653662
-17.12302 6.2763014 -2.2392275
-25.81377 9.4669352 -2.4054983
-7.504858 2.7701764 -2.1435394
-8.7106857 3.216994 -2.1437836
-10.418831 3.851975 -2.1591947
-12.84466 4.7513828 -2.1691206
-17.128174 6.3427005 -2.2426398
-25.825403 9.5736065 -2.4096818
-7.4938207 2.7943738 -2.1430218
-8.688448 3.2432935 -2.1410842
-10.402322 3.8851304 -2.1584315
-12.816894 4.7920399 -2.1672435
-17.128241 6.4107966 -2.2455647
-25.844069 9.6832695 -2.4145625
-7.4708757 2.8170481 -2.1393983
-8.6934843 3.2797933 -2.1451333
-10.391685 3.9246182 -2.1591947
-12.806636 4.8417754 -2.1684947
-17.135464 6.4817882 -2.2494645
-25.836199 9.7832956 -2.4170032
-7.4609957 2.8431113 -2.1393983
-8.6850471 3.3130219 -2.146033
-10.385259 3.9636686 -2.1607211
-12.789657 4.8864493 -2.1684947
-17.144968 6.5573101 -2.2538519
-25.891205 9.9076071 -2.42537
-7.4726596 2.877466 -2.1456099
-8.6558285 3.3347988 -2.1415341
-10.375024 4.0013061 -2.1614842
-12.788125 4.9345241 -2.1709976
-17.141644 6.6212854 -2.256289
-25.882483 10.007984 -2.4278102
-7.4594755 2.9008305 -2.1445746
-8.6532154 3.3685277 -2.1437836
-10.35804 4.0342646 -2.1607211
-12.774503 4.9805717 -2.1716235
-17.144318 6.6911817 -2.2597017
-25.949369 10.132893 -2.4372232
-7.4457088 2.9254389 -2.1435394
-8.6486568 3.4015679 -2.1455832
-10.347548 4.0718346 -2.1614842
-12.786446 5.0367165 -2.1766293
-17.161482 6.7670059 -2.2650638
-25.939787 10.233649 -2.4396634
-7.4408383 2.9535494 -2.1450922
-8.6367302 3.4317348 -2.1455832
-10.33692 4.1093798 -2.1622477
-12.779799 5.0856986 -2.1785066
-17.170952 6.8400979 -2.2694511
-25.944626 10.340357 -2.4434984
-7.4268975 2.9780657 -2.144057
-8.630125 3.4640398 -2.1469328
-10.333444 4.1498251 -2.1645374
-12.758304 5.1288042 -2.177881
-17.158022 6.9044366 -2.2709136
-25.978607 10.459134 -2.4501221
-7.4236183 3.006875 -2.1461277
-8.6125631 3.4919448 -2.1455832
-10.307979 4.1814451 -2.1622477
-12.758625 5.1807399 -2.1810095
-17.181629 6.9837227 -2.2772508
-26.00469 10.575273 -2.456049
-7.4130774 3.0327702 -2.1461277
-8.6003218 3.5219872 -2.1455832
-10.296953 4.2188897 -2.1630108
-12.755085 5.2312412 -2.1835127
-17.182854 7.0542097 -2.280663
-25.99342 10.676579 -2.4584892
-7.3999419 3.0545683 -2.1450922
-8.6018209 3.5542002 -2.1487324
-10.287277 4.2527161 -2.163774
-12.760489 5.2803507 -2.1872668
-17.171612 7.1127148 -2.2821257
-26.011288 10.779548 -2.4633698
-7.3856683 3.0788939 -2.144057
-8.5839672 3.5819514 -2.1473827
-10.270559 4.2878437 -2.1633925
-12.749271 5.3279047 -2.1885185
-17.19796 7.1940627 -2.2889502
-26.035992 10.896424 -2.4692965
-7.3784356 3.1061568 -2.1450922
-8.5767994 3.6141634 -2.1487324
-10.257337 4.3244333 -2.163774
-12.741516 5.3769846 -2.1903956
-17.205658 7.267951 -2.2933376
-26.093227 11.027573 -2.4783607
-7.3764391 3.1356709 -2.1476805
-8.5587502 3.6417937 -2.1473827
-10.254825 4.365593 -2.1664453
-12.74811 5.4322724 -2.1947758
-17.202093 7.3373117 -2.2962623
-26.080229 11.129543 -2.4808009
-7.3636727 3.1606386 -2.1471629
-8.5441971 3.670876 -2.1469328
-10.234113 4.3990369 -2.1653006
-12.743587 5.4829817 -2.1972787
-17.187313 7.4020286 -2.2977247
-26.07782 11.236275 -2.4842873
-7.3596854 3.1893964 -2.1492336
-8.5331182 3.7014542 -2.1473827
-10.224097 4.437079 -2.1664453
-12.749736 5.5384507 -2.201659
-0.87570244 0.38058445 0.11723832
-17.208704 7.4825559 -2.3040619
-26.10421 11.355848 -2.4905624
-7.3431988 3.2127423 -2.1476805
-8.5308561 3.7359083 -2.1500821
-10.210346 4.4735265 -2.1668272
-12.748416 5.5908561 -2.2047877
-0.83437669 0.36609203 0.11187606
-17.22974 7.5633254 -2.3103991
-26.0863 11.456513 -2.4926543
-7.3213348 3.233674 -2.1445746
-8.5231104 3.7680256 -2.1514318
-10.203644 4.513113 -2.168735
-12.746887 5.6433163 -2.2079163
-0.81494349 0.36096311 0.10943868
-17.228642 7.6346822 -2.3138115
-26.108082 11.574952 -2.4985807
-7.3152966 3.2615709 -2.1461277
-8.501008 3.7937856 -2.1491826
-10.18245 4.5463023 -2.1675904
-12.737928 5.6926165 -2.2097936
-0.79193211 0.35408249 0.10651381
-17.230883 7.7077408 -2.3177114
-26.089338 11.67579 -2.5006726
-7.3267694 3.2973917 -2.1528571
-8.4866037 3.8211532 -2.1487324
-10.179049 4.5874624 -2.1702616
-12.740593 5.7445664 -2.2135479
-0.78351551 0.35344166 0.10553886
-17.22332 7.7730045 -2.3201487
-26.099262 11.789754 -2.5055532
-7.3069987 3.3176768 -2.1502688
-8.4803095 3.8539813 -2.150532
-10.156631 4.6179414 -2.168735
-12.731249 5.7939172 -2.2154253
-0.78950369 0.35946462 0.10651381
-17.239439 7.852828 -2.3259985
-26.150671 11.91755 -2.5142689
-7.2848358 3.3383341 -2.1471629
-8.4738922 3.8868077 -2.1523318
-10.147587 4.6566424 -2.1702616
-12.732489 5.8482132 -2.2191796
-0.78283274 0.3597317 0.1057826
-17.2516 7.9312038 -2.3313608
-26.159599 12.032065 -2.5191495
-7.2819061 3.3677979 -2.1497512
-8.4567347 3.914726 -2.1514318
-10.134832 4.6936865 -2.1710248
-12.715582 5.8942847 -2.2198052
-0.77616978 0.35995665 0.10505138
-17.249022 8.003068 -2.3347731
-26.171654 12.148474 -2.5243788
-7.2771082 3.396462 -2.1518216
-8.4394875 3.9425726 -2.150532
-10.134396 4.7365141 -2.1744595
-12.723557 5.9520268 -2.2248113
-0.76771677 0.35929802 0.10407643
-17.242554 8.0733309 -2.337698
-26.175999 12.26173 -2.5289109
-7.2634592 3.4210219 -2.151304
-8.4309616 3.9744985 -2.1518817
-10.1178 4.7718635 -2.1744595
-12.720568 6.0048337 -2.2279398
-0.76645792 0.3619757 0.10407643
-17.239395 8.1453428 -2.3411102
-26.197887 12.383675 -2.5351863
-7.2479839 3.4446971 -2.1502688
-8.4152765 4.0030694 -2.1514318
-10.109944 4.8113708 -2.1763675
-12.720928 6.0593972 -2.2316945
-0.76518971 0.36464894 0.10407643
-17.228779 8.2140093 -2.3435478
-26.183271 12.488778 -2.5379751
-7.2376585 3.4708104 -2.1507864
-8.4135494 4.0383224 -2.1545811
-10.101938 4.8508787 -2.1782756
-12.710382 6.1088996 -2.2335715
-0.76749033 0.36903802 0.10456391
-17.232197 8.2895927 -2.347935
-26.225691 12.621572 -2.5463421
-7.2168036 3.4918461 -2.1481981
-8.3878336 4.0602574 -2.1514318
-10.099078 4.8929601 -2.1813285
-12.704275 6.1579084 -2.2360744
-0.76269001 0.36984879 0.10407643
-17.247478 8.3674822 -2.3537848
-26.242411 12.742631 -2.5522687
-7.2086573 3.5174537 -2.1492336
-8.3718596 4.088655 -2.1509819
-10.089853 4.9298711 -2.1828551
-12.70045 6.2108927 -2.2392032
-0.757828 0.37076405 0.10358895
-17.243126 8.4398584 -2.357197
-26.233557 12.851681 -2.5557549
-7.2061152 3.5489724 -2.1523392
-8.3662767 4.12216 -2.1532316
-10.071715 4.9668217 -2.1828551
-12.702399 6.2696404 -2.2435834
-0.76542962 0.37780017 0.10480764
-17.245598 8.5158176 -2.3615842
-26.277843 12.987313 -2.5644705
-7.1954131 3.5749645 -2.1528571
-8.3580904 4.1562691 -2.1550312
-10.045527 4.9975734 -2.1809468
-12.680434 6.3139458 -2.2435834
-0.76048607 0.37883285 0.10432017
-17.242699 8.593133 -2.3654842
-26.271572 13.098526 -2.5683055
-7.1638923 3.590538 -2.1471629
-8.3557262 4.191534 -2.1581805
-10.047324 5.0422959 -2.1851447
-12.67597 6.3670335 -2.246712
-0.75915909 0.38148516 0.10432017
-17.258709 8.6764565 -2.3718214
-26.34317 13.24923 -2.5798099
-7.1771765 3.6285954 -2.1549275
-8.3340883 4.2171559 -2.1563809
-10.040172 5.0826545 -2.1874344
-12.67129 6.4201713 -2.2498407
-0.75605214 0.38323528 0.10407643
-17.253107 8.7492132 -2.3752339
-26.328741 13.35733 -2.5829475
-7.1593041 3.6509941 -2.1533747
-8.3123732 4.2426782 -2.1545811
-10.034609 5.1239204 -2.1901057
-12.68398 6.4823422 -2.2560983
-0.74410504 0.38045004 0.102614
-17.254272 8.8256559 -2.379621
-26.413208 13.516319 -2.5958467
-7.1523104 3.6773648 -2.1549275
-8.296526 4.2693286 -2.1541312
-10.015817 5.15627 -2.1897242
-12.690511 6.5388446 -2.2611041
-0.75166166 0.387463 0.10383269
-17.24608 8.8937435 -2.3825459
-7.1411462 3.7031984 -2.1554451
-8.2971401 4.3063407 -2.1581805
-0.93945426 0.48779932 0.055476118
-10.018663 5.2020597 -2.1943038
-0.9300065 0.48309976 0.091687836
-12.699162 6.5994973 -2.2667358
-0.75911087 0.3946631 0.10505138
-17.306511 9.001523 -2.3952203
-7.1333103 3.7307909 -2.1569982
-0.91957152 0.48114899 0.018115599
-8.311408 4.3506403 -2.1658287
-0.87758851 0.4595727 0.051917274
-10.038706 5.2570372 -2.2026992
-0.92831457 0.48634294 0.091687836
-12.683044 6.6474538 -2.2679873
-0.7506963 0.39362317 0.10407643
-0.86799157 0.45551255 -0.085761249
-0.87349015 0.45878682 -0.051707931
-0.87616527 0.46058241 -0.017277883
-0.85775506 0.45262554 0.016928835
-0.83409768 0.44032824 -0.21775262
-0.92896169 0.49061492 0.055057433
-0.82981658 0.43825316 -0.1824134
-0.92661124 0.48958042 0.091687836
-0.8784467 0.4643288 -0.15737309
-0.75458235 0.3990249 0.10480764
-0.89664191 0.47434658 -0.12455048
-0.86639619 0.45853966 -0.085761249
-0.84717411 0.44874471 -0.050242521
-0.87101871 0.46176448 -0.017208073
-0.86813283 0.46178871 -0.2634778
-0.81733328 0.43494976 0.01616093
-0.87727976 0.46704718 -0.22945009
-0.84967935 0.45254359 0.050451867
-0.86293787 0.45960516 -0.19004577
-0.81236172 0.43285003 0.080531903
-0.83498424 0.44509113 -0.14986424
-0.74442691 0.39698607 0.10358895
-0.83893472 0.44757327 -0.11675084
-0.83666718 0.44655085 -0.082972266
-0.8350324 0.44605318 -0.049614493
-0.86940157 0.46480212 -0.017208073
-0.86651564 0.46481627 -0.2634778
-0.82285804 0.44158241 0.016300548
-0.83787119 0.44982752 -0.21955223
-0.86568975 0.46495712 0.051498584
-0.86824656 0.46633035 -0.19157225
-0.80733567 0.433797 0.080183282
-0.82994574 0.44613248 -0.1492385
-0.74303663 0.39958218 0.10358895
-0.83037478 0.44673678 -0.11577588
-0.76709217 0.41286376 0.13797522
-0.85615641 0.46079984 -0.085064009
-0.81588656 0.43949318 -0.048567772
-0.82552904 0.44505939 -0.016370358
-0.85469276 0.46232319 -0.26037198
-0.81427681 0.44064522 0.01616093
-0.81915861 0.44347188 -0.2150532
-0.81839973 0.44324571 0.048777115
-0.82172912 0.4450489 -0.18165016
-0.79880941 0.43281591 0.079486035
-0.83185661 0.45090955 -0.14986424
-0.74861741 0.40595865 0.10456391
-0.83230007 0.45152584 -0.11626337
-0.80384183 0.43626878 0.14485833
-0.83352923 0.45238101 -0.082972266
-0.82487786 0.44805846 -0.049195804
-0.81342942 0.4422076 -0.01616093
-0.83272201 0.45420334 -0.25416031
-0.81448907 0.44444275 0.016195834
-0.80905342 0.44165966 -0.21280369
-0.84138799 0.45950189 0.050242521
-0.80638623 0.44038662 -0.17859723
-0.79379678 0.43369108 0.079137415
-0.81467748 0.44528365 -0.14704841
-0.75067925 0.41047409 0.10505138
-0.82375264 0.45061764 -0.11528841
-0.85083413 0.46562505 0.15361866
-0.82844961 0.45337492 -0.082623646
-0.82506055 0.45189452 -0.049300473
-0.7996062 0.43831581 -0.015916595
-0.81928229 0.45059052 -0.25053686
-0.82169282 0.45210281 0.016370358
-0.80921388 0.44542104 -0.2132536
-0.8118642 0.44687986 0.048567772
-0.80140454 0.44130474 -0.17783399
-0.78355271 0.43165237 0.078265861
-0.82349831 0.45384565 -0.14892563
-0.75271857 0.41500887 0.10553886
-0.82912761 0.45732522 -0.11626337
-0.82161021 0.45317882 0.14861277
-0.80767316 0.44567558 -0.080706216
-0.8217299 0.45380607 -0.049195804
-0.79989856 0.44193205 -0.015951499
-0.82277292 0.45625806 -0.25208977
-0.77646899 0.43058079 0.015497738
-0.77876312 0.43203071 -0.20560527
-0.80506039 0.44680351 0.048253756
-0.79127711 0.4393343 -0.17592591
-0.78204119 0.43438488 0.078265861
-0.79953957 0.44410437 -0.14485833
-0.74092704 0.41171747 0.10407643
-0.80505115 0.44753352 -0.11309476
-0.79930687 0.4445231 0.14485833
-0.80959463 0.45042956 -0.081054844
-0.79927856 0.4448725 -0.04793974
-0.80184495 0.44666779 -0.016021309
-0.81282365 0.45427164 -0.24950157
-0.78368837 0.43816799 0.015672261
-0.79425788 0.44425973 -0.21010427
-0.79652417 0.44570962 0.047835067
-0.79324239 0.44387326 -0.17668915
-0.77885783 0.43600261 0.078091539
-0.79109037 0.44303194 -0.14360686
-0.74641275 0.41818219 0.10505138
-0.79309422 0.44451764 -0.11163233
-0.79085827 0.44344607 0.14360686
-0.79593164 0.44629079 -0.079834662
-0.78552854 0.44081783 -0.047207039
-0.78633273 0.44163007 -0.015742071
-0.81964821 0.46184796 -0.25208977
-0.80305791 0.45268443 0.016091119
-0.78930753 0.44511485 -0.20920448
-0.79148442 0.44652456 0.047625724
-0.78313863 0.44181621 -0.17478105
-0.76692039 0.43284321 0.077045679
-0.78953916 0.4457905 -0.14360686
-0.75877577 0.42859551 0.10700129
-0.79672235 0.45021331 -0.11236355
-0.78242713 0.44231531 0.14235538
-0.7856968 0.44416368 -0.078963101
-0.79962981 0.45240882 -0.048149083
-0.77956605 0.44141629 -0.015637357
-0.79787427 0.45325559 -0.2458781
-0.7719174 0.43868828 0.015497738
-0.78605485 0.44690421 -0.20875457
-0.80207354 0.45619676 0.048358425
-0.78329813 0.44551781 -0.17516267
-0.76886827 0.43748814 0.077394299
-0.78969491 0.44952098 -0.14391972
-0.76590008 0.43615317 0.10821999
-0.78134733 0.44513047 -0.11041363
-0.79804063 0.45482504 0.14548407
-0.81529957 0.46466139 -0.082100704
-0.7963109 0.45420778 -0.048044413
-0.77628374 0.44314364 -0.015602452
-0.80299294 0.45987812 -0.24794866
-0.76691121 0.43939191 0.015427927
-0.77941793 0.44673818 -0.20740487
-0.78514445 0.45020249 -0.17592591
-0.76906472 0.44116071 0.077568613
-0.76927465 0.4414596 -0.14047816
-0.75404358 0.43289396 0.10675755
-0.78667438 0.45180979 -0.11138859
-0.79302251 0.45563972 0.14485833
-0.79121464 0.45460099 -0.079834662
-0.77567506 0.44603279 -0.046893019
-0.77299887 0.44485328 -0.015567547
-0.79970956 0.46171251 -0.24743101
-0.77749407 0.44906732 0.015672261
-0.76266801 0.44068131 -0.20335576
-0.78330672 0.45278934 0.047416382
-0.78356814 0.45294046 -0.17592591
-0.77959341 0.45082438 0.078788787
-0.77285862 0.44710955 -0.14141677
-0.74909163 0.43353474 0.10627007
-0.78681046 0.45554775 -0.11163233
-0.77091485 0.44652441 0.14110391
-0.77583021 0.44937146 -0.078440167
-0.77065748 0.4467344 -0.046683677
-0.77663058 0.45055911 -0.015672261
-0.79475373 0.4625577 -0.24639574
-0.78283429 0.4558031 0.015811879
-0.77964795 0.45413032 -0.20830467
-0.78689843 0.45853755 0.047730397
-0.77350098 0.45073065 -0.17401782
-0.78317887 0.45655295 0.079311721
-0.77982509 0.45478052 -0.14298111
-0.74242991 0.43314591 0.10553886
-0.78864437 0.46029249 -0.1121198
-0.77617514 0.45319667 0.14235538
-0.77081585 0.45006749 -0.078091539
-0.78806204 0.46050623 -0.047835067
-0.77332687 0.45225781 -0.015637357
-0.80313188 0.47119448 -0.24950157
-0.7864123 0.46156964 0.015916595
-0.78982127 0.46375608 -0.21145399
-0.79054046 0.46417835 0.048044413
-0.78715837 0.46237701 -0.17745239
-0.78501582 0.46130303 0.079660349
-0.79015326 0.46450749 -0.1451712
-0.73406911 0.43170947 0.10456391
-0.7888248 0.46391156 -0.11236355
-0.78469354 0.46185094 -0.079660349
-0.80193788 0.47237748 -0.048777115
-0.78043693 0.45989591 -0.015811879
-0.79823893 0.47188899 -0.2484663
-0.79520458 0.4702825 0.016126024
-0.78995621 0.46736497 -0.21190389
-0.79243469 0.46883133 0.048253756
-0.7839312 0.46398482 -0.17707075
-0.76290905 0.45172229 0.077568613
-0.79370731 0.47014546 -0.1461098
-0.72921789 0.43211737 0.10407643
-0.77874327 0.46146494 -0.11114486
-0.83432496 0.49459815 0.15361866
-0.80543578 0.47766253 -0.081926398
-0.80551958 0.47809234 -0.04909113
-0.77718812 0.46146047 -0.015776975
-0.79666966 0.47453347 -0.2484663
-0.77818018 0.46370429 0.015811879
-0.78338045 0.46698833 -0.21055418
-0.78393185 0.4675025 0.047835067
-0.78407437 0.4675875 -0.17745239
-0.77167308 0.46037444 0.078614481
-0.78027016 0.46568832 -0.14391972
-0.74482477 0.44470981 0.10651381
-0.78905725 0.47130609 -0.11285102
-0.78845447 0.47113305 -0.080357596
-0.77650362 0.46435955 -0.047416382
-0.76870912 0.46006289 -0.015637357
-0.79997712 0.48029467 -0.25001919
-0.78341383 0.47053629 0.015951499
-0.76838237 0.46169057 -0.20695497
-0.79256606 0.47640988 0.048463102
-0.76897615 0.46223003 -0.17439944
-0.78542835 0.47230601 0.080183282
-0.7684837 0.46229953 -0.14204252
-0.7381655 0.4442361 0.1057826
-0.78570652 0.47303364 -0.11260728
-0.76120406 0.45846322 -0.077742919
-0.76290405 0.45985004 -0.046683677
-0.78079683 0.47100651 -0.015916595
-0.79333735 0.4800837 -0.2484663
-0.78176641 0.47326833 0.015951499
-0.75843167 0.45932248 -0.20470546
-0.78748184 0.47710371 0.048253756
-0.77743268 0.47101533 -0.17668915
-0.77866322 0.47194692 0.079660349
-0.77531105 0.47009996 -0.14360686
-0.74679393 0.45298725 0.10724504
-0.78574753 0.47680339 -0.11285102
-0.77654833 0.47159186 -0.079486035
-0.7681219 0.46665838 -0.047102366
-0.76889592 0.46749586 -0.015707165
-0.78332686 0.47795707 -0.2458781
-0.77840275 0.47495258 0.015916595
-0.77844727 0.47516617 -0.21055418
-0.77558422 0.47360414 0.047625724
-0.76732427 0.46874434 -0.17478105
-0.76672798 0.46856391 0.078614481
-0.77189738 0.4719083 -0.14329399
-0.74012703 0.45248511 0.10651381
-0.77899808 0.4764359 -0.1121198
-0.7596032 0.46493867 -0.077917233
-0.76300025 0.46738383 -0.046893019
-0.75702918 0.46390814 -0.015497738
-0.7800082 0.47967654 -0.24536048
-0.76814085 0.47256315 0.015742071
-0.77006197 0.47393054 -0.20875457
-0.77894539 0.47958517 0.04793974
-0.76902688 0.47347853 -0.17554428
-0.76848048 0.47332716 0.078963101
-0.77360898 0.47667217 -0.14391972
-0.73001444 0.44998643 0.10529512
-0.78062594 0.48137179 -0.11260728
-0.75280762 0.46458042 -0.077394299
-0.7749598 0.47843826 -0.047730397
-0.75192147 0.46457732 -0.015427927
-6.8597193 4.2532039 -2.1626918
-0.77158517 0.47840285 0.015846785
-8.0268297 4.9787846 -2.1806755
-0.78066069 0.48440745 0.048149083
-9.8312721 6.1027751 -2.2492564
-0.77689606 0.48244712 0.080008969
-0.77521259 0.48158917 -0.14454547
-0.72675312 0.45148444 0.10505138
-6.8455772 4.2759285 -2.1626918
-8.0160112 5.0109053 -2.1824751
-0.89072973 0.55702186 0.055057433
-9.8093176 6.1343012 -2.2488749
-0.76684642 0.47973728 0.079137415
-12.479925 7.8104415 -2.3318124
-0.72180772 0.45191157 0.10456391
-17.148207 10.740375 -2.4844286
-23.934065 14.99635 -2.4710395
-6.843689 4.3080335 -2.1668332
-24.449566 15.396715 0.50433964
-8.0083656 5.0450869 -2.1851747
-9.7928267 6.1716475 -2.2500198
-12.462612 7.8602777 -2.3336897
-0.71351027 0.45019147 0.10358895
-17.120684 10.806524 -2.4858911
-24.488049 15.462753 -2.5337915
-26.335556 16.642214 -1.6326727
-24.335461 15.390183 -0.50259441
-6.8269777 4.3308616 -2.1663156
-24.480095 15.535537 0.50608486
-7.9939957 5.0750995 -2.1860743
-9.784482 6.2142138 -2.2530727
-12.465104 7.9228091 -2.3393211
-0.72868592 0.46333069 0.10602634
-17.119709 10.889657 -2.4912534
-23.731293 15.101039 -2.4609296
-6.8118196 4.3546643 -2.1663156
-7.9771218 5.1015811 -2.1860743
-9.7776136 6.2578526 -2.2565072
-12.448747 7.9704895 -2.3411984
-0.71544427 0.45824984 0.10432017
-17.106903 10.961363 -2.4946656
-24.26545 15.560207 -2.5219386
-6.7940927 4.3751369 -2.1652801
-7.9707317 5.136785 -2.1892235
-9.770009 6.2987528 -2.2595603
-12.424165 8.0160398 -2.3418241
-0.71384037 0.46074426 0.10432017
-17.105225 11.044701 -2.5000281
-24.314131 15.705452 -2.5323973
-45.703537 29.544308 -2.8521006
-6.7852616 4.4030333 -2.1673508
-7.9585576 5.1663728 -2.1905735
-9.7611332 6.3413749 -2.2626133
-12.424018 8.0744171 -2.3468301
-0.6989944 0.45445266 0.10237025
-17.085146 11.112185 -2.5024652
-24.282543 15.805439 -2.5348375
-45.863068 29.863539 -2.8682199
-6.7690063 4.4244533 -2.1668332
-7.9453673 5.1973224 -2.1919231
-9.7482643 6.3790851 -2.2645214
-12.422197 8.1350508 -2.351836
-0.70404571 0.46124122 0.10334522
-17.069496 11.18699 -2.5058775
-24.313305 15.940499 -2.5435531
-6.7583599 4.451242 -2.168386
-7.9369392 5.2314596 -2.1946225
-9.7341328 6.4184775 -2.2664294
-12.416807 8.1935949 -2.3562162
-0.70574474 0.46588323 0.10383269
-17.046906 11.257444 -2.5083151
-24.649837 16.284452 -2.5846908
-6.7363443 4.4705319 -2.1663156
-7.9316163 5.2677584 -2.1982217
-9.7198467 6.4578466 -2.2683375
-12.41116 8.252202 -2.3605964
-0.70246142 0.46724433 0.10358895
-17.037254 11.336678 -2.5127022
-24.748747 16.474174 -2.6010759
-6.7319388 4.5015359 -2.169939
-7.9180398 5.2986631 -2.1995716
-9.7037706 6.4961057 -2.2698641
-12.421667 8.3218584 -2.3681052
-0.70247507 0.47079891 0.10383269
-17.023958 11.413766 -2.5166023
-24.744041 16.595972 -2.6066539
-6.7145805 4.5239291 -2.1694212
-7.8994961 5.3262696 -2.1995716
-9.7005653 6.5431147 -2.2744434
-12.379445 8.3563261 -2.3656023
-0.69260174 0.46769363 0.102614
-17.000463 11.484229 -2.5190394
-24.768499 16.738022 -2.6153696
-6.7083397 4.5538492 -2.1725271
-7.892138 5.3614798 -2.2027209
-9.6809149 6.5791411 -2.2752066
-12.366532 8.4105997 -2.368731
-0.69588876 0.47345817 0.10334522
-16.979965 11.556906 -2.5219643
-24.347601 16.577694 -2.5770209
-6.6971865 4.5805101 -2.1740801
-7.8798084 5.3933964 -2.2045202
-9.6643705 6.6173306 -2.2767329
-12.356654 8.4671125 -2.3724854
-0.70078123 0.48037389 0.10432017
-16.978811 11.643056 -2.5278141
-24.87808 17.072664 -2.6397731
-46.789375 32.121395 -2.9743574
-6.6803532 4.6050253 -2.1740801
-7.8705587 5.4275069 -2.2072196
-9.6529789 6.6616292 -2.2797861
-12.335291 8.5190802 -2.3743625
-0.7056337 0.48732945 0.10529512
-16.964195 11.720304 -2.531714
-25.241148 17.451736 -2.6847453
-46.687763 32.304024 -2.975404
-6.662652 4.6272149 -2.1735625
-7.8554158 5.4596529 -2.2085695
-9.6393375 6.7020087 -2.2820759
-12.311961 8.5666027 -2.3756142
-0.70384282 0.48991248 0.10529512
-16.962286 11.806664 -2.5375636
-25.222578 17.569353 -2.6892774
-46.476406 32.398266 -2.9691238
-6.6488533 4.6503911 -2.1740801
-7.8404598 5.4879065 -2.2094693
-9.6299257 6.7429457 -2.2851286
-12.299667 8.6187134 -2.3787427
-0.7022143 0.4922438 0.10529512
-16.929543 11.867407 -2.5385387
-24.430202 17.137993 -2.6108375
-46.430832 32.595821 -2.9731014
-6.6412935 4.6779747 -2.1766684
-7.8285894 5.5183678 -2.2112689
-9.6139288 6.7793684 -2.2866549
-12.283931 8.6685667 -2.3812459
-0.69733471 0.49228013 0.10480764
-16.913958 11.944753 -2.5424385
-24.057829 17.002392 -2.5773695
-46.364887 32.779594 -2.9758229
-6.6209521 4.7000484 -2.175633
-7.8204012 5.5535598 -2.2144182
-9.5922194 6.8168321 -2.2874184
-12.28749 8.7387209 -2.3881288
-0.70531827 0.50161421 0.10627007
-16.891571 12.017529 -2.5453634
-24.400846 17.372845 -2.6205988
-46.26395 32.963215 -2.9770789
-6.6029334 4.7220073 -2.1751153
-7.8047476 5.585588 -2.2157679
-9.5859251 6.8628454 -2.2916162
-12.260121 8.7838593 -2.3887546
-0.71315598 0.51113433 0.10773251
-16.873222 12.097867 -2.5492632
-24.294724 17.425404 -2.6157181
-46.187542 33.152458 -2.9795909
-6.5926805 4.7495441 -2.177186
-7.7925062 5.6159973 -2.2175674
-9.5762415 6.906601 -2.2950509
-12.234129 8.8267803 -2.3893805
-0.70823783 0.51117295 0.10724504
-16.86198 12.17467 -2.5536504
-45.996418 33.246944 -2.9743574
-6.584712 4.7770524 -2.179774
-7.7697001 5.6408734 -2.2166677
-9.5628166 6.9452415 -2.2973404
-12.222421 8.8833656 -2.3931346
-0.70966029 0.51597679 0.10773251
-16.841854 12.249804 -2.5570626
-24.945642 18.150684 -2.699039
-45.760601 33.320297 -2.9666116
-6.5679979 4.8000069 -2.179774
-7.7578278 5.6737132 -2.2189171
-9.5496044 6.9866972 -2.3000119
-12.204088 8.9353113 -2.3956378
-0.70144886 0.5137592 0.10675755
-16.795794 12.306169 -2.5565753
-24.837135 18.204672 -2.6941583
-45.521626 33.390045 -2.9586565
-6.5512018 4.8229055 -2.179774
-7.7473898 5.7076921 -2.2216165
-9.533061 7.0258098 -2.3019197
-12.191899 8.9919271 -2.3993921
-0.71562505 0.52798986 0.10919494
-16.791065 12.393015 -2.5624251
-24.513773 18.099546 -2.6659198
-45.324478 33.489399 -2.953423
-6.5327749 4.8445945 -2.1792564
-7.7305474 5.7370253 -2.2225163
-9.5179358 7.0660658 -2.3042095
-12.166781 9.0391426 -2.4006436
-16.779566 12.475239 -2.5672998
-24.958834 18.563112 -2.7213509
-45.066311 33.542465 -2.944212
-6.5251107 4.8743052 -2.1823623
-7.7229614 5.7733097 -2.2261157
-9.5057917 7.1086531 -2.3072627
-12.14148 9.0862923 -2.401895
-16.793116 12.576572 -2.5760744
-23.500261 17.606041 -2.5690026
-44.888222 33.654049 -2.9402344
-6.5157762 4.9028592 -2.1849504
-7.7027621 5.8002334 -2.2261157
-9.496603 7.1536016 -2.3110785
-12.119154 9.1357536 -2.4037724
-16.752281 12.637507 -2.5765617
-24.755476 18.681698 -2.7133327
-44.658905 33.726276 -2.9329071
-6.5047803 4.9302421 -2.187021
-7.6871266 5.8306165 -2.2274654
-9.4637508 7.1807761 -2.3091705
-12.106071 9.1923342 -2.4075267
-16.71755 12.703114 -2.5780244
-24.617054 18.719242 -2.7056627
-44.49004 33.843266 -2.9295578
-6.48206 4.950532 -2.185468
-7.6744699 5.8633304 -2.2297149
-9.4514074 7.2261438 -2.3126051
-12.084846 9.2462492 -2.4100296
-16.666803 12.756561 -2.5770495
-24.599014 18.841406 -2.7108922
-44.343506 33.989094 -2.9280922
-6.4555526 4.9660606 -2.1823623
-7.6591048 5.8961735 -2.2315145
-9.4323473 7.2638831 -2.3141315
-12.052499 9.2883739 -2.4100296
-16.648226 12.839387 -2.5814366
-24.350109 18.785975 -2.6906722
-44.183487 34.111942 -2.9253709
-6.4503946 4.9980307 -2.1865032
-7.6518326 5.9310918 -2.2351139
-9.4162426 7.3039837 -2.3164213
-12.049723 9.3500891 -2.4156613
-16.618103 12.904266 -2.5833867
-24.180555 18.790173 -2.6791675
-43.97551 34.184727 -2.9190905
-6.441401 5.0253358 -2.1890914
-7.6234012 5.9517689 -2.2328641
-9.4027996 7.3436284 -2.3190925
-12.02635 9.3993921 -2.4175384
-16.597977 12.981759 -2.5872865
-24.130663 18.880079 -2.6805618
-43.821323 34.310921 -2.9167879
-6.4314165 5.0537567 -2.1916797
-7.610239 5.9843669 -2.2351139
-9.3817377 7.3800478 -2.3202376
-12.015196 9.4584208 -2.4219186
-16.580629 13.061728 -2.5916736
-24.149115 19.03079 -2.6899748
-43.613472 34.394424 -2.9109261
-6.4182787 5.0797734 -2.1932325
-7.5954146 6.0157328 -2.2369132
-9.3682299 7.4225054 -2.3232903
-11.988299 9.5052109 -2.4231701
-16.553595 13.134334 -2.5945985
-24.25708 19.26041 -2.7098463
-43.461864 34.521606 -2.9088328
-6.3996186 5.1032619 -2.1932325
-7.5835085 6.0495019 -2.2396126
-9.3471003 7.461689 -2.3248169
-11.965726 9.5589533 -2.425673
-16.535561 13.214339 -2.5989857
-24.227043 19.374832 -2.7140298
-43.238365 34.603302 -2.902343
-6.3847785 5.1279898 -2.194268
-7.5719185 6.0858011 -2.2427619
-9.3271179 7.4991918 -2.3263433
-11.938444 9.6056147 -2.4269247
-16.499384 13.284821 -2.6009357
-24.283401 19.559261 -2.7279747
-43.089321 34.731457 -2.9004591
-6.3773518 5.1587524 -2.1978915
-7.5501809 6.1096516 -2.2423122
-9.3222418 7.5490036 -2.331686
-11.912664 9.6501245 -2.4281759
-16.470659 13.351963 -2.6033733
-24.366613 19.766918 -2.7450573
-43.035946 34.924503 -2.9046459
-6.3677011 5.1859703 -2.2004797
-7.5363612 6.1421251 -2.2445617
-9.2910709 7.574914 -2.3301597
-11.900334 9.7091322 -2.4325564
-16.442404 13.42444 -2.606298
-24.384256 19.91567 -2.7544701
-42.845726 35.018902 -2.9000404
-6.3495593 5.2081666 -2.2004797
-7.5239129 6.1758127 -2.247261
-9.2721605 7.6135259 -2.3320675
-11.872476 9.7556295 -2.4338076
-16.401579 13.486793 -2.6072729
-24.453068 20.114586 -2.7701581
-42.701645 35.150467 -2.8985748
-6.3313413 5.2302995 -2.2004797
-7.5203323 6.216939 -2.25266
-9.2606564 7.6583581 -2.3358839
-11.859653 9.8146477 -2.4381878
-16.36969 13.556625 -2.6097105
-24.471693 20.273542 -2.7802682
-42.492584 35.227928 -2.8927133
-6.3249249 5.2622523 -2.2046208
-7.4940925 6.2394114 -2.2513101
-9.2414112 7.6969194 -2.3377919
-11.825323 9.8559828 -2.4381878
-16.36495 13.649289 -2.6165349
-24.541521 20.476263 -2.7963047
-42.363213 35.37093 -2.8922946
-6.3020768 5.2805748 -2.2030678
-7.4707737 6.2642803 -2.2508602
-9.2250185 7.7379618 -2.3404634
-11.805977 9.9099016 -2.4413166
-16.305048 13.696111 -2.6145852
-24.622435 20.689981 -2.813736
-42.123318 35.420891 -2.8843396
-6.2909875 5.3087702 -2.2056561
-7.4574051 6.2953062 -2.2531099
-9.1964493 7.7688508 -2.3400817
-11.794172 9.9668484 -2.4456968
-16.262571 13.75267 -2.6150725
-24.693024 20.89679 -2.830121
-41.868435 35.444241 -2.8749189
-6.2659874 5.3233495 -2.2030678
-7.4487486 6.3326573 -2.2571588
-9.1796112 7.8069344 -2.3423715
-11.777362 10.02332 -2.4494512
-16.229578 13.822227 -2.6175098
-24.769188 21.102602 -2.8468552
-41.592464 35.46059 -2.8644519
-6.2620459 5.3577485 -2.2082443
