# .PCD v0.7 - Point Cloud Data file format
VERSION 0.7
FIELDS x y z
SIZE 4 4 4
TYPE F F F
COUNT 1 1 1
WIDTH 1556
HEIGHT 1
VIEWPOINT 0 0 0 1 0 0 0
POINTS 1556
DATA ascii
0.66996908 28.429083 -1.4903189
0.68196446 28.515503 -0.49788228
0.22697082 8.9667149 -2.4033937
0.74346465 29.170084 0.50933105
0.28010434 10.915197 -2.5208015
0.32695687 12.654842 -2.4606731
0.42225623 16.125399 -2.554888
0.53793406 20.272568 -2.4900346
0.74449474 27.87355 -2.4394891
0.76811451 28.386639 -1.4882253
0.79421651 28.976704 -0.50598013
0.25821161 8.9639368 -2.4028761
0.84621727 29.199293 0.50988948
0.31831509 10.91805 -2.5217013
0.37055027 12.634 -2.4568567
0.47877282 16.131725 -2.5561395
0.61030936 20.324139 -2.4966154
0.84160066 27.864807 -2.4389663
0.87159681 28.527521 -1.4957618
0.8707571 28.178257 -0.49208805
0.28919056 8.9533272 -2.4002879
0.94553441 29.116215 0.5084933
0.35629997 10.912976 -2.5208015
0.41503873 12.644402 -2.4591465
0.53508443 16.129955 -2.5561395
0.6850369 20.434973 -2.5105085
0.93913764 27.869665 -2.4396634
0.96450496 28.328686 -1.4855039
0.97956848 28.478819 -0.49739361
0.32078537 8.961916 -2.4028761
1.0503198 29.200668 0.51002914
0.39425334 10.907771 -2.5199018
0.46031082 12.674268 -2.4652524
0.59138948 16.127989 -2.5561395
0.73631257 19.890898 -2.4439681
1.0375335 27.896082 -2.4422781
1.0582834 28.18943 -1.4783863
1.0818434 28.551161 -0.49871999
0.35199293 8.9588118 -2.4023585
0.43193793 10.896592 -2.5176523
0.50533384 12.692201 -2.4690685
0.64767969 16.125826 -2.5561395
0.82163727 20.368347 -2.5029526
1.1391089 27.99581 -2.4513423
1.156029 28.1696 -1.477549
1.1753716 28.519445 -0.49823132
0.38177991 8.9595251 -2.4028761
0.46781686 10.88926 -2.5163026
0.54775584 12.698301 -2.4705951
0.70114809 16.12359 -2.5561395
0.89843756 20.577715 -2.5290327
1.1985583 27.233513 -2.3849299
1.2568792 28.333216 -1.4863414
0.41149116 8.958209 -2.4028761
0.50392735 10.887649 -2.5163026
0.58931875 12.684648 -2.4683053
0.75554013 16.140909 -2.5592682
0.96810675 20.528849 -2.5234268
1.3338974 28.180685 -2.4682505
1.3757328 28.85158 -1.5137653
0.44227985 8.9470711 -2.4002879
0.54153943 10.878037 -2.5145028
0.63378614 12.686435 -2.4690685
0.81188214 16.138172 -2.5592682
1.0439833 20.60861 -2.5336637
1.4397507 28.323103 -2.4811497
1.4741969 28.802719 -1.5114626
0.47351062 8.9454727 -2.4002879
0.57919425 10.870243 -2.5131533
0.67901272 12.701789 -2.4725029
0.86777425 16.12735 -2.5580168
1.1027157 20.361031 -2.503684
1.5461551 28.457167 -2.4933515
1.5766988 28.833296 -1.5133467
0.50494486 8.9476242 -2.4013233
0.61592251 10.846753 -2.5082042
0.72322577 12.697382 -2.4721215
0.92406821 16.124224 -2.5580168
1.189433 20.628563 -2.5370762
1.6551503 28.618679 -2.5079935
1.6768662 28.819639 -1.512928
0.53629279 8.9477348 -2.4018409
0.65342695 10.838702 -2.5068545
0.766599 12.679102 -2.4690685
0.97986358 16.113012 -2.5567651
1.2502891 20.441998 -2.5146523
1.772597 28.899092 -2.5330944
0.56776989 8.9496632 -2.4028761
0.69113588 10.834409 -2.5064046
0.81010407 12.664594 -2.4667788
1.0373747 16.129208 -2.5598938
1.328669 20.546463 -2.5280578
1.8658643 28.775425 -2.52281
0.59810144 8.9341354 -2.3992527
0.72934628 10.837765 -2.5077543
0.85456842 12.665606 -2.4675419
1.0936741 16.125488 -2.5598938
1.4060576 20.62488 -2.5382948
1.9620938 28.707115 -2.5174065
0.62874305 8.924284 -2.397182
0.76633942 10.82349 -2.505055
0.89530283 12.613588 -2.4580016
1.1488204 16.10581 -2.5573912
1.4815968 20.669344 -2.5443883
2.0711358 28.823301 -2.5282137
0.66074389 8.9335947 -2.4002879
0.80339652 10.811031 -2.5028055
0.93130338 12.502705 -2.4370127
1.2056273 16.109581 -2.5586424
1.5474819 20.58091 -2.5341513
2.1744244 28.851658 -2.5313513
5.2627187 69.505394 -3.6530502
0.69251889 8.9389391 -2.4023585
0.84112692 10.808161 -2.5028055
0.96578354 12.381939 -2.4141154
1.2618494 16.105274 -2.5586424
1.625237 20.650583 -2.5434134
2.3017495 29.181549 -2.5609841
0.72278416 8.9249134 -2.3992527
0.87822032 10.79739 -2.5010059
1.0061251 12.343271 -2.4072464
1.3187085 16.108646 -2.5598938
1.6820171 20.458813 -2.5205021
2.37743 28.855633 -2.5330944
0.75311834 8.9127111 -2.3966644
0.91557819 10.790375 -2.5001059
1.0503668 12.353377 -2.4099178
1.3745985 16.100008 -2.5592682
1.7583444 20.510176 -2.5275705
2.5262377 29.406948 -2.5822504
1.0101118 11.710386 -0.61599427
1.0150858 11.720333 -0.20534502
0.7845661 8.9138765 -2.3976998
0.95289272 10.783231 -2.4992063
1.0297633 11.629973 -2.2694824
1.0367078 11.662069 -1.8543743
0.81637895 8.9187784 -2.3997703
0.98739809 10.766428 -2.496057
1.0845692 11.780752 -2.2996302
1.0753726 11.658567 -1.8543743
1.9010234 20.531332 -2.531714
2.7309222 29.382643 -2.5817273
0.84467107 8.9025602 -2.3961468
1.0244224 10.757095 -2.4947071
1.1786339 12.353633 -2.4122074
1.5389911 16.071236 -2.5570781
1.933742 20.119493 -2.4817474
2.7960653 29.038265 -2.5522687
0.87612247 8.9034023 -2.397182
1.0611972 10.745697 -2.4929075
1.221559 12.347488 -2.4118259
1.5972241 16.087387 -2.5605195
2.0301423 20.37534 -2.5141647
2.9634974 29.690495 -2.6104887
6.7573371 67.461372 -3.5531933
0.90582693 8.886837 -2.3935585
1.0989014 10.743866 -2.4933574
1.2654561 12.350963 -2.4133523
1.6513541 16.062065 -2.5573912
2.0979798 20.336538 -2.5102651
2.9684114 28.724722 -2.5264707
6.6911559 64.528984 -3.3999534
0.93785334 8.8932266 -2.3961468
1.1351703 10.728337 -2.490658
1.3100071 12.360136 -2.4160237
1.7057441 16.040487 -2.554888
2.1801219 20.433702 -2.5231831
3.2401621 30.318884 -2.6676629
6.9074373 64.421829 -3.3955572
0.9697305 8.8975811 -2.3982174
1.1709105 10.708813 -2.4870589
1.3495139 12.322311 -2.4095361
1.762146 16.038364 -2.5555136
3.3481407 30.327194 -2.6694062
0.99970096 8.8845425 -2.3956292
1.2091612 10.712405 -2.4888585
1.3903105 12.298018 -2.40572
1.8190142 16.039965 -2.5567651
2.3343904 20.520548 -2.5358574
3.4603052 30.37075 -2.6742868
1.0300376 8.8752413 -2.3940761
1.2460941 10.704247 -2.4879587
1.434137 12.300889 -2.4072464
1.8745308 16.029594 -2.5561395
2.4191933 20.624655 -2.5497506
3.5709405 30.398062 -2.677773
1.0612437 8.8735113 -2.394594
1.2825259 10.692094 -2.4861591
1.478943 12.311402 -2.4102995
1.9300048 16.019032 -2.5555136
2.4968832 20.663383 -2.5556004
3.6861315 30.460575 -2.6843967
1.0912652 8.8620834 -2.3925233
1.3198432 10.687551 -2.4861591
1.5240748 12.323701 -2.413734
1.9829966 15.988672 -2.5517592
2.5768328 20.717581 -2.5634
3.8165781 30.641279 -2.7014794
1.1236521 8.8697195 -2.3956292
6.5146303 51.352539 0.90354604
1.3551747 10.667413 -2.4825597
6.5533538 51.513565 2.7214701
1.5693163 12.335833 -2.4171684
2.0387921 15.981653 -2.5517592
2.6337752 20.588346 -2.5485318
3.9397089 30.754248 -2.7126353
6.5750561 51.184601 -2.7045131
6.5953436 51.201107 -0.90110266
1.154355 8.8638268 -2.3951116
1.3931575 10.668415 -2.4839096
1.6154189 12.353641 -2.4217479
2.0955977 15.982273 -2.5530109
2.7113144 20.622328 -2.5538943
4.046525 30.736357 -2.7122867
1.18401 8.8501692 -2.3925233
1.4280547 10.646105 -2.4798603
1.6577505 12.342089 -2.420603
2.1513624 15.974863 -2.5530109
2.7745228 20.547819 -2.5458508
4.3240843 31.98173 -2.8234973
1.213058 8.8325853 -2.3888998
7.0678434 51.396408 0.90557051
1.4641474 10.633332 -2.478061
1.7018981 12.344005 -2.4221294
2.2060342 15.959428 -2.5517592
2.8424118 20.510481 -2.5424385
4.5162134 32.546642 -2.8747449
1.2454932 8.8397751 -2.3920057
7.231535 51.325161 0.90473276
1.4980425 10.61877 -2.4758112
1.7463425 12.34771 -2.4240377
2.2583957 15.948111 -2.5511336
2.9310546 20.646381 -2.5604751
4.4905615 31.552315 -2.7882864
1.2753543 8.8394203 -2.3930409
7.4118061 51.307522 0.90487242
1.5311872 10.586476 -2.4695127
1.7912221 12.369053 -2.4293802
2.313473 15.936223 -2.5505078
2.9853871 20.514231 -2.5453634
4.5658751 31.336149 -2.7705069
1.3064868 8.8368254 -2.3935585
7.5984602 51.332771 0.9057799
1.5678487 10.579139 -2.4690628
1.8341024 12.360783 -2.4289987
2.3705442 15.93782 -2.5520723
3.0514109 20.466381 -2.5407324
4.6634436 31.241201 -2.7635343
17.040216 113.61172 -2.0052817
1.3355837 8.8207502 -2.3904526
7.7818079 51.333611 0.90626854
1.6041851 10.569747 -2.4681628
1.8766403 12.350425 -2.4282355
2.4264646 15.931399 -2.5523849
3.0799983 20.174984 -2.5058775
5.3456306 34.974693 -3.0954235
11.631072 75.920822 -4.0252633
1.3654805 8.8103085 -2.3888998
7.9634151 51.321941 0.90654784
1.6404703 10.560232 -2.4672632
1.9227599 12.363196 -2.4320514
2.4802318 15.911122 -2.5505078
3.2061794 20.521069 -2.5502381
5.4670591 34.951885 -3.0950747
11.892942 75.860031 -4.0242167
1.395619 8.8016729 -2.3878646
8.1449871 51.309639 0.90682703
1.6767133 10.550591 -2.4663634
1.9693004 12.377737 -2.4362495
2.5351391 15.898466 -2.5498822
3.2859323 20.560717 -2.5565753
5.5833745 34.897175 -3.0919371
12.163345 75.853546 -4.0261006
1.4278822 8.8062801 -2.3904526
1.7122791 10.536981 -2.4645636
2.0131226 12.374662 -2.4370127
2.5906162 15.889521 -2.5498822
3.3512762 20.509941 -2.5517006
5.6987295 34.838142 -3.0884507
12.425449 75.794861 -4.0252633
1.4589316 8.8031492 -2.3909705
1.7490523 10.530939 -2.4645636
2.0563092 12.36756 -2.4370127
2.6480176 15.892072 -2.5517592
3.4316719 20.550983 -2.5582814
5.8163543 34.79446 -3.0863593
1.4883596 8.7903843 -2.3888998
1.7867774 10.530535 -2.4659135
2.0997937 12.362243 -2.4373941
2.7031403 15.880783 -2.5514464
3.4963834 20.497784 -2.5531631
5.929718 34.72681 -3.0821757
1.5190369 8.7851353 -2.3888998
1.8248535 10.531914 -2.4677131
2.1469629 12.378051 -2.4419737
2.7548339 15.849844 -2.5480049
3.5519092 20.393539 -2.5417073
6.0467873 34.682343 -3.0800838
1.5483444 8.7721701 -2.3868291
1.8609295 10.521641 -2.4668133
2.1911814 12.376281 -2.4431186
2.8129079 15.85569 -2.5505078
3.6581614 20.578417 -2.5663247
6.1629367 34.633564 -3.0776434
1.5793 8.7686119 -2.3873467
1.8979895 10.517 -2.4672632
2.2333198 12.362761 -2.4419737
2.866827 15.838001 -2.5492566
3.7271428 20.549896 -2.5643749
6.2724133 34.54911 -3.0720656
1.6105992 8.7668457 -2.3883822
1.931443 10.502982 -2.4654636
2.2401767 12.157953 -2.4030488
2.9214783 15.840061 -2.5511336
3.7667661 20.383213 -2.5451195
6.39079 34.515251 -3.0710196
1.6375326 8.7500629 -2.3852766
1.9680963 10.496176 -2.4654636
2.2692583 12.09064 -2.3912184
2.9752965 15.822002 -2.5498822
3.8467104 20.416758 -2.5509694
6.4852672 34.388145 -3.0616069
2.4808111 13.129342 -0.70025522
1.6680601 8.7442951 -2.3852766
2.0050912 10.491156 -2.4659135
2.3154979 12.103858 -2.3954163
3.0286529 15.80182 -2.5483177
3.9071038 20.34667 -2.5439007
6.6037693 34.357471 -3.0609097
1.6985754 8.7384186 -2.3852766
2.0413253 10.482181 -2.4654636
2.3641229 12.128459 -2.4019036
3.083411 15.789213 -2.5480049
4.0112691 20.502396 -2.5651062
6.725183 34.34203 -3.0616069
1.728691 8.7305422 -2.3847589
2.0756302 10.463521 -2.4627643
2.4129419 12.15287 -2.4083912
3.1381254 15.776414 -2.5476921
4.0622363 20.385092 -2.5521882
6.8356743 34.27145 -3.0574234
2.5637624 12.830406 -0.68570572
1.7599216 8.728241 -2.3857942
2.1113682 10.452392 -2.4618642
2.4639113 12.186708 -2.4167869
3.1912124 15.755685 -2.5461278
4.3915377 21.64311 -2.7115932
6.955255 34.247383 -3.0574234
2.6081383 12.819421 -0.68560106
1.7880496 8.7106895 -2.3826883
2.1470535 10.441141 -2.4609644
2.5147502 12.218413 -2.4248009
3.2517715 15.771535 -2.5505078
4.4638419 21.612097 -2.7096431
7.0666842 34.183872 -3.0539372
2.6508429 12.800461 -0.68507773
2.9588325 14.275108 3.3657176
1.8176528 8.700614 -2.3816531
2.184288 10.437397 -2.4618642
2.5662374 12.251837 -2.4331965
3.3035638 15.744622 -2.5480049
4.5380359 21.590555 -2.7089119
2.7775922 13.203466 -1.1804373
2.6963358 12.795038 -0.68528712
3.0026083 14.236092 3.3589692
1.8496171 8.7017736 -2.3837235
2.2190826 10.422086 -2.4600649
2.6204431 12.296569 -2.4438818
3.3597367 15.738791 -2.5489435
4.6113038 21.564875 -2.7076933
2.7561135 12.878071 -1.1521989
2.8512599 13.311263 2.6461394
2.7409859 12.785547 -0.68528712
2.8777125 13.411931 3.1668611
2.8988261 13.487349 3.6964538
1.877938 8.6858253 -2.3811355
2.2533891 10.404752 -2.4578152
2.6708336 12.321884 -2.4507508
3.413821 15.723106 -2.5483177
4.6802187 21.519552 -2.7040372
2.8830779 13.234089 2.6327827
2.7864473 12.779805 -0.68549639
2.873827 13.169522 3.1119728
1.9094923 8.6848755 -2.3826883
2.2905309 10.40063 -2.458715
2.7083383 12.28756 -2.4457898
3.4720874 15.726525 -2.5508208
2.8723052 12.988296 -1.633293
2.8528411 12.889641 -1.1549879
2.9305272 13.229696 2.6339276
2.8327727 12.7778 -0.68591511
2.8898067 13.024335 3.0800297
1.9376919 8.6687307 -2.3801
2.3246961 10.383061 -2.4564655
2.7469242 12.258874 -2.4419737
3.5269663 15.714309 -2.5508208
2.9619091 13.185941 1.659373
2.9132624 12.958825 -1.6308557
2.9558949 13.137721 2.1328278
2.8938842 12.862108 -1.153419
2.9585791 13.138943 2.6178994
2.8773496 12.767837 -0.68591511
2.9356849 13.016069 3.0804796
2.8023567 12.404778 3.4076116
1.9670819 8.6581478 -2.3790648
2.9847646 13.126892 0.2349792
2.3613608 10.376784 -2.4569156
2.9910262 13.133225 0.70590746
2.7896962 12.249211 -2.4419737
2.974508 13.050178 1.1710246
3.5822413 15.703825 -2.5511336
2.9893594 13.09424 1.6491361
2.991612 13.083031 2.1256318
2.9987283 13.103657 2.6129384
2.9263623 12.777182 -0.68696183
2.9811049 13.005741 3.0804796
2.9621184 12.912587 -0.2312444
1.9964254 8.6474619 -2.3780296
3.0080562 13.018975 0.23323396
2.3949268 10.357087 -2.454216
3.01386 13.033724 0.70109254
2.8266857 12.214532 -2.4370127
3.0191481 13.035832 1.170676
3.0214877 13.035613 -2.1193743
3.0292208 13.058586 1.6459675
3.0184548 13.012176 -1.6401178
3.0314043 13.057647 2.1231289
3.0007362 12.915339 -1.1600429
3.0364504 13.058688 2.6060696
3.0017312 12.899168 -0.69407952
3.0114057 12.940742 3.0674326
3.0266905 12.996178 -0.23291981
2.9275162 12.560388 3.4557519
2.0242069 8.6370325 -2.3769941
3.0493832 13.001143 0.23309435
2.4292617 10.349088 -2.454216
3.0529604 13.006157 0.70015049
2.8734584 12.23185 -2.4423552
3.0596151 13.014114 1.1696301
3.0488675 12.95822 -2.1084239
3.0661354 13.021418 1.6425551
3.0493009 12.949924 -1.6335368
3.0764918 13.055215 2.1243804
3.057272 12.963493 -1.1652722
3.0828922 13.061924 2.6087408
3.0628586 12.966892 -0.69826639
3.0386267 12.864305 3.051686
3.0651739 12.966607 -0.23257077
2.9704838 12.556252 3.457305
2.0555222 8.6415491 -2.3801
2.4626617 10.337184 -2.4533162
3.0909798 12.97459 0.69899911
2.9158294 12.229892 -2.4438818
3.103683 13.007771 1.1699786
3.0853963 12.921141 -2.1040437
3.112071 13.022762 1.6440176
3.0493221 12.760183 -1.6108691
3.1193118 13.043019 2.1240675
3.0969951 12.939721 -1.1640521
3.1252789 13.047809 2.6079774
3.1123505 12.983857 -0.69973183
3.0803521 12.850369 3.050786
3.1100192 12.964151 -0.23271039
2.0805392 8.6196623 -2.3759589
3.1341345 12.9748 0.23298962
2.4973884 10.330855 -2.4537661
3.1391537 12.985622 0.70015049
2.9660614 12.260228 -2.4518957
3.1514869 13.016772 1.1717217
3.125905 12.901237 -2.1024795
3.1599143 13.031663 1.6464549
3.1700037 13.063317 2.1290734
3.1384804 12.92357 -1.1635292
3.1740909 13.060266 2.6125569
3.1483133 12.944355 -0.69816172
3.1547298 12.970737 3.0818295
3.1525235 12.951822 -0.23267549
3.0276341 12.429286 3.4277995
2.1107357 8.6063509 -2.3744061
3.1854913 12.97876 0.23326886
2.5361636 10.325418 -2.4546659
3.1942329 12.994809 0.70130187
3.0137866 12.260715 -2.4541855
3.2039435 13.024479 1.1734649
3.1698611 12.876268 -2.1002893
3.2181005 13.062399 1.6518172
3.1842716 12.915355 -1.633293
3.2277079 13.081735 2.1340792
3.1861668 12.903687 -1.1628319
3.2614679 13.208651 2.6446128
3.1986132 12.94436 -0.69878972
3.2194774 13.019065 3.0962265
3.206552 12.957092 -0.23298962
2.9007206 11.712495 3.2331676
2.1422637 8.5985575 -2.3744061
3.2409194 13.008312 0.23400187
2.565593 10.29003 -2.4483674
3.2608461 13.068846 0.70590746
3.0653658 12.276252 -2.459528
3.2700107 13.086102 1.1800888
3.2189538 12.872228 -2.1015408
3.2940202 13.172409 1.6671727
3.2317421 12.913791 -1.6345118
3.2733555 13.070388 2.1340792
3.2433021 12.940801 -1.1671896
3.2630556 13.009989 2.6072142
3.2557566 12.971294 -0.70088315
3.2686007 13.012846 3.0975759
3.2629695 12.990428 -0.23379244
2.908618 11.571148 3.1969328
2.1717937 8.5891542 -2.3738885
2.6008966 10.271111 -2.4461179
3.1062677 12.257865 -2.4580016
3.274554 12.903037 -2.1084239
11.742916 46.237881 5.8575287
3.2927401 12.955729 -1.6413364
3.2987649 12.969953 -1.1708503
3.2571149 12.796845 2.5667627
3.3463731 13.137912 -0.710513
3.3178518 13.016465 3.1011751
2.9352436 11.498639 3.1798508
2.2022407 8.5833921 -2.3744061
2.6406159 10.277069 -2.449717
3.1500118 12.250751 -2.4587648
3.3373108 12.960394 -2.1196871
3.3505428 13.002408 1.6486486
5.4550209 21.15391 -2.6823444
8.6286421 33.436691 -3.0211666
3.3125613 12.827217 2.5751584
2.9700336 11.467752 3.1741569
2.2321911 8.5756521 -2.3744061
2.6789291 10.277218 -2.4519665
3.1897857 12.228282 -2.456475
4.0750103 15.59956 -2.5536366
3.3783405 12.923412 1.6401178
5.5258098 21.123217 -2.680882
8.7392435 33.383244 -3.0190749
3.3593102 12.823173 2.5766847
3.7844691 14.42555 3.4431009
3.0041187 11.442892 3.1700156
2.2601416 8.5603361 -2.3723354
2.7095079 10.25509 -2.4488173
3.2339611 12.222767 -2.4576201
4.1236811 15.574504 -2.5517592
3.4140635 12.885273 1.6367054
5.5892181 21.07983 -2.6777134
8.839365 33.290901 -3.0134969
3.8072445 14.318757 3.4206057
3.0708885 11.533144 3.1979682
2.2865129 8.54533 -2.3702648
2.7463002 10.249333 -2.449717
3.2734501 12.208184 -2.4568567
4.1775126 15.558105 -2.5514464
3.4595327 12.875196 1.6369492
5.6612167 21.054445 -2.6769822
8.9503469 33.240604 -3.0117536
3.8511193 14.282801 3.4152069
2.3193429 8.5424843 -2.3718178
2.7784815 10.226521 -2.4465675
3.3233364 12.215047 -2.4606731
4.2339849 15.540784 -2.5511336
5.722672 20.990503 -2.6713765
9.0673504 33.213009 -3.0121024
2.3486288 8.5324745 -2.3713002
2.8164654 10.218146 -2.4470174
3.3654244 12.201481 -2.4602914
4.2687531 15.455459 -2.5395575
3.5637338 12.894119 1.6425551
5.7937422 20.948341 -2.668695
9.1757994 33.154274 -3.0096622
11.492814 41.469868 -2.2552612
2.3763239 8.5167799 -2.3692296
2.8513856 10.212504 -2.4479175
3.4079983 12.189659 -2.4602914
4.2965684 15.357513 -2.5257909
5.8599601 20.917547 -2.6672328
9.2774763 33.072166 -3.0051301
2.4024546 8.5014172 -2.3671591
2.8870094 10.202491 -2.4479175
3.448405 12.178288 -2.4602914
4.3824706 15.456454 -2.5445633
5.9296932 20.885504 -2.6657703
9.3772869 33.006721 -3.0019922
2.4331775 8.4966936 -2.3681943
2.9186816 10.185367 -2.4461179
3.4973891 12.188823 -2.4648707
4.4413381 15.468416 -2.5489435
5.9967308 20.858093 -2.6647954
9.4836359 32.943153 -2.9992034
2.462414 8.4922895 -2.3692296
2.9515035 10.165759 -2.4438682
14.777391 50.864178 2.7758994
3.542717 12.194127 -2.4683053
4.4908957 15.437642 -2.5464404
6.0650468 20.821791 -2.6628454
9.5894909 32.900043 -2.9981575
2.490412 8.4780817 -2.3676767
2.9853189 10.149786 -2.4425187
14.919903 50.693493 2.7694099
3.5830467 12.174151 -2.4667788
4.5397267 15.404819 -2.5436246
6.1287084 20.770029 -2.6589456
9.6974983 32.843445 -2.9960659
2.5166872 8.4582262 -2.3645709
3.0229533 10.146773 -2.4443181
3.6287625 12.164701 -2.4675419
4.6025095 15.419168 -2.5486307
6.1983256 20.739 -2.6577268
9.8041096 32.761868 -2.9918823
11.304508 37.703785 -0.68706632
2.5454383 8.4415474 -2.3625002
3.060689 10.137491 -2.4447682
3.6738954 12.153198 -2.4679236
4.6607122 15.407865 -2.5495691
6.2714243 20.706642 -2.6565082
9.9218025 32.71809 -2.9911852
2.5746663 8.4266195 -2.3609476
3.0949714 10.116888 -2.4425187
3.7220395 12.159073 -2.4717398
4.7188935 15.396343 -2.5505078
6.3478632 20.685413 -2.6567519
10.02777 32.656586 -2.9887445
2.6046376 8.419426 -2.361465
10.246633 33.121979 0.60517967
3.1233146 10.089816 -2.4384694
3.7667882 12.153507 -2.4732664
4.768158 15.374953 -2.5495691
6.4087667 20.639605 -2.6535833
10.140512 32.61758 -2.9883962
2.6325457 8.4107409 -2.361465
3.1579354 10.076991 -2.4380195
3.8058982 12.1372 -2.4725029
4.8212104 15.356331 -2.5492566
6.4748168 20.598173 -2.6511459
10.247417 32.579975 -2.9880474
10.487028 33.260582 -0.60873991
2.6618826 8.4015026 -2.361465
3.1954515 10.073336 -2.4398191
3.8464518 12.118231 -2.4713583
4.8676095 15.316815 -2.5455019
6.5436745 20.565987 -2.6499274
10.33812 32.471859 -2.9814234
10.603649 33.225681 -0.60877484
2.6882455 8.3829603 -2.3588769
3.2311881 10.063977 -2.440269
3.8893325 12.106598 -2.4717398
4.918622 15.292209 -2.5442502
6.6111698 20.529791 -2.648221
10.447733 32.424202 -2.9803779
10.730021 33.220814 -0.60936821
2.7133155 8.3606644 -2.3552535
3.2620854 10.039662 -2.4371197
3.93278 12.096683 -2.4725029
4.9695306 15.267432 -2.542999
6.6840076 20.510366 -2.6487086
10.555917 32.372375 -2.9789832
10.860837 33.228771 -0.61020595
2.7442937 8.3566475 -2.3568065
3.2940602 10.01896 -2.4348702
3.976825 12.088475 -2.4736481
6.7487288 20.466171 -2.6460276
10.667599 32.331551 -2.9786346
10.986801 33.221039 -0.61076444
2.7716217 8.3415165 -2.3552535
3.3296306 10.009249 -2.4353201
4.0134211 12.057754 -2.4702134
5.0478864 15.148035 -2.5289197
6.8113284 20.41613 -2.6426151
10.77029 32.263878 -2.9758456
2.7959676 8.3272753 -2.3537006
3.3598154 9.9950447 -2.4344203
4.0512795 12.045087 -2.4702134
5.0752821 15.072195 -2.518908
6.8779759 20.402151 -2.64359
10.86906 32.222332 -2.9751484
2.8219097 8.3083181 -2.3511124
3.3890405 9.966651 -2.4303713
4.0970969 12.042022 -2.4725029
5.1921892 15.243245 -2.5505078
6.947865 20.374262 -2.6431026
10.969883 32.150257 -2.9720109
2.8502686 8.2965899 -2.3505948
3.4238081 9.9547606 -2.4303713
4.1378264 12.023935 -2.4717398
5.2460065 15.226897 -2.5508208
7.0176535 20.346132 -2.6426151
11.076851 32.096699 -2.9706163
2.8785758 8.2847662 -2.3500772
3.4514956 9.9225016 -2.4254222
4.1836419 12.020544 -2.4740295
5.2952304 15.197299 -2.5489435
7.0833964 20.306517 -2.6406653
11.205884 32.106747 -2.9751484
2.9081163 8.2764912 -2.3505948
3.4861131 9.9103918 -2.4254222
4.2242699 12.002165 -2.4732664
5.3535028 15.193625 -2.5514464
7.1529217 20.277924 -2.6401777
10.799349 30.598209 -2.8388369
10.83645 30.669214 -1.704687
10.832363 30.623663 -0.56699383
2.9318166 8.2517242 -2.3464534
3.5213368 9.8999996 -2.4258721
4.2648258 11.983645 -2.4725029
5.4084911 15.180429 -2.5523849
7.2203226 20.243483 -2.6389589
11.334667 31.761274 -2.9503961
2.9592946 8.2378044 -2.3454182
3.556535 9.8894806 -2.426322
4.3132811 11.987158 -2.4763193
5.4587741 15.154022 -2.5511336
7.2909369 20.218157 -2.6389589
12.110862 33.565655 -3.1219189
2.9853966 8.2201614 -2.3433478
3.5883639 9.8696823 -2.4245226
4.3577805 11.97941 -2.4778459
5.5055447 15.118175 -2.5483177
7.3614726 20.192583 -2.6389589
12.185632 33.407124 -3.1111114
3.0174031 8.2187567 -2.3459358
3.6194351 9.8479509 -2.4222729
4.3995728 11.964125 -2.4778459
5.5603347 15.104424 -2.5492566
7.4243584 20.146276 -2.6362779
12.266306 33.267189 -3.1020472
3.0453956 8.2063646 -2.3454182
3.6534312 9.8395452 -2.4231727
18.741892 50.449322 2.8204896
4.4413004 11.948697 -2.4778459
5.6083307 15.080347 -2.5483177
7.48558 20.106663 -2.6343279
12.354532 33.149487 -3.0950747
3.0685258 8.1853657 -2.3423123
3.6870735 9.8249083 -2.4227228
18.951569 50.473351 2.8255138
4.4788318 11.928388 -2.4767008
5.6644158 15.069921 -2.5498822
7.5529289 20.072979 -2.633353
10.607644 28.161493 -2.6328006
3.0957656 8.1668406 -2.3402419
3.7213397 9.8119802 -2.4227228
4.5274029 11.924738 -2.4793723
5.7153974 15.037982 -2.5480049
7.6208391 20.040922 -2.6326218
12.514776 32.876221 -3.0776434
3.122874 8.1523752 -2.3392065
3.753093 9.7873564 -2.4200234
4.5732169 11.91986 -2.4816618
5.7678518 15.017941 -2.5480049
7.6899629 20.00174 -2.6311593
12.613731 32.791424 -3.0738087
3.1499197 8.1378212 -2.3381712
3.7806005 9.7621374 -2.4168742
4.6218972 11.92213 -2.4854782
5.8161898 14.995048 -2.547379
7.7569728 19.977978 -2.631403
12.692022 32.654346 -3.0650933
3.1797001 8.1345282 -2.3402419
3.8146565 9.7488804 -2.4168742
4.6642671 11.91405 -2.4870045
5.8742671 14.989367 -2.5498822
7.8136086 19.917517 -2.6270158
12.776792 32.535664 -3.0581205
3.2038121 8.1084461 -2.3361006
3.8472326 9.7318792 -2.4159744
4.7144022 11.913305 -2.4904392
5.9306178 14.971411 -2.5505078
7.8765078 19.873508 -2.6248221
12.866766 32.431606 -3.0525427
3.2292299 8.0900373 -2.3340304
3.8821509 9.7159052 -2.4155245
4.7603345 11.907714 -2.4927289
5.9813781 14.946948 -2.5498822
7.9485526 19.842667 -2.6245785
12.936913 32.279224 -3.0424325
3.2581744 8.0805073 -2.334548
3.9128928 9.6993618 -2.4146245
4.7952523 11.874641 -2.4892943
6.0294352 14.923367 -2.5492566
8.0128183 19.812521 -2.6240909
13.027091 32.178467 -3.0372033
2.6509526 6.5416036 1.6295455
3.2827697 8.0642891 -2.3329952
3.9364245 9.6603823 -2.4083259
4.8227487 11.829585 -2.4831884
6.0829735 14.905891 -2.5498822
8.0759268 19.769726 -2.6221409
13.100538 32.053951 -3.0295336
3.3094318 8.0492067 -2.3319597
3.9686408 9.6429768 -2.4074261
4.85953 11.801785 -2.4808986
6.1319609 14.877261 -2.5486307
8.1395826 19.728571 -2.6204348
13.180429 31.930672 -3.0222125
3.3375032 8.0376072 -2.3319597
4.005271 9.636261 -2.4092257
4.9037032 11.792004 -2.482425
6.1838589 14.855764 -2.5486307
8.2015324 19.683544 -2.6182413
13.25655 31.799871 -3.0141943
3.3640475 8.0223446 -2.3309245
4.0351105 9.6132383 -2.4069762
4.9486394 11.783865 -2.4843333
6.2341428 14.830445 -2.5480049
8.2678871 19.649305 -2.6175098
13.350456 31.713005 -3.0103593
3.3897688 8.0052166 -2.3293715
4.0625615 9.5847406 -2.4033771
5.0012369 11.793632 -2.4900575
6.2812457 14.797683 -2.5461278
8.3371878 19.622158 -2.6177537
13.423669 31.578196 -3.0019922
3.4161747 7.9897828 -2.3283362
4.0913863 9.5597544 -2.4006777
5.0516505 11.797758 -2.4946368
6.3359699 14.782929 -2.547379
8.4009409 19.581989 -2.6162913
13.510236 31.476223 -2.996763
3.4343715 7.9630466 -2.3236775
4.1159997 9.5343266 -2.3975284
5.1011424 11.810668 -2.5007429
6.3839531 14.766577 -2.5480049
8.4545307 19.537285 -2.6138539
11.216627 25.895313 -2.4689479
3.4673941 7.95926 -2.3262658
4.1492534 9.5199022 -2.3975284
5.15382 11.813484 -2.5053222
6.439611 14.746703 -2.5486307
8.5210924 19.504013 -2.6133664
11.192002 25.59313 -2.4438469
3.4897101 7.9347301 -2.3226421
4.180975 9.4974966 -2.3957288
5.2116404 11.833154 -2.5133362
6.4878626 14.716901 -2.547379
8.5973253 19.483549 -2.6148288
11.186329 25.338829 -2.4232781
23.252302 52.620548 -3.0149701
3.5158203 7.9189672 -2.3216069
4.2101479 9.4739389 -2.3934791
5.253715 11.816683 -2.5137179
6.5311604 14.676117 -2.5442502
8.6604328 19.442541 -2.6133664
11.169272 25.063049 -2.4006176
23.445621 52.560947 -3.0162263
3.5450199 7.9101739 -2.3226421
4.2384043 9.4485178 -2.3907797
5.2844787 11.774988 -2.5087569
6.5839663 14.656838 -2.5448763
8.7217398 19.397705 -2.6114166
11.179037 24.851295 -2.3840582
23.568258 52.344021 -3.0084803
3.571816 7.8959899 -2.3221245
4.2689466 9.4283409 -2.38943
5.3206911 11.745739 -2.5064671
6.6407948 14.64636 -2.5470665
8.7910433 19.370754 -2.6119039
11.216288 24.703274 -2.3735995
23.744234 52.246883 -3.007643
3.5921335 7.8676581 -2.3174658
4.3042641 9.4186974 -2.3907797
5.3526769 11.707455 -2.5022693
6.6885953 14.615903 -2.5458148
8.8552961 19.332735 -2.610929
11.199534 24.439373 -2.351985
11.544385 25.168697 -1.4511715
3.6187651 7.8533187 -2.3169482
4.3387461 9.4071569 -2.3916798
5.3844604 11.669093 -2.4980717
6.7354355 14.583497 -2.5442502
8.9202309 19.296297 -2.6101978
11.18024 24.174084 -2.3301959
11.565894 24.985058 -1.4429024
3.643714 7.8353815 -2.3153951
4.3625135 9.3725185 -2.3867307
5.4177041 11.634206 -2.4946368
6.7821259 14.550948 -2.5426862
11.171857 23.936314 -2.3110216
11.60655 24.845003 -1.4371455
3.6693995 7.819119 -2.3143599
8.7721443 18.684071 0.36028749
4.3918915 9.3501768 -2.3849311
8.7492809 18.618479 1.0781208
5.4516001 11.60101 -2.4915841
6.8370833 14.536119 -2.5442502
11.195923 23.770994 -2.2988198
8.7875166 18.623793 -0.35944977
3.6983266 7.8097529 -2.3153951
4.4219923 9.3295097 -2.3835814
5.4836531 11.56417 -2.4877679
6.8894677 14.515742 -2.5448763
8.755537 18.430815 -2.5053902
8.8225861 18.56362 -1.7981973
8.9089928 18.728544 -1.0869132
3.7189043 7.7828507 -2.311254
4.4536934 9.3122587 -2.3831315
5.5155158 11.527246 -2.4839516
6.9418054 14.495166 -2.5455019
8.8335438 18.428783 -2.50929
11.211689 23.379669 -2.2684896
11.803844 24.592466 -1.4296092
3.7401702 7.7576432 -2.3076308
4.4861703 9.2966557 -2.3831315
5.560833 11.518536 -2.4862413
6.9923644 14.470843 -2.5455019
11.218608 23.186148 -2.2534988
11.88614 24.543919 -1.4291904
3.7672288 7.7445393 -2.3076308
4.5168905 9.2774334 -2.3822315
5.5941319 11.484933 -2.4831884
7.0376368 14.435693 -2.5436246
11.217311 22.978546 -2.2371135
11.978764 24.516634 -1.4300278
3.7899821 7.722671 -2.3050425
4.542376 9.2476158 -2.3786323
5.6125383 11.421286 -2.4736481
7.0906038 14.416357 -2.5445633
9.3828812 19.060131 -2.6084917
11.263128 22.869539 -2.2303154
12.092522 24.531998 -1.4333773
3.8203468 7.7163191 -2.3071132
4.5746269 9.2317047 -2.3786323
5.6419106 11.380516 -2.4690685
7.1435142 14.396829 -2.5455019
9.4352255 18.998817 -2.6045918
11.314516 22.772989 -2.2247374
12.174519 24.482487 -1.4329586
3.8403554 7.6891098 -2.3029721
4.6050839 9.2121935 -2.3777328
5.6745801 11.346704 -2.4660156
7.1910763 14.366504 -2.5445633
9.4979248 18.958668 -2.6036167
11.35288 22.651419 -2.2167192
12.241988 24.404139 -1.4308652
3.8619552 7.6653066 -2.2998662
4.6364822 9.1986122 -2.3781826
5.7088447 11.316311 -2.4637258
7.231554 14.328471 -2.5420601
9.5589571 18.923523 -2.6031294
11.412097 22.572535 -2.2128842
12.308431 24.334888 -1.4291904
3.8838515 7.6455693 -2.2977955
4.6623788 9.1702137 -2.3750331
5.7463374 11.297318 -2.4637258
7.2788353 14.297863 -2.541122
9.6177492 18.875887 -2.6011796
11.490502 22.541668 -2.2135816
12.416907 24.338028 -1.4319118
3.914042 7.6388416 -2.2998662
4.6908054 9.146945 -2.3732336
5.7767787 11.259723 -2.4599097
7.3341165 14.282908 -2.542999
9.6744938 18.824551 -2.5987422
11.578234 22.519138 -2.2153246
3.9380198 7.6199837 -2.2983131
4.7218132 9.1287832 -2.3727837
5.8079238 11.223797 -2.456475
7.3884749 14.26599 -2.5445633
9.7310143 18.773041 -2.5963047
11.674203 22.51219 -2.2186365
3.959239 7.5959115 -2.2952073
4.7509398 9.1070652 -2.371434
5.8398037 11.189531 -2.4534223
7.4400463 14.243618 -2.5451889
9.7983294 18.742472 -2.5967922
11.76932 22.503088 -2.2217741
3.9776342 7.566658 -2.2905486
4.7836103 9.0921507 -2.3718839
5.878819 11.169083 -2.4534223
7.4805179 14.200082 -2.5420601
9.8618383 18.704647 -2.5963047
11.864536 22.493587 -2.2249119
4.0022149 7.5493135 -2.2895133
4.8070965 9.0599051 -2.3678348
5.9104099 11.134619 -2.4503694
7.5272574 14.168653 -2.541122
9.9270744 18.670107 -2.5963047
11.968239 22.499531 -2.2296181
4.0267229 7.531888 -2.2884779
4.83042 9.0276041 -2.3637857
5.9446106 11.105263 -2.4484613
7.5738735 14.137065 -2.5401831
9.9865522 18.624847 -2.5948424
12.068373 22.497995 -2.2336273
4.0566549 7.5245891 -2.2905486
4.8631039 9.0166826 -2.3651354
5.9824042 11.082719 -2.4480796
7.6207089 14.111872 -2.5401831
10.042592 18.58115 -2.5933797
12.179067 22.515312 -2.2395539
4.0751305 7.4992123 -2.2869251
4.8889637 8.9893789 -2.3624361
6.0078664 11.042124 -2.4435
7.6746497 14.093858 -2.5417476
10.107396 18.545979 -2.5933797
12.277616 22.509396 -2.2432144
4.1007304 7.4808393 -2.2858899
4.9240584 8.9790945 -2.3642356
6.0388494 11.00282 -2.4396839
7.7214961 14.056978 -2.5401831
10.173034 18.512323 -2.5936236
12.382033 22.51354 -2.247921
4.1240168 7.4614058 -2.284337
4.9437284 8.9371147 -2.3579369
6.0772223 10.981671 -2.4396839
7.7666864 14.02303 -2.5389318
10.266797 18.521791 -2.6002045
12.49629 22.534655 -2.2543705
4.1500354 7.4469657 -2.284337
4.9644547 8.9010801 -2.352988
6.1069064 10.944963 -2.4362495
7.8146291 13.994106 -2.5386188
10.284899 18.402668 -2.5885053
12.625441 22.581322 -2.2634346
4.176949 7.4341183 -2.2848547
4.9974084 8.8870935 -2.3538878
6.139297 10.913314 -2.4339597
7.8663411 13.971906 -2.5395575
10.338358 18.347628 -2.5858238
4.1990676 7.4127684 -2.2827842
5.023592 8.8611193 -2.3516383
6.1696086 10.878154 -2.4309068
7.9179869 13.949516 -2.5404961
10.386657 18.28381 -2.5819242
15.707512 27.638998 -2.7813139
4.2191677 7.3880019 -2.2796783
5.0535283 8.8418369 -2.3511884
6.207541 10.856553 -2.4309068
7.9823332 13.949224 -2.5455019
10.947619 19.115635 -2.7047684
15.776168 27.535591 -2.7764332
4.2458963 7.3749018 -2.280196
5.0760107 8.8132105 -2.3480392
6.2395196 10.824611 -2.428617
8.0236092 13.914121 -2.5439377
10.977218 19.020767 -2.6964815
15.830317 27.407904 -2.7691121
4.2693582 7.3591113 -2.2796783
5.0910859 8.7684746 -2.3408406
6.2773509 10.807257 -2.4293802
8.0701418 13.882615 -2.5433118
11.029575 18.958309 -2.693069
15.881038 27.286373 -2.7621398
4.2969723 7.3474979 -2.2807136
5.121665 8.7506485 -2.3408406
6.30512 10.768335 -2.4255641
8.1255465 13.866288 -2.5455019
11.051486 18.844358 -2.6823444
15.931834 27.155155 -2.7544701
4.3186688 7.3257985 -2.2786431
5.1482167 8.7260046 -2.3390412
6.3366809 10.736118 -2.4232745
8.1779213 13.844641 -2.5467534
11.088917 18.757814 -2.6755197
15.985966 27.030777 -2.7474976
4.3363204 7.2973905 -2.2745018
5.1771226 8.7088861 -2.3390412
6.3640828 10.69706 -2.4194582
8.2237778 13.817451 -2.5467534
11.12262 18.673183 -2.668695
16.043489 26.913204 -2.7412224
4.3575177 7.2779999 -2.272949
5.1984782 8.6757154 -2.3349919
6.3974996 10.67253 -2.418695
8.2536716 13.758169 -2.541122
11.152989 18.576384 -2.660408
16.09161 26.791536 -2.7342498
4.3838921 7.2643995 -2.2734666
5.2247033 8.6508427 -2.3331923
6.4286203 10.640053 -2.4164052
8.2873402 13.705606 -2.5367417
11.138635 18.406563 -2.6416399
16.12932 26.643162 -2.7248371
4.4082217 7.2474012 -2.272949
5.2477736 8.6209011 -2.3300431
6.4585772 10.605809 -2.413734
8.3197079 13.651295 -2.5320485
11.17387 18.32012 -2.6348155
16.207691 26.562891 -2.7223969
4.4314718 7.2286768 -2.2719138
5.2798753 8.6058521 -2.3309429
6.4935036 10.579854 -2.4129708
8.3611097 13.612069 -2.5301714
11.229431 18.267477 -2.6328654
16.252312 26.428082 -2.7143784
4.4485555 7.2000141 -2.2677724
5.3057771 8.5807419 -2.329143
6.5314293 10.558791 -2.4133523
8.3784103 13.534097 -2.5210981
11.273271 18.196104 -2.6282346
16.310858 26.317007 -2.7088006
4.4746852 7.1860814 -2.2682903
5.3295164 8.5522451 -2.3264439
6.5609794 10.524264 -2.410681
8.4088764 13.477953 -2.5160923
11.317788 18.126333 -2.6238472
16.368853 26.205832 -2.7032225
4.5028167 7.1753297 -2.2698431
5.3551931 8.5269861 -2.3246443
6.5997572 10.504627 -2.4114442
8.4085588 13.37326 -2.502013
11.36831 18.066553 -2.6209223
16.419901 26.084457 -2.6965985
4.5247407 7.1546693 -2.2682903
5.3771911 8.499299 -2.3219447
6.6332374 10.476548 -2.4102995
8.4063559 13.271875 -2.4882469
11.396273 17.97846 -2.6136103
16.47456 25.969784 -2.6906722
4.5422153 7.1298475 -2.2651844
5.4068203 8.4804811 -2.3219447
6.6605558 10.442905 -2.4076281
8.4249907 13.199164 -2.4801123
11.439728 17.908453 -2.6092229
16.494068 25.810923 -2.6798646
4.5639396 7.1090751 -2.2636313
5.4285965 8.4526644 -2.3192453
6.701211 10.426199 -2.4091544
8.4409409 13.127951 -2.4719777
11.48186 17.84371 -2.6053228
16.560339 25.716333 -2.6760299
4.5866303 7.0898557 -2.2625961
5.4553022 8.4261684 -2.3174458
6.7418313 10.409337 -2.410681
8.4739561 13.073721 -2.4675977
11.538548 17.788183 -2.6033733
16.613123 25.601547 -2.6701033
44.84206 69.024399 -1.436752
4.6050229 7.0640912 -2.2594905
5.4800243 8.4031343 -2.3160961
6.7770562 10.384094 -2.4102995
8.5021467 13.022388 -2.4632173
11.580095 17.723236 -2.5994735
16.669685 25.493372 -2.6648741
4.6358438 7.0600853 -2.2631137
5.5018296 8.3725548 -2.3129468
6.8114562 10.361562 -2.4102995
8.5432072 12.986032 -2.461966
11.601497 17.621361 -2.5904548
16.701523 25.358088 -2.656507
4.6529999 7.0325818 -2.2594905
5.5317173 8.3575125 -2.3138466
6.8193922 10.295168 -2.4003773
8.5731325 12.937867 -2.4582114
11.635736 17.546394 -2.5850928
16.734859 25.216625 -2.6477914
4.672008 7.0106831 -2.2574198
5.5543675 8.3284264 -2.311147
6.8465667 10.258239 -2.3973243
8.6028833 12.884865 -2.4538314
11.647283 17.431398 -2.5741246
16.778475 25.09181 -2.6408188
4.6912069 6.9838915 -2.2543139
5.5783343 8.2983065 -2.3084476
6.8852177 10.234703 -2.397706
8.6368189 12.833579 -2.4500768
11.664523 17.319433 -2.5638874
16.825781 24.964064 -2.6338465
4.7178588 6.9682498 -2.2548318
5.5955925 8.2584476 -2.3030491
6.9131885 10.199233 -2.3950348
8.6793604 12.7953 -2.4488254
11.685554 17.214157 -2.5546255
16.859098 24.826057 -2.6254795
4.7410631 6.9501433 -2.2543139
5.6229506 8.2398453 -2.3030491
6.9376745 10.158828 -2.3912184
8.7061462 12.74361 -2.4444451
11.733606 17.162205 -2.5526755
16.923162 24.734167 -2.6219933
4.7531476 6.9184594 -2.2491376
5.6483607 8.215354 -2.3016992
6.9602008 10.119588 -2.3874023
8.7505674 12.713148 -2.4444451
11.727009 17.024687 -2.5382948
16.955355 24.605721 -2.6143236
33.335011 48.339912 -3.0773544
4.772872 6.8954706 -2.247067
5.673677 8.1907806 -2.3003495
6.9910126 10.088775 -2.3858757
8.7813873 12.663045 -2.440691
11.797679 16.99996 -2.5407324
16.986584 24.467838 -2.6059566
33.179893 47.757431 -3.0476277
4.7935929 6.8740177 -2.2455142
5.6933131 8.1581383 -2.2967501
7.0149407 10.048216 -2.3820596
8.811964 12.612881 -2.4369364
11.85171 16.957491 -2.5402448
17.035355 24.356144 -2.6003788
33.108189 47.300972 -3.025856
4.8141432 6.8549209 -2.2444789
5.7091322 8.1232691 -2.2922513
7.0482264 10.024897 -2.3820596
8.8446503 12.570662 -2.4344335
11.904454 16.913223 -2.5395136
17.072437 24.237617 -2.593755
33.0186 46.841583 -3.0034564
4.8379622 6.8404965 -2.2449965
5.7337823 8.1011152 -2.2913516
7.0672922 9.9778013 -2.3767169
8.8771496 12.528371 -2.4319305
11.91405 16.801933 -2.5290327
17.117718 24.122643 -2.5878282
33.001522 46.472 -2.9871273
4.8562756 6.8132787 -2.2418907
5.7577796 8.0721111 -2.2891018
7.0969701 9.9422455 -2.3744273
8.9161177 12.486107 -2.4300532
11.955929 16.7307 -2.5248892
17.159676 23.994904 -2.5808558
32.992611 46.100613 -2.9710078
4.8800898 6.7938638 -2.2413731
5.7918744 8.0572844 -2.2909014
7.1270499 9.9110355 -2.3729007
8.9433632 12.427689 -2.4250474
12.002665 16.672749 -2.5224519
17.224691 23.908997 -2.5780668
32.968777 45.729198 -2.9544697
4.8946652 6.7666879 -2.2377496
5.8094215 8.025404 -2.2873023
7.1483598 9.8714457 -2.3690846
8.9752502 12.385168 -2.4225445
12.025259 16.587856 -2.5156271
17.271118 23.806595 -2.5731862
32.944241 45.377178 -2.9387691
4.9170794 6.7504177 -2.2377496
5.8245263 7.990345 -2.2828033
7.1758299 9.8369188 -2.3667948
9.0116177 12.348951 -2.421293
12.066694 16.523336 -2.5122147
17.31885 23.697899 -2.5679567
28.674009 39.206768 -2.5456212
4.9406424 6.730793 -2.2372317
5.8526177 7.9673743 -2.2823534
7.2025352 9.7978954 -2.3637419
9.040431 12.293561 -2.4169128
12.108353 16.453415 -2.5083151
17.365416 23.579721 -2.5620303
4.9618316 6.7079821 -2.2356789
5.8794589 7.9427381 -2.2814536
7.2238388 9.7553406 -2.359544
9.0760174 12.24765 -2.4144099
12.134973 16.369589 -2.5019777
17.376402 23.422947 -2.5515714
4.9782801 6.683743 -2.2330909
5.9057646 7.9231987 -2.2814536
7.2514577 9.7250338 -2.3580177
9.1071281 12.204821 -2.411907
12.17732 16.313347 -2.4995403
17.391958 23.282206 -2.5425072
5.001574 6.6687436 -2.2336085
5.9226499 7.8911004 -2.2778544
7.275414 9.6899452 -2.3553464
9.1309414 12.152441 -2.4075267
12.210334 16.239006 -2.4946656
17.428358 23.170265 -2.5365808
5.0236597 6.6497021 -2.2330909
5.9393845 7.8589811 -2.2742553
7.3020911 9.6550932 -2.3530567
9.1711884 12.122098 -2.4075267
12.23296 16.15728 -2.4883285
17.480257 23.071167 -2.5323973
5.0398307 6.6253214 -2.2305026
5.9656029 7.8366489 -2.2738054
7.3293037 9.6245823 -2.3515301
9.1942921 12.064869 -2.4025209
12.265204 16.082912 -2.4834535
17.525244 22.971891 -2.5278652
5.0605788 6.6046209 -2.2294674
5.9880028 7.812181 -2.2724555
7.3532987 9.5864763 -2.3484771
9.2270393 12.024908 -2.4006436
12.306378 16.026411 -2.4810164
17.555544 22.84581 -2.5207183
29.420593 38.272499 -2.5299206
5.0776668 6.5768552 -2.2263615
6.0119963 7.7814217 -2.270206
7.3751812 9.5423708 -2.3442793
9.2634716 11.976892 -2.3981407
12.365396 15.975896 -2.4805288
17.563541 22.683634 -2.5099111
29.528194 38.108715 -2.5265708
5.0982237 6.5560393 -2.2253263
6.0353765 7.7583656 -2.2693062
7.4036193 9.5103741 -2.3427529
9.2885761 11.927402 -2.3943863
12.389019 15.897229 -2.4746792
17.560518 22.51693 -2.4982321
29.730566 38.108227 -2.5330606
5.1223202 6.5421376 -2.2263615
6.0479975 7.7188444 -2.2639074
7.433908 9.4842243 -2.3423715
9.3155222 11.876257 -2.3906317
12.422377 15.825773 -2.4702919
17.573784 22.372448 -2.4889936
5.152245 6.5309043 -2.2289498
6.0773172 7.700747 -2.2648072
7.456449 9.4415073 -2.3385551
9.3565416 11.838933 -2.3900061
12.447993 15.744945 -2.464442
17.702463 22.375027 -2.4961405
5.1653976 6.5007777 -2.2248087
6.0994387 7.6707921 -2.2625577
7.4734755 9.3954458 -2.3335941
9.3830452 11.787656 -2.3862517
12.490773 15.680588 -2.4615173
17.753138 22.278818 -2.4923055
5.1820216 6.4751678 -2.2222204
6.124958 7.6479354 -2.2621078
7.5049973 9.3677721 -2.3332126
9.4068327 11.733255 -2.3818715
12.533013 15.621403 -2.45908
17.785908 22.160772 -2.4860303
5.2009573 6.4525261 -2.2206676
6.1430511 7.6158919 -2.2589586
7.5351882 9.33846 -2.3324494
9.4328375 11.681908 -2.3781171
12.565012 15.549764 -2.4546924
17.83308 22.061378 -2.4818468
32.68129 40.401264 -2.7233541
5.2246647 6.4358325 -2.2211852
6.153532 7.5773244 -2.2535596
7.5652652 9.3090506 -2.331686
9.4640512 11.641364 -2.3762398
12.60649 15.495688 -2.4527426
17.87225 21.952637 -2.4766176
32.625908 40.060364 -2.7076533
5.2484221 6.4214644 -2.2222204
6.1774788 7.5527797 -2.25266
7.5811687 9.2656832 -2.3271067
9.4971237 11.599084 -2.3743625
12.615201 15.396321 -2.4439681
17.90959 21.8501 -2.4717367
32.638855 39.791832 -2.6971862
5.2597575 6.3896804 -2.2175617
6.2013221 7.5281658 -2.25176
7.6059766 9.2300701 -2.3248169
9.5274925 11.553677 -2.3718596
12.653708 15.333815 -2.4410431
17.945148 21.738295 -2.4661589
32.650364 39.523666 -2.6867189
5.2770991 6.3653307 -2.2154911
6.2225881 7.500473 -2.2499604
7.6205983 9.182312 -2.3194742
9.5677671 11.520347 -2.3718596
12.684316 15.262074 -2.436656
17.976305 21.614153 -2.4595351
5.3065844 6.3533607 -2.2180793
6.2437358 7.472723 -2.2481608
7.6491632 9.1482973 -2.3179479
9.5921774 11.463994 -2.3674796
12.719679 15.19639 -2.4332435
18.01325 21.505463 -2.4543056
5.3274879 6.3333192 -2.2175617
6.2560205 7.4318995 -2.2427619
7.6810522 9.1215391 -2.3179479
9.6168642 11.412312 -2.3637249
12.744575 15.113251 -2.4273939
18.052244 21.399809 -2.449425
5.3445635 6.3087916 -2.2154911
6.2856731 7.417058 -2.2445617
7.7077599 9.0886869 -2.3164213
9.659771 11.386381 -2.3649766
12.76893 15.040634 -2.422519
18.088137 21.291105 -2.4441955
5.3616958 6.2866225 -2.2139382
6.3064632 7.3891435 -2.2427619
7.7251115 9.0481434 -2.3126051
9.6917562 11.343583 -2.3630993
12.803292 14.974852 -2.4191067
18.114607 21.179531 -2.4382691
5.3747973 6.2576079 -2.2103145
6.3322201 7.3670831 -2.2427619
7.7489715 9.0121899 -2.3103154
9.7158365 11.291713 -2.359345
12.824396 14.893967 -2.4132569
18.136423 21.055782 -2.4312966
5.3966064 6.2388091 -2.2103145
6.3502431 7.3360953 -2.2400625
7.7765245 8.9806347 -2.3091705
9.7448406 11.245789 -2.356842
12.845099 14.813114 -2.4074073
18.173248 20.950209 -2.4264159
5.4196224 6.2213898 -2.2108324
6.3706889 7.3080101 -2.2382631
7.800086 8.9445543 -2.3068807
9.765851 11.190869 -2.3524618
12.878452 14.74725 -2.403995
18.217426 20.853636 -2.422581
5.4400268 6.200985 -2.2103145
6.3923049 7.281333 -2.2369132
7.8157096 8.8995771 -2.3023016
9.8048573 11.15671 -2.3524618
12.911496 14.68134 -2.4005826
18.248003 20.742046 -2.4170032
5.455246 6.1747179 -2.2077267
6.4150991 7.2560568 -2.2360134
7.8298211 8.8531208 -2.2973404
9.8542137 11.134253 -2.3549647
12.933714 14.603483 -2.3952203
18.293863 20.648399 -2.4135168
5.4703479 6.1484199 -2.2051384
6.4429822 7.2365289 -2.2369132
7.8659019 8.8315973 -2.2988667
9.8825073 11.087987 -2.3524618
12.979315 14.552331 -2.3942454
18.326042 20.539812 -2.4082875
5.4879069 6.1249719 -2.2035854
6.4656034 7.2110906 -2.2360134
7.8940587 8.8011656 -2.2981036
9.9053202 11.035779 -2.3487074
13.00616 14.48035 -2.389858
18.360348 20.434216 -2.4034069
5.5105505 6.1072116 -2.2041032
6.4815879 7.1783571 -2.2328641
7.9128904 8.7604418 -2.2946692
9.9411259 10.998213 -2.3480816
13.024671 14.399525 -2.3840082
18.388773 20.322739 -2.3978288
33.071785 36.524307 -2.5822563
5.5253348 6.0807939 -2.201515
6.5000525 7.148478 -2.2306147
7.9368148 8.7255077 -2.2927611
9.9741402 10.957599 -2.3468301
13.053464 14.330494 -2.3801084
18.416666 20.211294 -2.3922508
33.131783 36.334854 -2.5770228
5.5491366 6.0643182 -2.2025502
6.5223327 7.1228724 -2.2297149
7.9460039 8.6745872 -2.2866549
10.025674 10.937279 -2.3499587
13.079258 14.258508 -2.3757212
18.460155 20.117529 -2.3887646
5.5584912 6.032124 -2.1978915
6.5485601 7.1040673 -2.2306147
7.9709148 8.6410246 -2.2851286
10.010986 10.848804 -2.3380699
13.104918 14.191725 -2.3718214
18.505934 20.026625 -2.385627
5.5771518 6.0122409 -2.1973739
6.565362 7.072598 -2.2279153
7.9968557 8.6116648 -2.2843654
10.011141 10.773277 -2.3293095
13.157077 14.148804 -2.372309
18.517958 19.906799 -2.3786545
5.5954657 5.9899135 -2.1963384
6.5846896 7.0439415 -2.2261157
8.0161381 8.5722275 -2.2813125
10.054087 10.744033 -2.3305609
13.168397 14.062217 -2.3654842
18.560097 19.81295 -2.3751683
33.151524 35.36459 -2.5403874
5.6242805 5.9787893 -2.1994443
6.6092358 7.020915 -2.2261157
8.0379343 8.5356197 -2.2790227
10.083399 10.700249 -2.3286836
13.187721 13.989585 -2.3606093
18.60453 19.72196 -2.3720307
33.225422 35.196362 -2.5366194
5.6268096 5.9418688 -2.1927149
6.6311421 6.9975424 -2.2256656
8.0553913 8.4975176 -2.2759697
10.099796 10.646686 -2.3243036
13.22311 13.934251 -2.3586593
18.631418 19.619699 -2.3671501
33.185085 34.920963 -2.5246868
5.6491475 5.9259753 -2.1937504
6.6502743 6.9712858 -2.2243161
8.0767479 8.4636583 -2.2740617
10.12686 10.604565 -2.3224263
13.252467 13.86792 -2.355247
18.644058 19.503082 -2.3605261
33.2593 34.767422 -2.5215466
5.6604323 5.8964653 -2.1901269
6.6786194 6.9522433 -2.2256656
8.1007996 8.4297533 -2.2725353
10.147387 10.552063 -2.3186719
13.287035 13.80727 -2.3528099
18.692682 19.417784 -2.3580859
63.002785 65.3554 -1.5845389
5.6850104 5.880836 -2.1916797
6.6933613 6.9190855 -2.2225163
8.1301775 8.4014225 -2.2725353
10.170414 10.502389 -2.3155432
13.318576 13.743695 -2.349885
18.73538 19.32667 -2.354948
33.231438 34.256256 -2.5012403
5.7014599 5.8568044 -2.1901269
6.7093148 6.8873019 -2.2198169
8.145751 8.3589325 -2.268719
10.195982 10.455506 -2.3130403
13.341503 13.671556 -2.3454976
18.772118 19.229784 -2.3511133
33.264259 34.051491 -2.4947507
5.7191653 5.834106 -2.1890914
6.7483225 6.8791475 -2.224766
8.1556311 8.3108282 -2.2633765
10.196424 10.383215 -2.3049057
13.372452 13.607908 -2.3425727
18.788832 19.113003 -2.3448381
5.7232108 5.7976069 -2.1828799
6.7640781 6.8472295 -2.2220664
8.1818333 8.2795153 -2.2626133
10.221496 10.336319 -2.3024027
13.397527 13.538574 -2.3386729
18.818995 19.010481 -2.340306
33.200367 33.514782 -2.4723508
5.744772 5.7789688 -2.1833978
6.7893147 6.8249564 -2.2225163
8.2023697 8.2425604 -2.2603235
10.246367 10.289377 -2.2998998
13.425091 13.472037 -2.3352606
18.84586 18.905161 -2.3354251
33.246639 33.32798 -2.4671173
5.762177 5.7561479 -2.1823623
6.8117161 6.79984 -2.2220664
8.2283144 8.2111025 -2.2595603
10.276623 10.24797 -2.2986481
13.452353 13.405471 -2.3318481
18.87221 18.799894 -2.3305445
33.184429 33.034168 -2.4539285
5.7849765 5.7387218 -2.1833978
6.8284922 6.7691598 -2.2198169
8.2457685 8.1712761 -2.2565072
10.312335 10.212032 -2.2986481
13.48213 13.34168 -2.3289232
18.898064 18.694664 -2.3256638
33.265442 32.884445 -2.4514165
5.7953405 5.7090011 -2.179774
6.8453469 6.7410107 -2.2180173
8.2658482 8.1341791 -2.2542176
10.337692 10.169471 -2.296771
13.517803 13.288552 -2.327461
18.934774 18.600664 -2.3221776
33.211849 32.614426 -2.4394839
5.8087163 5.6843486 -2.1777036
6.8716211 6.7198019 -2.2189171
8.2815466 8.0957432 -2.2511647
10.375951 10.136086 -2.2973969
13.53854 13.21632 -2.3230736
18.945013 18.487679 -2.3159022
33.274025 32.448086 -2.4357157
34.016243 33.148727 -0.82905912
5.8299108 5.6653829 -2.1782212
6.8838534 6.6849122 -2.215318
8.301302 8.0585823 -2.2488749
10.414108 10.102553 -2.2980225
13.581738 13.16622 -2.3225861
18.997992 18.410339 -2.314508
33.269428 32.217819 -2.4271326
34.255322 33.149387 -0.83206093
5.8524299 5.6476817 -2.1792564
6.8945198 6.6486688 -2.2112689
8.3322067 8.0322828 -2.2496383
10.457848 10.07436 -2.2998998
13.601877 13.093947 -2.3181989
