# .PCD v0.7 - Point Cloud Data file format
VERSION 0.7
FIELDS x y z
SIZE 4 4 4
TYPE F F F
COUNT 1 1 1
WIDTH 1534
HEIGHT 1
VIEWPOINT 0 0 0 1 0 0 0
POINTS 1534
DATA ascii
22.058178 15.71653 -2.3695903
26.133049 18.606142 -1.6812403
26.127443 18.588394 -0.55969864
6.4382348 4.5669675 -2.1150692
26.288738 18.641026 0.56252599
7.4818344 5.3033204 -2.1172395
8.9561625 6.3460159 -2.1336262
10.962816 7.7621121 -2.1275089
14.307473 10.122757 -2.151969
22.103138 15.632539 -2.3685443
26.194582 18.512495 -1.6810311
26.298332 18.572079 -0.56196749
6.4494004 4.5411277 -2.1135163
26.559683 18.694174 0.56692398
7.5050831 5.2805343 -2.1185889
8.962204 6.3034177 -2.1298101
10.981766 7.7181153 -2.1259446
14.327967 10.066131 -2.1500192
22.141272 15.543836 -2.3668013
26.422544 18.535654 -1.6914982
26.569347 18.63172 -0.56643528
6.4739223 4.5263591 -2.1166222
7.5161619 5.2511549 -2.1167896
8.9685717 6.2635431 -2.1263754
10.999198 7.6760058 -2.1243804
14.344992 10.0072 -2.1475818
22.150196 15.440708 -2.3622692
26.655941 18.567802 -1.7024889
26.78196 18.648643 -0.5696466
6.4746141 4.4949522 -2.1119635
27.067507 18.784395 0.57509166
7.536737 5.2284203 -2.1176891
8.9812231 6.2281809 -2.1244676
11.016477 7.6338611 -2.1228158
14.370041 9.9502888 -2.1461194
22.158688 15.337682 -2.3577371
26.883282 18.594051 -1.7130607
27.01469 18.671005 -0.57320684
6.4918571 4.4734187 -2.1124811
27.287714 18.796436 0.57837278
7.5469155 5.1965566 -2.1154397
9.0045271 6.1979032 -2.1248491
11.034917 7.5897641 -2.1212516
14.391597 9.8910751 -2.1441696
22.18581 15.242193 -2.354948
27.099508 18.604084 -1.7226905
27.214914 18.669355 -0.57606906
6.5042443 4.4485469 -2.1114457
27.485218 18.791365 0.58116519
7.5505314 5.1602831 -2.1113906
9.0244875 6.1653242 -2.1244676
11.049924 7.5433998 -2.1190615
14.409634 9.8295946 -2.141732
22.219133 15.151182 -2.3528564
27.339228 18.628609 -1.7337857
27.474968 18.707041 -0.58018786
6.5213308 4.4269032 -2.1119635
27.709497 18.803093 0.58451599
7.5717211 5.1360841 -2.1122904
9.0232038 6.1183615 -2.1191249
11.074553 7.5036764 -2.1187487
14.437284 9.7747803 -2.1407571
22.245487 15.055657 -2.3500674
27.577808 18.650537 -1.7447762
27.725662 18.736429 -0.58409715
6.5351419 4.4030309 -2.1114457
28.010483 18.864883 0.58947247
7.5896025 5.1096244 -2.1122904
9.0314779 6.0780559 -2.1160717
11.09084 7.4583616 -2.1168714
14.454844 9.7132502 -2.1383197
22.258204 14.951266 -2.3458838
27.833456 18.682158 -1.7568135
27.947008 18.744228 -0.5873782
6.5392275 4.3726797 -2.1078224
28.245741 18.880333 0.59303278
7.617116 5.0895948 -2.1149898
9.0559006 6.0486808 -2.1168351
11.106951 7.4130201 -2.1149943
14.47875 9.6561279 -2.1368573
22.270475 14.84695 -2.3417006
28.078014 18.704481 -1.768118
28.195385 18.768442 -0.59121776
6.5512333 4.3476887 -2.1067872
28.531439 18.927538 0.59764022
7.6299624 5.0597458 -2.1136403
9.0638685 6.0083518 -2.1137822
11.112996 7.3611159 -2.1112397
14.509059 9.6033335 -2.1363697
22.292252 14.749336 -2.3385627
28.316408 18.720903 -1.779004
28.46093 18.802197 -0.59540629
6.579277 4.333293 -2.1109281
28.75098 18.929012 0.60085148
7.6329284 5.0234375 -2.109591
9.0815077 5.9745159 -2.113019
11.12542 7.3135958 -2.1087368
14.522577 9.5395613 -2.1334448
22.303633 14.64518 -2.3343792
28.5686 18.74468 -1.7907274
28.737103 18.840876 -0.59980428
6.5927453 4.3092446 -2.1104105
28.990984 18.942282 0.60448158
7.6487865 4.9956951 -2.1091411
9.0957317 5.9384885 -2.1114926
11.142612 7.2693172 -2.1071725
14.529182 9.4714603 -2.1295452
22.321239 14.545476 -2.330893
28.814625 18.762539 -1.8020319
28.956898 18.840792 -0.60301554
6.5996447 4.2809472 -2.1078224
29.258268 18.971531 0.60867018
7.6661754 4.9689708 -2.1091411
9.1065207 5.9002948 -2.1092029
11.156305 7.2228699 -2.1049824
14.558826 9.4185266 -2.1290576
22.314983 14.430701 -2.3249664
29.094669 18.800587 -1.8154299
29.254324 18.889282 -0.60783243
6.6031761 4.250566 -2.1041989
29.512661 18.990469 0.61257946
7.6933084 4.948504 -2.1118405
9.1204538 5.8642249 -2.1076763
11.173142 7.1785421 -2.1034181
14.568225 9.3526392 -2.1256454
22.335041 14.333345 -2.3218288
29.358501 18.826134 -1.827781
29.549122 18.941093 -0.61264926
6.6261129 4.2326922 -2.1067872
29.808029 19.041061 0.61739635
7.6981797 4.9156213 -2.1086912
9.137557 5.8302431 -2.1069131
11.180233 7.1308255 -2.1002893
14.599161 9.3042727 -2.1256454
22.347961 14.231752 -2.3179941
29.609482 18.848791 -1.8395045
29.804033 18.958044 -0.61655867
6.6335869 4.2065558 -2.1047165
30.053343 19.050369 0.62109625
7.6938915 4.8751616 -2.1028426
9.1468916 5.7936044 -2.1046233
11.208393 7.0938711 -2.100915
14.601349 9.2341604 -2.1212578
22.331041 14.117104 -2.3113701
29.86759 18.866926 -1.8514371
30.018841 18.947811 -0.61963022
6.6564074 4.1885176 -2.1073048
30.329548 19.077377 0.62542444
7.7059135 4.845161 -2.1014926
9.1653986 5.7605934 -2.1042418
11.216361 7.0441942 -2.0977864
14.606588 9.166256 -2.1173582
22.329554 14.007299 -2.3061409
30.139721 18.89197 -1.864207
30.322062 18.991505 -0.6245169
6.6677094 4.1632118 -2.1062696
30.609707 19.10479 0.62982243
7.7260838 4.8203015 -2.1023927
9.1671257 5.7171388 -2.100044
11.23585 7.0018673 -2.0968478
14.621647 9.1047163 -2.1149206
22.320799 13.893477 -2.3002143
30.419178 18.919546 -1.8773956
30.588659 19.017555 -0.6287055
6.6674228 4.1307535 -2.1016109
30.927881 19.161144 0.63505816
7.7370563 4.7915745 -2.1010427
9.1920347 5.6882014 -2.1011887
11.247246 6.9572964 -2.0946577
14.645007 9.052001 -2.1139457
22.284401 13.763136 -2.2914989
30.712887 18.961254 -1.891631
30.8727 19.045059 -0.63317335
6.6843739 4.1106458 -2.1026461
31.192181 19.174568 0.63910717
7.7421136 4.7573934 -2.0978935
9.2141924 5.6597452 -2.1019521
11.264731 6.9138584 -2.0934062
14.662971 8.9925318 -2.1119957
22.255182 13.643337 -2.283829
30.996874 18.98749 -1.9050289
31.164127 19.074968 -0.63778079
6.6986809 4.0872893 -2.1026461
31.474033 19.196762 0.64350516
7.7520189 4.7262802 -2.0960939
9.2188025 5.6183534 -2.0985174
11.280362 6.8693552 -2.0918419
14.694274 8.9412899 -2.1119957
22.234585 13.524149 -2.2768564
31.274607 19.007795 -1.9180083
31.4869 19.121773 -0.64301646
6.711256 4.0628796 -2.1021285
31.811169 19.250351 0.64902014
7.7651315 4.6971798 -2.0951941
9.2316408 5.5820742 -2.0969911
11.292432 6.8227935 -2.0896518
14.708405 8.8796806 -2.1095586
22.285061 13.448528 -2.2772052
31.583645 19.044956 -1.9328718
31.738441 19.123194 -0.64678615
6.7253947 4.0394325 -2.1021285
32.073608 19.256538 0.65299922
7.7881656 4.6740551 -2.0969937
9.2375975 5.5417423 -2.0939381
11.317876 6.7843475 -2.0899646
14.722279 8.8180876 -2.1071212
22.307941 13.356321 -2.2747648
31.872738 19.067896 -1.9464791
32.117397 19.19902 -0.65313888
6.7228589 4.006041 -2.096952
32.37429 19.28363 0.65774632
7.7943859 4.6408606 -2.0942943
9.2535124 5.507453 -2.0931747
11.329602 6.7377334 -2.0877745
14.73932 8.7585268 -2.1051712
22.374979 13.290585 -2.2768564
32.186436 19.103308 -1.9615519
32.397476 19.213299 -0.65746707
6.7384658 3.9835308 -2.0974696
32.761616 19.359734 0.66423857
7.8055062 4.6106496 -2.0929446
9.2693014 5.4731197 -2.0924115
11.330936 6.6850929 -2.0837073
14.756121 8.6989613 -2.1032214
22.5002 13.258925 -2.2848749
32.483536 19.126637 -1.9755778
32.70565 19.242048 -0.66235375
6.7583051 3.9650722 -2.0995402
32.98777 19.346085 0.66751963
7.8089833 4.5778432 -2.0897954
9.2874012 5.442349 -2.0924115
11.347928 6.6444893 -2.0827687
14.771178 8.641964 -2.1012714
22.619715 13.228499 -2.2925446
32.781307 19.155863 -1.9898132
32.983414 19.258507 -0.66668189
6.777112 3.9443734 -2.1010931
33.345493 19.399748 0.67338371
7.8282857 4.5525136 -2.0906951
9.2978544 5.4049649 -2.0905035
11.362514 6.5998735 -2.0812044
14.794389 8.5863609 -2.1002965
22.614058 13.119461 -2.2873154
33.10371 19.189552 -2.0053048
33.29615 19.285583 -0.67163843
6.7791276 3.9139328 -2.0974696
33.672794 19.433172 0.67861938
7.8424406 4.524188 -2.0902452
9.3047581 5.3656135 -2.0878322
11.380345 6.5572143 -2.0802658
14.793306 8.5168343 -2.0959091
22.563007 12.984797 -2.2775538
33.437134 19.2272 -2.0214241
33.640694 19.328627 -0.67722315
6.7826891 3.8844864 -2.0943637
34.035454 19.484398 0.68455321
7.8564949 4.4958158 -2.0897954
9.3251333 5.3340774 -2.0882137
11.391162 6.5105848 -2.0780756
14.812602 8.4592409 -2.0944467
22.521685 12.856565 -2.2688382
33.760807 19.256824 -2.0369155
33.972031 19.361593 -0.68252873
6.7962079 3.8607848 -2.0943637
34.287579 19.470148 0.6882531
7.8619709 4.4625931 -2.087096
9.3419905 5.3005228 -2.0878322
11.398352 6.4620175 -2.0752599
14.838583 8.40553 -2.0939593
22.510941 12.74646 -2.2632601
34.099003 19.292278 -2.0532444
34.269287 19.380747 -0.68720597
6.8062787 3.8351398 -2.0933285
34.655094 19.527138 0.69432652
7.8733292 4.4345865 -2.0861959
9.3535938 5.2640276 -2.0863059
11.409386 6.4183745 -2.0733826
14.83869 8.3407106 -2.0900595
22.492765 12.632675 -2.2569852
34.417057 19.32185 -2.0685265
34.647175 19.435137 -0.69341904
6.8290734 3.8182094 -2.0964344
35.072159 19.601171 0.70130754
7.8853593 4.4051733 -2.0852964
9.3692837 5.2320256 -2.0859239
11.428273 6.3765817 -2.072757
14.846907 8.2772665 -2.0871346
22.475357 12.525046 -2.2510586
34.784428 19.368725 -2.08653
34.9245 19.430733 -0.69760758
6.8339138 3.7896621 -2.0938461
35.378231 19.610466 0.70605457
7.8972788 4.3757343 -2.0843966
9.3789005 5.1945348 -2.0840161
11.447003 6.3347392 -2.0721312
14.858338 8.2157812 -2.0846972
22.459656 12.413741 -2.245132
35.440315 19.556055 -0.70654321
6.8352518 3.7592654 -2.0902226
35.733837 19.644869 0.71177894
7.907382 4.3453231 -2.0830467
9.4004183 5.1636519 -2.0847793
11.449999 6.2842855 -2.0686896
14.879961 8.160059 -2.0837224
22.415493 12.287386 -2.2364163
35.750446 19.564697 -0.7113601
6.8483319 3.7353845 -2.0902226
36.090137 19.676992 0.71750337
7.9242134 4.318625 -2.0834966
9.4183846 5.1308093 -2.0847793
11.470133 6.2433324 -2.0683768
14.890917 8.0985794 -2.0812848
22.398733 12.176705 -2.2304897
36.011848 19.544718 -0.71519965
6.8562326 3.7086976 -2.0886698
36.573738 19.775345 0.72574091
7.927237 4.2844582 -2.0803473
9.4327841 5.0960331 -2.0840161
11.479683 6.1966953 -2.0661867
14.891143 8.0314703 -2.0773852
22.399004 12.075768 -2.2263062
6.8776474 3.6893094 -2.0912578
36.818771 19.742062 0.72923136
7.9404273 4.2558379 -2.0798974
9.4401331 5.0575099 -2.0817263
11.494279 6.152854 -2.0649352
14.894579 7.9663372 -2.0739727
22.370741 11.959929 -2.2193336
37.076138 19.805143 -2.2029254
36.856613 19.671326 -0.72923136
6.8870721 3.6634665 -2.0902226
7.9603968 4.2308402 -2.0812473
9.4438562 5.0171647 -2.0786731
11.508705 6.1089911 -2.0636837
14.911775 7.9087114 -2.0725102
22.310257 11.827634 -2.2092237
37.017975 19.608282 -2.1953888
37.190166 19.682871 -0.73446709
6.8895664 3.6339941 -2.0871167
7.9802895 4.2057509 -2.0825968
9.4630499 4.9850812 -2.0790551
11.515978 6.0614181 -2.0611808
14.932261 7.8529186 -2.0715353
22.312607 11.729293 -2.2053888
36.976559 19.421371 -2.1888993
37.609238 19.736931 -0.74137825
6.905633 3.6117156 -2.0881522
7.9741969 4.1670361 -2.077198
9.4647303 4.94384 -2.0756204
11.516052 6.0102124 -2.0574262
14.937099 7.7923436 -2.0686104
22.265078 11.605285 -2.1966732
36.976818 19.257114 -2.1849217
38.029236 19.796764 -0.7483592
6.9055691 3.5825663 -2.0845287
38.386917 19.906391 0.75478166
7.97932 4.1360874 -2.0749483
9.4810743 4.9124241 -2.0756204
11.539428 5.9738092 -2.0580521
14.945228 7.7336407 -2.0661731
22.243263 11.500281 -2.1907468
37.04047 19.134396 -2.1849217
38.428707 19.843037 -0.75492126
6.9191284 3.5605321 -2.0850463
38.477619 19.79178 0.7552703
7.9912577 4.1087146 -2.0744987
9.4798498 4.871985 -2.0718043
11.545117 5.9282885 -2.0555491
14.940344 7.6651106 -2.0617857
22.189093 11.379174 -2.1816826
37.032627 18.975021 -2.1807349
38.551136 19.736122 -0.75596845
6.9315157 3.5363562 -2.0850463
38.817234 19.795464 0.76057589
8.0107613 4.0834479 -2.0758483
9.4845562 4.832623 -2.0691328
11.569261 5.8897471 -2.056175
14.956388 7.607522 -2.0603232
22.122114 11.247475 -2.1712239
37.080826 18.836597 -2.1796882
38.794548 19.690117 -0.7593891
6.9334736 3.5069091 -2.0819407
39.243019 19.840284 0.76755685
8.0232286 4.0545797 -2.0753984
9.5031176 4.8003731 -2.0695145
11.568588 5.8386436 -2.0524204
14.975763 7.5516891 -2.0593483
22.097195 11.137897 -2.1649487
37.121372 18.694479 -2.1782227
6.9508543 3.485281 -2.0834932
8.0268755 4.0213165 -2.0726991
9.5127964 4.7636533 -2.0679879
11.572995 5.7902789 -2.0496047
14.980728 7.4887128 -2.0564234
22.093155 11.039337 -2.1607652
37.054173 18.49876 -2.1704769
39.797157 19.850805 -0.77628309
6.9612489 3.4601352 -2.0829759
40.096912 19.921736 0.78151876
8.0321379 3.9889371 -2.0704496
9.5258512 4.7286701 -2.0672247
11.598447 5.7524767 -2.0505433
14.978316 7.4222755 -2.0525236
22.072767 10.928215 -2.1548386
36.960991 18.291357 -2.1612659
40.081314 19.818115 -0.78047162
6.9704175 3.4328923 -2.0819407
40.704391 20.04669 0.79199022
8.0407677 3.9582951 -2.0690999
9.5307856 4.6876607 -2.0645535
11.61768 5.7090592 -2.0502305
14.997008 7.3664417 -2.0515487
22.060692 10.826537 -2.1499579
37.038548 18.161032 -2.1618938
6.9806194 3.4076974 -2.081423
41.13702 20.07276 0.79897118
8.0622282 3.9322124 -2.0708995
9.5347357 4.6483431 -2.0618823
11.616227 5.6580873 -2.0464759
14.998918 7.2992682 -2.0481365
22.017807 10.705516 -2.1419394
36.825077 17.897194 -2.1457746
6.9791512 3.375355 -2.0772817
41.566883 20.103159 0.80595213
8.0741501 3.9031997 -2.0704496
9.5552454 4.6150703 -2.0626454
11.627991 5.6111841 -2.0449116
15.010002 7.2399635 -2.0461864
21.983242 10.59401 -2.1349669
36.843636 17.739584 -2.1430531
41.515297 19.979984 -0.80420691
6.994946 3.3559213 -2.0788348
8.0729914 3.8696628 -2.0668504
9.5661554 4.5833344 -2.0618823
11.627746 5.5660939 -2.0417829
15.023181 7.1850128 -2.044724
21.937328 10.487081 -2.1272974
36.852329 17.601357 -2.1403315
41.935181 20.020035 -0.81111807
7.0101075 3.3331409 -2.07987
8.0752192 3.8378532 -2.0641508
9.5785503 4.5482278 -2.0611188
11.642568 5.5258121 -2.041157
15.025404 7.1249452 -2.0417993
21.898174 10.374618 -2.1199763
36.885231 17.467077 -2.1388662
7.0176253 3.3082335 -2.0788348
8.0868034 3.8088093 -2.0637012
9.5900249 4.5147729 -2.0603557
11.654638 5.4817724 -2.0399058
15.021436 7.0589471 -2.0378993
21.890974 10.277788 -2.1157928
36.83749 17.287315 -2.1325858
43.0299 20.175001 -0.82954776
7.0192022 3.2775846 -2.0757289
8.0965166 3.7789111 -2.0628011
9.5887156 4.4712939 -2.0565395
11.676441 5.4398561 -2.0402186
15.038784 7.0031204 -2.0369244
21.854456 10.167698 -2.1088202
36.853516 17.130283 -2.1298645
7.0270929 3.2514422 -2.0746937
8.1103144 3.7492085 -2.0628011
9.598917 4.4353271 -2.0553946
11.684599 5.3940935 -2.0383413
15.039118 6.9363112 -2.0335121
21.799349 10.049638 -2.1001048
36.713531 16.909634 -2.1183503
104.14786 47.94672 -2.0013022
7.041913 3.2285016 -2.0757289
8.1156158 3.7190475 -2.0610015
9.6072016 4.3985224 -2.0538683
11.697031 5.3528523 -2.0374026
15.062036 6.8864045 -2.0335121
21.794426 9.9552765 -2.0962698
36.787571 16.796099 -2.1193972
44.497803 20.297592 -0.85370195
7.0525808 3.2051301 -2.0757289
8.1179008 3.6858637 -2.0583022
9.6306753 4.3706937 -2.0557761
11.72284 5.3152552 -2.0386541
15.064283 6.8239517 -2.0305872
21.791016 9.8665171 -2.0927837
36.678562 16.591841 -2.1097672
45.027592 20.349661 -0.86249793
7.065485 3.1812901 -2.0762465
8.1289406 3.656703 -2.0578523
9.6387081 4.3338361 -2.0542498
11.744928 5.2759175 -2.0392799
15.055411 6.7567 -2.0262001
21.767155 9.7642908 -2.0872056
36.63419 16.417974 -2.1039057
7.0730195 3.1550319 -2.0752113
8.1523361 3.6330667 -2.0605516
9.6466045 4.2969661 -2.0527232
11.752443 5.230072 -2.0374026
15.07528 6.7024889 -2.0257125
21.750122 9.6655989 -2.082325
36.643818 16.268915 -2.1011841
46.133709 20.462936 -0.88092768
7.0698543 3.1240749 -2.0710702
8.1596203 3.6022241 -2.059202
9.6615467 4.2632642 -2.0527232
11.759785 5.1842322 -2.0355256
15.080412 6.6418343 -2.0232751
21.736322 9.5687418 -2.0777929
36.554115 16.076607 -2.0928104
7.0807157 3.0993791 -2.0710702
8.1667891 3.5713751 -2.0578523
63.756763 27.881132 3.6468747
9.6763678 4.2295156 -2.0527232
11.761518 5.1360335 -2.0327096
15.088949 6.5827985 -2.0213251
21.729412 9.4752827 -2.0739582
36.390285 15.853178 -2.0802498
47.36832 20.625822 -0.90180075
7.0950365 3.0761788 -2.0721054
8.1678581 3.5396261 -2.0551529
9.6838684 4.1925902 -2.0511968
11.767607 5.092298 -2.0308325
15.096122 6.5264201 -2.0193753
21.703817 9.3741102 -2.0683799
36.442661 15.732407 -2.0802498
47.807266 20.618748 -0.90878171
7.1051984 3.0526352 -2.0721054
8.1747904 3.5087891 -2.053803
9.6904993 4.1573601 -2.0496705
11.790757 5.0535274 -2.0317712
15.085966 6.4596162 -2.0149879
21.679838 9.2785625 -2.0631506
36.42757 15.575253 -2.0762722
7.105144 3.023278 -2.0689995
8.1869898 3.4802301 -2.053803
9.686882 4.1158328 -2.0458541
11.786506 5.0030742 -2.0280166
15.090144 6.3991699 -2.0125504
21.660732 9.1810532 -2.05827
36.430222 15.426205 -2.0733414
7.1049728 2.9939549 -2.0658937
8.1954947 3.4501202 -2.0529034
9.7048101 4.0835152 -2.0466175
11.805717 4.9626689 -2.0283296
15.105068 6.3433852 -2.0115755
21.63386 9.0807152 -2.0526922
7.118947 2.9706218 -2.0669291
8.1966972 3.4169908 -2.0502038
9.7117577 4.0465908 -2.0450909
11.791967 4.9085207 -2.0230107
15.108787 6.2830009 -2.0091381
21.580797 8.9699621 -2.0446737
36.24189 15.048966 -2.0565939
7.1328435 2.9472311 -2.0679643
8.2031698 3.3861294 -2.0488544
9.7258224 4.0126677 -2.0450909
11.799897 4.8635678 -2.0214465
15.107515 6.2237859 -2.0062132
21.57144 8.8778982 -2.0408387
36.342236 14.942105 -2.0593154
51.019573 20.966282 -0.96281439
7.140789 2.9228311 -2.0674467
8.2089415 3.3566966 -2.0475044
9.7354403 3.9789102 -2.0443277
11.810472 4.8221731 -2.0205078
15.087637 6.1571555 -2.0008512
21.526966 8.7762232 -2.0338664
36.521069 14.874232 -2.0666425
7.1397014 2.894778 -2.0643408
8.2236395 3.3309216 -2.0484045
9.734025 3.9407084 -2.0412748
11.819074 4.7800221 -2.0192564
15.094314 6.0984993 -1.9989011
21.50943 8.6816425 -2.0293343
36.888771 14.881571 -2.084646
7.1395049 2.8642759 -2.061235
8.2388344 3.3036435 -2.0493042
9.7520475 3.906467 -2.042038
11.834682 4.7359281 -2.0189433
15.097077 6.038404 -1.9964637
21.4545 8.5724964 -2.0213161
37.377121 14.919536 -2.1091392
53.182972 21.217844 -0.99946439
7.1494603 2.839335 -2.061235
8.2436409 3.2705517 -2.0475044
9.7491989 3.8658864 -2.0386035
11.82359 4.6836839 -2.0142503
15.111727 5.9801049 -1.9954888
21.428705 8.475585 -2.0160866
37.833912 14.948962 -2.1319575
7.1665182 2.8171937 -2.0633056
8.2386837 3.235343 -2.0434554
9.7571526 3.8296771 -2.0374587
11.838031 4.6416593 -2.0139375
15.110327 5.9186339 -1.9925638
21.428476 8.3891058 -2.0132976
38.157433 14.923023 -2.1472399
7.1799097 2.7935596 -2.0643408
8.2553749 3.2086844 -2.044805
9.7741184 3.7970238 -2.0382218
11.846792 4.5974522 -2.012686
15.11609 5.8601089 -1.9906142
21.394466 8.2897758 -2.0073709
7.1697869 2.7608421 -2.0586467
43.655319 16.80146 0.81649333
8.2683449 3.1805456 -2.0452549
9.7799845 3.760062 -2.0366955
11.86277 4.5560679 -2.012686
15.117918 5.8002 -1.9881767
21.382345 8.1993542 -2.0035362
7.1784248 2.7383051 -2.0586467
43.618217 16.630003 0.81481797
8.2728319 3.1524744 -2.0439053
9.7850609 3.724813 -2.0351689
11.856715 4.5110536 -2.0092444
15.154623 5.7597256 -1.9906142
21.349812 8.1057777 -1.9979583
7.1847982 2.7106109 -2.0576115
43.652676 16.460155 0.81432933
8.2752142 3.1186931 -2.0416558
9.7949715 3.6875427 -2.0344057
11.865775 4.4647803 -2.007993
15.194212 5.7111297 -1.9930513
21.330883 8.0092573 -1.9934262
37.726257 14.150322 -2.1116514
7.1928744 2.6835854 -2.0570939
43.705215 16.297264 0.81418961
8.2719803 3.0828996 -2.0380566
9.8041058 3.6519563 -2.0336425
11.867249 4.4157519 -2.0054901
15.174106 5.6401901 -1.9876893
21.332561 7.9250407 -1.9909858
7.2058229 2.6597972 -2.0581291
8.283987 3.0561237 -2.0385065
9.8057404 3.6136398 -2.0313528
11.874412 4.3736396 -2.0042386
15.181549 5.5857229 -1.9862267
21.315214 7.8340263 -1.9868023
7.2127891 2.6352255 -2.0576115
8.2964354 3.0278587 -2.0389564
9.817668 3.5811052 -2.0313528
11.891462 4.3328424 -2.0045516
15.182299 5.5259085 -1.9837892
21.288649 7.7442327 -1.9819216
7.2074099 2.6047776 -2.0534704
8.3106203 3.0002017 -2.0398562
9.8227234 3.5441456 -2.0298262
11.899082 4.2886248 -2.0033
15.190288 5.4688478 -1.9823269
21.251812 7.6469326 -1.9759949
7.2291913 2.5841565 -2.0570939
8.3100309 2.9672441 -2.0371568
9.831337 3.5085185 -2.029063
11.899096 4.2417536 -2.000797
15.182161 5.4091134 -1.9789146
21.259607 7.5660181 -1.9742517
7.2267928 2.5563054 -2.053988
67.827187 23.978893 1.2557355
8.3087988 2.9357767 -2.0344574
9.8429165 3.4758995 -2.029063
11.905643 4.199645 -1.9995456
15.162572 5.3455405 -1.9740397
21.213165 7.4703321 -1.9676279
36.973415 13.005887 -2.0540817
7.2425246 2.5348773 -2.0560586
8.3221674 2.9094956 -2.0353572
9.8358545 3.4367611 -2.0252469
11.913907 4.1581974 -1.998607
15.166144 5.2873487 -1.9720899
21.209005 7.3857598 -1.964839
7.238986 2.503896 -2.0524352
8.3267488 2.878516 -2.0340075
9.8298273 3.3942823 -2.0214307
11.917866 4.1106291 -1.9967299
15.173246 5.2304978 -1.9706273
21.193216 7.2974062 -1.9610043
36.68557 12.617546 -2.0331476
7.2348876 2.4742343 -2.0488117
8.3372421 2.8479793 -2.0340075
9.8416166 3.3599463 -2.0214307
11.926529 4.0670981 -1.9957911
15.192317 5.1748466 -1.9706273
21.154428 7.2015676 -1.9550776
7.2471414 2.4502006 -2.0498469
8.3360558 2.8151162 -2.0313082
9.8495655 3.3243139 -2.0206673
11.918192 4.0178661 -1.9920367
15.187712 5.1141849 -1.9677025
21.164331 7.122591 -1.953683
36.367626 12.224939 -2.0107477
7.2464867 2.4218314 -2.0472586
8.3402853 2.7841516 -2.0299582
9.8555202 3.2880552 -2.0195224
11.926523 3.9743631 -1.9910982
15.182872 5.0536127 -1.9647778
21.117226 7.024766 -1.9470592
7.2567306 2.3971257 -2.0477762
8.3457718 2.7552543 -2.0290585
9.8445644 3.2462523 -2.0149431
11.935884 3.9335573 -1.9904724
15.169375 4.9933081 -1.9608778
21.099977 6.937325 -1.9432244
7.2664776 2.3736463 -2.0482941
8.3497801 2.7242937 -2.027709
9.8515434 3.212369 -2.0141799
11.947666 3.8912544 -1.9901596
15.190486 4.9415584 -1.9613652
21.077394 6.8525267 -1.9390409
35.857109 11.64378 -1.9757873
7.2655258 2.3453012 -2.0457058
8.3592396 2.6951289 -2.027709
9.8589573 3.1767585 -2.0134165
11.93861 3.8422663 -1.9864051
15.177407 4.8787794 -1.9574655
21.059452 6.7655087 -1.9352061
7.2681465 2.318166 -2.044153
8.3574553 2.6623862 -2.0250094
9.8699875 3.1423223 -2.0134165
11.929359 3.7933884 -1.9826506
15.182996 4.8221617 -1.9560032
21.044958 6.6799054 -1.9317199
35.815678 11.35452 -1.9690882
7.2743511 2.2922025 -2.0436354
8.3536863 2.6290994 -2.0218601
9.8734045 3.1055014 -2.0118902
11.938759 3.7505367 -1.982025
15.199734 4.7691369 -1.9560032
21.041534 6.5980525 -1.9292796
35.595882 11.148255 -1.9548528
7.2859983 2.2679427 -2.0446706
8.3572292 2.5981896 -2.0205104
9.8841848 3.0710154 -2.0118902
11.944232 3.7065005 -1.9807734
15.19733 4.7101698 -1.9535657
21.053017 6.5210309 -1.9282336
35.51247 10.986149 -1.9481539
7.2809443 2.2385197 -2.0410471
8.37325 2.572753 -2.02231
9.8798304 3.031884 -2.0088372
11.956456 3.6668739 -1.9807734
15.193883 4.6539369 -1.9511282
21.037548 6.4358401 -1.9247475
35.384441 10.818111 -1.939152
7.2883282 2.214361 -2.0410471
8.3803158 2.5429411 -2.0218601
9.8860731 2.9979622 -2.0080738
11.948388 3.6188142 -1.9773319
15.206235 4.5997257 -1.9506408
21.051144 6.3637395 -1.9240501
35.395222 10.686458 -1.9376867
7.2923112 2.1878011 -2.0400119
65.025826 19.496304 1.1849486
8.3723402 2.5086365 -2.0178108
9.8927145 2.9623156 -2.0073106
11.943914 3.5719874 -1.974516
15.210787 4.5432053 -1.9491785
21.054142 6.2845144 -1.9223071
34.980602 10.42817 -1.912984
7.309166 2.1650743 -2.0425999
8.379178 2.4788456 -2.0173612
9.9086437 2.9294329 -2.0084558
11.952521 3.5291574 -1.9738904
15.199898 4.4822173 -1.9457661
21.041546 6.2008505 -1.9191694
34.894169 10.269903 -1.9062852
7.3092613 2.1373801 -2.0405295
8.3821688 2.4479406 -2.0160115
9.898077 2.8887792 -2.0042579
11.959078 3.4857521 -1.9729517
15.204013 4.4258146 -1.9443036
21.051588 6.1240196 -1.9181236
34.668957 10.072279 -1.8920496
7.3177962 2.1149411 -2.0410471
8.3898172 2.4215965 -2.0160115
9.8901272 2.8527694 -2.0008233
11.956682 3.444339 -1.9707617
15.194949 4.3714371 -1.9413787
21.017105 6.0424428 -1.9132428
34.454708 9.8927517 -1.8786516
7.3065562 2.0840869 -2.0358706
8.3982201 2.3922937 -2.0160115
9.8962479 2.8171558 -2.0000601
11.964833 3.4014978 -1.9701359
15.202477 4.316205 -1.9404038
21.003571 5.9592481 -1.9101051
34.719624 9.8377676 -1.8912123
7.3137875 2.0585675 -2.0358706
8.4027653 2.3619108 -2.0151114
9.9022417 2.7815299 -1.9992968
11.96332 3.3559799 -1.9679458
15.205983 4.2598948 -1.9389415
21.02808 5.8869748 -1.9104539
34.384445 9.6132517 -1.8711153
7.3283739 2.0350945 -2.0379412
8.3959351 2.3284006 -2.0115123
9.9175653 2.7485225 -2.0004416
11.967345 3.3120944 -1.9666944
15.193973 4.1993899 -1.9355291
21.002409 5.8008108 -1.9062704
34.302265 9.4613123 -1.8648349
7.337297 2.01001 -2.0384588
85.419556 23.384163 1.5458643
8.3983736 2.2975388 -2.0101628
9.9100571 2.7092252 -1.997007
11.978832 3.2703028 -1.9666944
15.185557 4.140058 -1.9326042
20.99946 5.7211833 -1.9041786
34.096115 9.2764912 -1.8518558
7.3274832 1.979852 -2.0338001
85.500656 23.085869 1.5458643
8.413868 2.270237 -2.0119622
9.9156618 2.6735961 -1.9962438
11.986362 3.2274389 -1.9660686
15.18458 4.0829048 -1.9306543
20.996216 5.6416373 -1.902087
33.900661 9.0963478 -1.8395045
7.3343492 1.9542637 -2.0338001
8.4217424 2.2408512 -2.0119622
9.9173431 2.6369517 -1.9947174
11.984191 3.1820271 -1.9638785
15.194901 4.0288539 -1.9301667
20.970528 5.5524096 -1.8979034
33.851116 8.9564915 -1.8351082
7.3321199 1.9249178 -2.0312121
8.4163179 2.2079804 -2.0088129
9.9250441 2.600085 -1.9943358
11.988128 3.1360843 -1.9626271
15.185828 3.9697609 -1.927242
20.966646 5.4731307 -1.8958117
33.732964 8.7930717 -1.8269438
7.3462753 1.9012463 -2.0332825
8.4205799 2.1761448 -2.0079131
9.9245548 2.5629721 -1.9924276
11.966484 3.0858362 -1.9573083
15.180366 3.9117851 -1.9248046
20.954752 5.3919606 -1.8930227
33.450077 8.5947399 -1.8099869
7.3562846 1.8778282 -2.0343177
8.4334135 2.1496549 -2.0092628
9.9215841 2.5271366 -1.9901379
11.980479 3.0471129 -1.957934
15.170169 3.855552 -1.9218796
20.949341 5.3165755 -1.890931
33.327377 8.4455061 -1.8018224
7.3549767 1.8515388 -2.0322473
8.4348269 2.1202493 -2.0079131
9.9241972 2.4927888 -1.9889932
11.975191 3.0035198 -1.9554311
15.160427 3.7967834 -1.9189547
20.936848 5.2356772 -1.888142
33.262196 8.3116922 -1.7967982
7.348587 1.8213173 -2.0286238
8.4440699 2.0912597 -2.008363
9.9218321 2.4535725 -1.9867034
11.982284 2.9586582 -1.9548053
15.158168 3.7400467 -1.9170049
20.924046 5.1549311 -1.8853531
33.267216 8.1835289 -1.7954373
7.353024 1.7951947 -2.0281062
8.4459972 2.0589139 -2.0070133
9.9398746 2.4212444 -1.9886116
11.963746 2.9098141 -1.9501122
15.167274 3.6861706 -1.9165175
20.918676 5.0762277 -1.8832613
32.98695 7.9925656 -1.7787948
7.364572 1.7721552 -2.029659
8.4376192 2.0272541 -2.0034139
9.9325762 2.3845997 -1.9855584
11.969487 2.8692062 -1.9494866
15.144667 3.6275263 -1.9121301
20.900513 4.9984927 -1.8801236
32.99773 7.8794289 -1.7779572
7.379806 1.7499539 -2.0322473
8.4518814 2.0010564 -2.0052137
9.9346981 2.3502953 -1.9844136
11.982781 2.8304033 -1.9501122
15.137915 3.570086 -1.9096928
20.885946 4.9218388 -1.8773347
32.992573 7.7626491 -1.7762825
7.3783445 1.7224277 -2.0301766
8.4493256 1.9693277 -2.0029643
9.9198961 2.3102608 -1.9798342
11.97335 2.7840815 -1.9469837
15.146419 3.5163212 -1.9092052
20.868067 4.8407941 -1.8741971
33.000015 7.642921 -1.7752358
7.3692503 1.6931994 -2.0260355
8.4656448 1.9420025 -2.0052137
9.9279003 2.2756171 -1.9798342
11.967588 2.7387466 -1.9444805
15.15086 3.4616635 -1.9082304
20.846817 4.7554188 -1.8707108
32.944702 7.509048 -1.7708396
7.3829432 1.6678826 -2.0281062
8.4609671 1.9098631 -2.0025144
9.9419203 2.2405114 -1.9809792
11.96213 2.6913929 -1.9419776
29.208984 6.5718112 3.6760671
15.15123 3.4061468 -1.906768
20.851627 4.6799974 -1.869665
32.777111 7.3445697 -1.7603724
7.3962641 1.6437757 -2.0301766
8.462204 1.877575 -2.0011647
9.9535131 2.206641 -1.9817424
11.948306 2.6445007 -1.9382232
29.132084 6.4424276 3.6633928
15.132597 3.3437424 -1.902868
20.828924 4.598597 -1.8661788
32.790844 7.2275386 -1.7597443
7.3887453 1.6150618 -2.0265532
8.4645739 1.8486729 -2.0002646
9.9323826 2.165612 -1.9760182
11.96087 2.6057076 -1.9388491
29.130013 6.3407121 3.6604679
15.143602 3.2935383 -1.902868
20.821487 4.5207839 -1.864087
32.822433 7.120461 -1.7601629
7.3959489 1.5909586 -2.0270708
8.4709759 1.8191125 -2.0002646
9.9375887 2.1322532 -1.9756364
11.950578 2.5598001 -1.9357203
29.12479 6.2331948 3.6570556
15.139479 3.2373326 -1.9009181
20.84026 4.452549 -1.8644356
32.749428 6.9850063 -1.7549294
7.403348 1.5655301 -2.0275886
8.4868078 1.7915465 -2.0025144
9.9411297 2.0967386 -1.9748732
11.95944 2.5180719 -1.9357203
29.169683 6.1363888 3.6599805
15.135147 3.1811955 -1.8989682
20.762081 4.3601255 -1.8560687
32.679783 6.8509684 -1.7499051
7.3936353 1.5365349 -2.0234473
8.4891939 1.7611172 -2.0016146
9.9483881 2.062027 -1.9748732
11.964289 2.4755063 -1.9350946
29.16371 6.0288959 3.6565681
15.134492 3.125946 -1.8975059
29.357756 6.0583258 4.7477865
20.777176 4.2876201 -1.8560687
32.703495 6.7368755 -1.7499051
7.3932762 1.5095556 -2.0218945
8.4723749 1.7268094 -1.9962157
9.9555254 2.0272853 -1.9748732
11.970922 2.4333372 -1.9347818
29.172903 5.9246945 3.6551056
15.137529 3.0715144 -1.8965309
20.784203 4.2134886 -1.8553714
32.550629 6.5870161 -1.7404847
7.4058175 1.4865526 -2.0239649
8.478055 1.6987021 -1.9962157
9.9525681 1.9923357 -1.972965
11.971175 2.392081 -1.9335302
29.182655 5.825984 3.653887
15.108699 3.0135298 -1.891656
20.798059 4.1445465 -1.8553714
32.607555 6.4860425 -1.7423687
7.42802 1.4640524 -2.0286238
8.4839334 1.6690956 -1.9962157
9.9479036 1.9553081 -1.9706753
11.95813 2.3460925 -1.9300886
29.216454 5.7267475 3.6555932
15.10354 2.9577234 -1.8897061
20.828045 4.0749779 -1.8567659
32.637836 6.3737197 -1.7427876
7.4084282 1.433346 -2.0218945
8.4858818 1.6387296 -1.9953159
9.9527397 1.9202015 -1.9702938
11.94491 2.3002245 -1.9266472
29.364922 5.6494861 3.67168
15.086481 2.8997416 -1.8862939
20.763878 3.987215 -1.8497934
32.393112 6.2086296 -1.7285521
7.4152851 1.4078355 -2.0224121
8.4858065 1.6080117 -1.9939661
9.9651709 1.8865414 -1.9714386
11.948984 2.2577839 -1.9260213
15.092609 2.8463228 -1.8858064
20.734594 3.9065998 -1.8459586
32.506844 6.1128588 -1.7334718
7.4144564 1.3808831 -2.0208592
8.4875345 1.5776703 -1.9930664
9.9659033 1.8506714 -1.9702938
11.949022 2.214623 -1.9247699
15.074639 2.7912014 -1.8823941
20.716755 3.8284099 -1.8431696
32.561375 6.0055161 -1.7352512
7.4227943 1.3569846 -2.0218945
8.486969 1.5484642 -1.9917165
9.9565344 1.814799 -1.9672408
11.942698 2.1725085 -1.9225799
15.06428 2.7376502 -1.8799566
20.717575 3.757551 -1.8421237
32.333485 5.852674 -1.7220626
7.4215493 1.3313369 -2.0203414
8.5054846 1.5227176 -1.9948659
9.9586334 1.781078 -1.9664776
11.955668 2.1339366 -1.9235184
15.05811 2.6822603 -1.8780067
20.690689 3.6818511 -1.8386375
32.451035 5.7628875 -1.7272961
7.4147358 1.3034139 -2.0172358
8.5011511 1.4913371 -1.9926165
9.955121 1.7446077 -1.9645696
11.959153 2.0915127 -1.9228927
15.057605 2.6279712 -1.876788
20.652384 3.6007116 -1.8341054
32.455215 5.6468296 -1.7264588
7.423048 1.2781845 -2.018271
8.5005436 1.4606608 -1.9912667
9.9650183 1.7105184 -1.9653327
11.9547 2.0477505 -1.9210155
15.056902 2.573725 -1.8755693
20.6609 3.5279233 -1.8337568
32.443222 5.5281444 -1.7247839
7.4236541 1.2516211 -2.0172358
8.4998245 1.4300115 -1.989917
9.9535046 1.6727924 -1.9618982
11.946189 2.0033972 -1.9185126
15.046216 2.5178707 -1.873132
20.669157 3.4551294 -1.8334082
32.363823 5.3984237 -1.7195504
7.4336967 1.2266417 -2.0187886
8.4893818 1.3977977 -1.9863179
9.9592838 1.6380355 -1.9618982
11.960906 1.9629613 -1.9197639
15.047076 2.4640615 -1.872157
20.649633 3.3778079 -1.8306192
32.414001 5.2905893 -1.721225
7.4322109 1.1997638 -2.0172358
8.4997416 1.3705707 -1.9876676
9.9455566 1.6001444 -1.958082
11.940045 1.918901 -1.9153838
15.051246 2.4135172 -1.8716695
20.62982 3.3006647 -1.8278301
32.316982 5.164782 -1.7151542
7.4247003 1.1733032 -2.0141299
8.5083246 1.3415015 -1.9885672
9.9508076 1.5671569 -1.958082
11.938866 1.875981 -1.9141324
15.051733 2.3597298 -1.8706945
20.585535 3.2236087 -1.8229494
32.303242 5.0470014 -1.7134794
7.428751 1.1473771 -2.0141299
113.18755 17.461695 1.9990685
8.4975471 1.3094171 -1.9849681
9.9406948 1.530021 -1.955029
11.919959 1.8304001 -1.9100651
15.040257 2.3041723 -1.8682572
20.56909 3.1475172 -1.8205091
32.214043 4.9179258 -1.707827
7.4288898 1.120864 -2.0130947
113.41391 17.091543 2.0020006
8.4924307 1.2782946 -1.9827186
9.947916 1.4956059 -1.9554106
11.928229 1.7890702 -1.910378
15.01287 2.2463734 -1.8638699
20.595716 3.0780494 -1.8219036
32.254723 4.808989 -1.7090832
7.4423137 1.0963314 -2.0156829
113.34627 16.676893 1.9997666
8.4929857 1.2480779 -1.9818188
9.9414215 1.4591588 -1.9531209
11.926582 1.7462797 -1.9091264
14.997049 2.1905084 -1.860945
20.58662 3.0032663 -1.8201605
32.243641 4.6923499 -1.7076178
7.428885 1.0678704 -2.011024
8.5011473 1.2189791 -1.9827186
9.936739 1.4230539 -1.951213
11.934562 1.7049137 -1.9094393
15.000673 2.1375885 -1.8604575
20.541748 2.9235213 -1.8152797
32.168861 4.566864 -1.7028029
7.4249148 1.040861 -2.0089536
8.5034208 1.1890291 -1.9822687
9.935812 1.3875469 -1.950068
11.920876 1.6605214 -1.9063107
14.98838 2.0824773 -1.8580201
20.520252 2.8474226 -1.8124908
32.15691 4.4507031 -1.7013376
7.4304175 1.0151964 -2.0094712
8.4997969 1.1582847 -1.9804692
9.9386501 1.3525887 -1.9496864
11.899195 1.6151824 -1.9019306
14.987691 2.0290835 -1.8570452
20.498478 2.7715092 -1.8097019
32.002029 4.3154645 -1.6923357
7.4262557 0.98823905 -2.0074008
8.4960613 1.1275799 -1.9786695
9.9433098 1.3178947 -1.9496864
11.904761 1.5736333 -1.9019306
14.971066 1.973637 -1.8541204
20.48037 2.6962924 -1.8072613
32.107986 4.2156973 -1.6971506
7.4469023 0.96454179 -2.0120592
8.4980125 1.0976685 -1.9782196
9.9322729 1.2811662 -1.9466335
11.904303 1.5313147 -1.9009918
14.962113 1.9193414 -1.8521705
20.473846 2.6227653 -1.805867
32.007599 4.0889058 -1.6910795
7.4521413 0.9387809 -2.0125771
8.4996729 1.0692406 -1.9777697
9.9249964 1.2450194 -1.9443438
11.895595 1.490114 -1.8988018
14.960515 1.8687336 -1.8511955
20.451244 2.5473368 -1.8030781
31.953598 3.9743674 -1.6875209
7.4398727 0.91218776 -2.0084357
8.5072212 1.0400352 -1.9786695
9.9329672 1.2125826 -1.945107
11.89092 1.4473848 -1.8972374
14.959064 1.8155468 -1.8502206
20.431889 2.4761522 -1.8006377
31.927616 3.8580189 -1.6854273
7.4430118 0.8862102 -2.0084357
8.502883 1.0108958 -1.9768698
9.927392 1.1767446 -1.9431988
11.881922 1.4063168 -1.8950473
14.959088 1.7652358 -1.8494893
20.42062 2.402493 -1.7988945
31.876759 3.7446716 -1.6820779
7.4422221 0.85977846 -2.0074008
8.4968519 0.97861165 -1.9746205
9.9333906 1.1423062 -1.9435806
11.886996 1.3627604 -1.8950473
14.947708 1.7083637 -1.8472956
20.424923 2.3307397 -1.798546
31.906145 3.6296098 -1.6829152
7.449017 0.83422661 -2.0084357
8.4944057 0.94829512 -1.9732707
9.929512 1.1067573 -1.942054
11.879902 1.3199468 -1.8931701
14.939768 1.6546494 -1.8455895
20.401249 2.2559202 -1.7957568
31.855091 3.5112188 -1.6795658
7.4518833 0.80821764 -2.0084357
8.4996014 0.91884959 -1.9737206
9.9294109 1.0716661 -1.9412909
11.876581 1.2776276 -1.8919187
14.931638 1.6010045 -1.8438834
20.389189 2.1825764 -1.7940139
31.863184 3.3995702 -1.6793563
7.4431314 0.78099275 -2.0053301
8.5066338 0.8895821 -1.9746205
9.9252806 1.0361862 -1.9397644
11.87311 1.2353476 -1.8906672
14.929236 1.5480578 -1.8429084
20.368937 2.1085236 -1.7915735
31.799358 3.2805445 -1.6753788
7.4419684 0.75461483 -2.0042949
8.4980536 0.85870916 -1.971921
9.9210243 1.0007434 -1.938238
11.865555 1.1927122 -1.8887899
14.918748 1.4943488 -1.8409585
20.360312 2.0358284 -1.7901789
31.80267 3.1687236 -1.6749601
7.4560933 0.72976357 -2.0074008
8.4971199 0.82865965 -1.9710211
9.9400892 0.96763027 -1.9412909
11.865714 1.1509019 -1.8881643
14.900163 1.4399753 -1.8380336
20.343496 1.9624442 -1.7880871
31.737988 3.0504379 -1.6709826
7.4528255 0.70318967 -2.0058477
8.4999609 0.79899186 -1.9710211
9.9277687 0.93146193 -1.938238
11.865726 1.109105 -1.8875386
14.889286 1.3864788 -1.8360838
29.654947 2.7562253 4.7171254
20.346256 1.8910459 -1.7877386
31.724579 2.9374149 -1.6697265
7.455235 0.67716819 -2.0058477
8.5007572 0.76914281 -1.9705712
9.9133615 0.89521009 -1.9348032
11.857721 1.0666199 -1.8856614
14.886127 1.3337845 -1.8351088
29.538464 2.6414394 4.6971016
20.332888 1.8182424 -1.7859954
31.690874 2.8227508 -1.6674237
7.4383078 0.64946169 -2.0006714
8.505332 0.73963147 -1.9710211
9.9183817 0.86077231 -1.9351848
11.841692 1.0235178 -1.8825326
14.876846 1.2806325 -1.8334025
29.478176 2.5375481 4.6861515
20.29941 1.7438405 -1.7825093
31.644812 2.7073665 -1.6644928
7.4482298 0.62413639 -2.0027418
8.5038538 0.71109962 -1.9701214
9.9252396 0.82646865 -1.9359483
11.848957 0.98457325 -1.8831582
14.87112 1.2304695 -1.8321838
20.285517 1.6713495 -1.7807661
31.605844 2.5984774 -1.6619809
7.4541097 0.59974515 -2.0037773
8.4985132 0.6807906 -1.9683217
9.9259682 0.79339641 -1.9355664
11.824754 0.9410153 -1.8787781
14.865431 1.1777642 -1.8309652
29.556219 2.3365154 4.6958504
20.29492 1.6043795 -1.7811147
31.539061 2.4821732 -1.6580033
7.4561577 0.5737198 -2.0037773
8.5008383 0.65111887 -1.9683217
9.9130173 0.75754404 -1.9325136
11.835845 0.90032965 -1.8800297
14.8358 1.1233293 -1.8268216
20.280529 1.532021 -1.7793715
31.487782 2.3675952 -1.6548631
7.4561882 0.54754955 -2.0032594
8.5030594 0.62144321 -1.9683217
9.9058104 0.72222483 -1.9306054
11.834976 0.85872036 -1.8794039
14.841611 1.0716748 -1.8270653
20.253958 1.4589237 -1.7765826
31.424137 2.2525191 -1.6510949
7.4387827 0.52016968 -1.9980831
8.5012894 0.59148955 -1.9674219
9.9082718 0.68764007 -1.9306054
11.818193 0.81605071 -1.8762752
14.821496 1.0182319 -1.8241404
20.243025 1.3871396 -1.7751881
31.427824 2.1425343 -1.6508855
7.4482636 0.49471399 -2.0001535
8.4974689 0.56142318 -1.9660723
9.9106112 0.65305161 -1.9306054
11.809144 0.77401417 -1.874398
14.82083 0.96881336 -1.823653
20.231838 1.3154302 -1.7737937
31.391264 2.029989 -1.6485828
7.4382954 0.46928358 -1.9970479
8.4953938 0.5329951 -1.9651723
9.9107618 0.62006265 -1.9302238
11.807703 0.73460084 -1.8737723
14.810093 0.91880298 -1.8219469
20.192339 1.2456274 -1.7699587
31.365927 1.9239154 -1.646908
7.4513807 0.44530416 -2.0001535
107.51291 6.4062805 1.8799733
8.4854422 0.50412869 -1.9624729
9.9068861 0.58684301 -1.9290791
11.806129 0.69521117 -1.8731465
14.797357 0.86616862 -1.819997
20.188608 1.1746768 -1.7692616
31.368145 1.8196665 -1.6466986
7.44139 0.41734308 -1.9970479
107.45874 6.0267186 1.8786469
8.4832592 0.47429016 -1.9615731
9.881526 0.54900599 -1.9237365
11.812544 0.65214962 -1.8737723
14.780468 0.81341612 -1.8175595
20.17667 1.1033225 -1.767867
31.330729 1.7023075 -1.6443959
7.4505186 0.39176902 -1.9991184
8.4985628 0.44390768 -1.9647225
9.8971071 0.51522148 -1.9264078
11.791075 0.60969621 -1.8700178
14.779386 0.75903714 -1.817072
20.148561 1.0312705 -1.7650781
31.324511 1.5923156 -1.6437678
7.4499111 0.36566278 -1.9986008
8.4824705 0.41486388 -1.9606735
9.8968849 0.48057315 -1.9260262
11.773302 0.56963438 -1.8668892
14.775872 0.70973295 -1.8163408
20.140099 0.96035784 -1.7640322
31.309671 1.4874747 -1.6427212
0.67351145 0.030819517 -0.1806557
8.4838676 0.38524973 -1.9606735
9.8905783 0.44739836 -1.9244996
11.787058 0.52906269 -1.8687663
14.740581 0.65648329 -1.8117099
20.127249 0.89285368 -1.7626377
31.270773 1.376264 -1.6404184
0.66975468 0.028305333 -0.17962041
8.4871073 0.35571247 -1.9611233
9.8979635 0.41311872 -1.9256444
11.784886 0.48774844 -1.8681406
14.738815 0.60485834 -1.8112223
20.118299 0.8220976 -1.7615919
31.235476 1.2654749 -1.6383249
59.706764 2.398087 -1.0430256
0.6698494 0.025967102 -0.17962041
8.5097179 0.32691354 -1.9660723
9.8856125 0.37803808 -1.922973
11.778621 0.44631749 -1.8668892
14.722983 0.55273241 -1.8090287
20.125029 0.75202918 -1.7619405
31.195795 1.1548014 -1.6360222
0.6969651 0.024582535 -0.18686737
69.422684 2.4364314 1.2125235
0.6991716 0.024415683 -0.16151486
9.8790236 0.34326267 -1.9214467
11.776157 0.40506071 -1.8662634
14.716887 0.50106913 -1.8080537
20.071777 0.67988122 -1.7570598
31.187656 1.0455056 -1.6353941
0.69704664 0.022149337 -0.18686737
0.67782694 0.021301785 -0.15656593
9.8899746 0.30908036 -1.9233549
11.769604 0.36371022 -1.8650119
14.722515 0.44981194 -1.8085413
20.066059 0.60957569 -1.7563624
31.171152 0.93602628 -1.6343473
46.584148 1.3907419 -0.81349158
0.68939543 0.019497411 -0.18479681
0.66425812 0.018670777 -0.15341662
9.8811798 0.274281 -1.9214467
11.76877 0.32462111 -1.8646991
14.704083 0.40045035 -1.8061038
20.048149 0.53898764 -1.7546195
31.150129 0.83202016 -1.6330913
43.514256 1.1470671 -0.759808
0.69138747 0.017259534 -0.18531445
0.66626734 0.016399745 -0.15386651
9.8820353 0.24150959 -1.9214467
11.750083 0.28306517 -1.8615704
14.697453 0.34893569 -1.8051288
20.049826 0.47250661 -1.7546195
31.029045 0.72041321 -1.6266017
43.521992 0.99524683 -0.75987774
0.66633528 0.014306759 -0.17858516
0.66826886 0.01411523 -0.15431643
9.8749657 0.20685098 -1.9199202
11.764824 0.24233523 -1.8637605
14.684689 0.29734468 -1.8034227
20.031433 0.40211156 -1.7528763
30.600044 0.60358113 -1.6039925
40.422256 0.78320819 -0.70570552
0.66251808 0.011911412 -0.17754988
0.66636562 0.011747922 -0.15386651
9.8756285 0.17238173 -1.9199202
11.749799 0.20099343 -1.8612576
14.671742 0.24585401 -1.8017164
20.000898 0.32817143 -1.7500874
30.042809 0.48769283 -1.5746844
33.28273 0.52866727 -0.58102548
0.66448891 0.00951056 -0.17806751
0.66445404 0.0093940748 -0.15341662
9.8683424 0.13607381 -1.9183939
11.730703 0.15766406 -1.8581288
14.672511 0.19463468 -1.8017164
19.993954 0.25825453 -1.74939
29.692904 0.37315232 -1.5562621
33.324364 0.41298822 -0.58172363
0.67224509 0.0072747599 -0.18013807
0.64694631 0.0067751491 -0.1493675
9.8726826 0.10166854 -1.919157
11.723282 0.11663356 -1.8568773
14.641367 0.14055428 -1.7978168
19.970825 0.18823037 -1.7472982
29.510286 0.26784104 -1.5466324
33.297607 0.29640386 -0.58123493
0.67226636 0.0049282848 -0.18013807
0.64891386 0.0046435255 -0.14981739
9.8651247 0.067154452 -1.9176304
11.723604 0.077753879 -1.8568773
14.641752 0.092003912 -1.7978168
19.947453 0.11837084 -1.7452065
29.522995 0.17005485 -1.5472604
33.334435 0.18035761 -0.58186322
0.66648352 0.0026754905 -0.17858516
0.64697742 0.0023716677 -0.1493675
9.8574409 0.034410004 -1.9161041
11.723804 0.036838446 -1.8568773
14.622134 0.040834758 -1.7953793
19.915859 0.052133087 -1.7424176
29.467485 0.066864587 -1.5443295
33.326851 0.069789656 -0.58172363
0.65489769 0.00034276847 -0.17547932
0.65282792 0.00022806335 -0.1507172
9.8535738 -0 -1.9153408
11.708058 -0.0020434416 -1.8543743
14.606308 -0.0076478454 -1.7934294
19.888025 -0.01735558 -1.7399772
29.403635 -0.030791422 -1.5409801
0.64909971 -0.0018126329 -0.17392641
0.65282476 -0.0020509162 -0.1507172
9.8594093 -0.032695159 -1.9164857
11.692176 -0.042854257 -1.8518714
14.608177 -0.058641288 -1.7936732
19.867918 -0.086690694 -1.738234
29.359406 -0.13322967 -1.5386772
0.64136142 -0.0041417889 -0.17185585
0.64696753 -0.0042909142 -0.1493675
9.8572607 -0.068817772 -1.9161041
11.680089 -0.085621059 -1.8499942
14.582078 -0.10943931 -1.7905045
29.11027 -0.22355521 4.6107497
19.855541 -0.15594825 -1.7371882
29.322773 -0.24054147 -1.5367932
0.65486532 -0.0065150619 -0.17547932
57.684261 -0.58395249 1.006934
0.64499891 -0.0066420734 -0.1489176
9.8510704 -0.10316392 -1.9149592
11.687621 -0.12647717 -1.8512456
14.573639 -0.16279589 -1.7895297
29.089558 -0.324947 4.6076212
19.854876 -0.22525609 -1.7371882
29.253851 -0.34210151 -1.5332344
0.65870196 -0.0088528516 -0.1765146
0.6586132 -0.0089666294 -0.15206692
9.8369093 -0.13735807 -1.9122878
11.675285 -0.16506645 -1.8493685
14.563095 -0.21097913 -1.7883109
29.135651 -0.42718154 4.6151299
19.849985 -0.29450205 -1.7368397
29.232584 -0.4388091 -1.5321876
0.65866899 -0.011037136 -0.1765146
0.65857792 -0.011265563 -0.15206692
9.8442516 -0.17011337 -1.9138144
11.670688 -0.20575017 -1.8487427
14.552345 -0.26163411 -1.7870922
29.043222 -0.52216309 4.600738
19.81304 -0.35967439 -1.7337019
29.198925 -0.54025596 -1.5305128
0.66055793 -0.013375362 -0.17703223
0.65074354 -0.01329026 -0.1502673
9.8534117 -0.20467904 -1.9157225
11.660067 -0.24424355 -1.8471783
14.523613 -0.30929831 -1.7836798
29.11627 -0.62515104 4.6126275
19.819633 -0.42900515 -1.7343993
29.141064 -0.63586026 -1.527582
0.66823512 -0.015747834 -0.17910279
0.64679682 -0.015468515 -0.1493675
9.8330526 -0.23688023 -1.9119062
29.952736 -0.72679824 2.6212962
11.655194 -0.28484681 -1.8465527
14.526414 -0.36009166 -1.7841673
30.152636 -0.75271207 4.7771964
19.802168 -0.49432924 -1.7330047
29.066788 -0.73575824 -1.5238138
0.67396951 -0.018237079 -0.1806557
0.64284289 -0.017619377 -0.14846769
9.8321657 -0.27120253 -1.9119062
29.890268 -0.82968986 2.6160667
11.648205 -0.32536381 -1.845614
30.300394 -0.85165924 3.72189
14.505225 -0.41023493 -1.7817299
30.130077 -0.85739791 4.7740674
19.800322 -0.56344873 -1.7330047
29.040085 -0.83652562 -1.5225577
0.68355656 -0.020884542 -0.18324389
0.65251648 -0.020164168 -0.1507172
30.363651 -0.94360697 1.59206
9.8174219 -0.30509466 -1.9092349
30.090315 -0.94036931 2.6338465
11.646997 -0.36602163 -1.845614
30.229776 -0.95529032 3.713603
14.499737 -0.46073899 -1.7812425
30.13085 -0.96269238 4.7746935
19.778318 -0.63192499 -1.7312616
29.009041 -0.93698663 -1.5210924
0.67382574 -0.022941791 -0.1806557
30.337616 -1.0382079 0.52985507
0.66218007 -0.022776704 -0.15296671
30.280333 -1.0468299 1.5878731
9.8261089 -0.33970118 -1.9111431
30.30588 -1.0530088 2.6530206
11.621959 -0.40584773 -1.8418596
14.490105 -0.51106989 -1.7802675
29.310015 -1.0388938 4.6451654
19.756084 -0.70025462 -1.7295187
28.97765 -1.0372412 -1.519627
30.351557 -1.0970279 -0.53013432
0.68725502 -0.025801066 -0.18427916
30.165953 -1.1377686 0.52692306
0.65235984 -0.024719063 -0.1507172
9.8209391 -0.37384924 -1.9103796
11.616524 -0.44626182 -1.8412338
14.484265 -0.56149286 -1.77978
19.777407 -0.77014226 -1.7316102
28.90999 -1.1358767 -1.5162776
30.335554 -1.2024927 -0.52992487
0.70260262 -0.028833583 -0.18842028
0.64837539 -0.026834903 -0.14981739
9.8215361 -0.40820998 -1.9107615
11.599107 -0.48614657 -1.8387309
14.450483 -0.61070776 -1.7758802
19.730806 -0.8373152 -1.7277755
28.834013 -1.2337106 -1.5125093
0.69477797 -0.030942146 -0.18634972
0.65995848 -0.029622283 -0.15251681
9.8122053 -0.44213754 -1.9092349
11.599312 -0.52672166 -1.8390437
14.428433 -0.66023827 -1.7734429
19.735723 -0.90654904 -1.7284726
28.785637 -1.332321 -1.5102065
0.67729908 -0.032533009 -0.18169098
29.976614 -1.4451241 0.52385145
0.66374397 -0.032114141 -0.15341662
9.8007975 -0.47590971 -1.9073268
11.611214 -0.56788307 -1.8412338
14.41018 -0.70981753 -1.7714928
19.716522 -0.97464728 -1.7270782
28.748896 -1.4312047 -1.5085317
0.65982372 -0.033887066 -0.17703223
0.65974158 -0.034113754 -0.15251681
9.8109293 -0.50901806 -1.9096165
11.591513 -0.60545683 -1.8384181
14.395853 -0.7569741 -1.7700305
19.705221 -1.0396043 -1.7263809
28.716068 -1.5250487 -1.5070664
0.66163033 -0.036295895 -0.17754988
41.315182 -2.2737119 0.7222504
0.65183532 -0.035986781 -0.1507172
9.7992907 -0.54271859 -1.9077084
11.569606 -0.64481574 -1.8352894
14.381231 -0.80655354 -1.7685682
19.701471 -1.1083821 -1.7263809
25.938818 -1.468371 -1.3615724
0.66728526 -0.038942847 -0.17910279
40.424641 -2.3662663 0.70682251
0.63808805 -0.037462391 -0.14756788
9.8012571 -0.57715207 -1.9084717
11.577144 -0.6857813 -1.8368537
14.350586 -0.85509539 -1.7651558
19.677595 -1.1759577 -1.7246377
25.789991 -1.5502769 -1.354036
0.66328895 -0.041033305 -0.17806751
0.65351325 -0.040657543 -0.15116711
9.7874269 -0.61062789 -1.9061821
11.56285 -0.72544676 -1.8349764
14.335628 -0.90443319 -1.7636933
19.633602 -1.2421222 -1.7211516
25.74057 -1.6375016 -1.3517332
31.692394 -2.0272381 -0.55432332
0.66314167 -0.043348368 -0.17806751
38.866676 -2.5474565 0.67987597
0.64947826 -0.042682894 -0.1502673
9.7832766 -0.64465964 -1.9058005
11.548421 -0.76502079 -1.8330992
