# .PCD v0.7 - Point Cloud Data file format
VERSION 0.7
FIELDS x y z
SIZE 4 4 4
TYPE F F F
COUNT 1 1 1
WIDTH 1438
HEIGHT 1
VIEWPOINT 0 0 0 1 0 0 0
POINTS 1438
DATA ascii
-10.829663 -8.255971 -1.6720475
-13.514382 -10.2952 -1.486354
-18.746758 -14.276039 -1.2349193
-34.118309 -25.962965 -0.7483592
-6.0004888 -4.5529695 -2.018271
-6.7517776 -5.119307 -1.9561743
-7.768333 -5.8879442 -1.8947334
-9.1316652 -6.9162502 -1.8143271
-10.863165 -8.2217121 -1.6727787
-13.573871 -10.269561 -1.489143
-18.872953 -14.268325 -1.2399436
-6.0117154 -4.5285087 -2.0167181
-6.7696052 -5.0957093 -1.9561743
-7.7825646 -5.85607 -1.8932071
-9.1731186 -6.8973937 -1.8177687
-10.890213 -8.1825476 -1.6725351
-13.609632 -10.222119 -1.489143
-18.992929 -14.255109 -1.2445492
-6.01511 -4.4982405 -2.0125771
-6.7967172 -5.0790467 -1.9588737
-7.8092489 -5.8335671 -1.8947334
-9.2034702 -6.8700571 -1.8190202
-10.92348 -8.1480465 -1.6732662
-13.648427 -10.176933 -1.4894916
-19.097023 -14.229302 -1.248108
-6.0524912 -4.4933381 -2.019824
-6.8159695 -5.0564513 -1.9593236
-7.845335 -5.8179669 -1.8985497
-9.2210474 -6.8331847 -1.8177687
-10.959833 -8.1157732 -1.674485
-13.695077 -10.137527 -1.4907117
-19.233286 -14.226692 -1.2537603
-6.0728045 -4.4756217 -2.0213768
-6.8398547 -5.0372524 -1.9611233
-7.8877301 -5.8068409 -1.9038923
-9.2464352 -6.8021264 -1.8180816
-10.988095 -8.077467 -1.674485
-13.756074 -10.108535 -1.4935008
-19.37298 -14.225666 -1.2596219
-6.1039815 -4.4658027 -2.0265532
-6.8652639 -5.0190959 -1.9633728
-7.9253874 -5.7920141 -1.90809
-9.268527 -6.7686434 -1.8177687
-11.032258 -8.050766 -1.6769222
-13.823465 -10.083941 -1.496987
-19.480627 -14.200305 -1.2633901
-6.1132798 -4.439929 -2.0244827
-6.8811646 -4.9939551 -1.9629229
-7.934432 -5.7562461 -1.9054186
-9.3016949 -6.7432055 -1.819646
-11.060295 -8.0122042 -1.6769222
-13.848899 -10.028616 -1.4959412
-19.630394 -14.204816 -1.2698798
-6.1256061 -4.4163027 -2.0234473
-6.9143653 -4.9812975 -1.9674219
-7.9544768 -5.7285147 -1.9054186
-9.3219671 -6.7083893 -1.8190202
-11.094643 -7.9781828 -1.6778972
-13.880584 -9.97789 -1.4955926
-19.731768 -14.173492 -1.2732292
-6.1551251 -4.4050107 -2.0281062
-6.9206152 -4.9491968 -1.9642726
-7.9967866 -5.7166958 -1.9107615
-9.3388977 -6.6712151 -1.8177687
-11.133735 -7.9474802 -1.6796035
-13.921815 -9.9340048 -1.4962898
-19.872189 -14.169462 -1.2790909
-35.889679 -25.580963 -0.76930207
-6.1799126 -4.390213 -2.0312121
-6.9417567 -4.929605 -1.9656224
-8.0214949 -5.6921568 -1.9119062
-9.364192 -6.6424952 -1.8183944
-11.160028 -7.9105148 -1.6796035
-13.961287 -9.8887997 -1.4968128
-20.026649 -14.179658 -1.2859992
-36.017933 -25.483248 -0.77013981
-6.2133803 -4.3830581 -2.0374236
-48.022202 -33.863396 1.0256779
-6.9700718 -4.9132028 -1.9687717
-8.0467472 -5.6700463 -1.9134327
-9.4002428 -6.618866 -1.8208973
-0.84574217 -0.59527993 0.12698787
-11.189194 -7.8726554 -1.6798471
-14.026593 -9.8653746 -1.500299
-20.138117 -14.153311 -1.2899767
-36.126305 -25.371155 -0.77055866
-6.2254777 -4.3591266 -2.0363884
-6.9967608 -4.8955436 -1.9714712
-8.0697069 -5.6441751 -1.914196
-9.4330063 -6.5927997 -1.8227745
-0.78923267 -0.55139595 0.11821327
-11.219863 -7.8358235 -1.6803347
-14.069116 -9.822052 -1.5011705
-20.295509 -14.158348 -1.2968851
-36.165432 -25.210598 -0.76951152
-6.250174 -4.3439841 -2.0394943
-7.0234094 -4.8777618 -1.9741703
-8.1038742 -5.626049 -1.9176304
-9.4559603 -6.559834 -1.8227745
-0.75852776 -0.52601343 0.1133385
-11.261831 -7.8067861 -1.6825283
-14.116415 -9.7819624 -1.502565
-20.403925 -14.128344 -1.3006533
-36.187431 -25.038691 -0.76811528
-6.2589374 -4.3177538 -2.0374236
-7.0532293 -4.8620644 -1.9777697
-8.1363955 -5.6066403 -1.9206835
-9.4609041 -6.5144625 -1.819333
-0.73419636 -0.50535429 0.10943868
-11.298823 -7.7741814 -1.6839907
-14.171815 -9.747304 -1.5048311
-20.525537 -14.106814 -1.3052589
-36.281216 -24.916739 -0.76825494
-6.283535 -4.3024278 -2.0405295
-7.0781994 -4.8429155 -1.9800191
-8.1753616 -5.5915046 -1.9252628
-9.4770641 -6.4769402 -1.8180816
-0.73431683 -0.50166857 0.10919494
-11.32917 -7.7369318 -1.6844782
-14.209044 -9.7000227 -1.5051796
-20.627455 -14.071096 -1.3086084
-36.374573 -24.794455 -0.76839459
-6.2873316 -4.2728653 -2.036906
-7.1127939 -4.8302226 -1.9849681
-8.214324 -5.5761633 -1.9298422
-9.5061512 -6.4482565 -1.819333
-0.73606348 -0.49910223 0.10919494
-11.361038 -7.7006798 -1.6852095
-14.259309 -9.6615438 -1.5069227
-20.745907 -14.046036 -1.3130046
-6.3022084 -4.2508926 -2.036906
-51.287457 -34.580814 1.0797106
-7.1473875 -4.8173437 -1.989917
-8.2418795 -5.5529404 -1.9317504
-9.5384359 -6.4216514 -1.8212101
-0.72462624 -0.48766324 0.10724504
-11.391142 -7.6631942 -1.685697
-14.306176 -9.6206017 -1.5083174
-20.900904 -14.044831 -1.3197036
-6.3089809 -4.2234955 -2.0343177
-7.1852174 -4.8064513 -1.9957658
-8.2563152 -5.5208645 -1.9306054
-9.5607929 -6.3883171 -1.8212101
-0.72467321 -0.4840284 0.10700129
-11.427731 -7.6299953 -1.6871593
-14.346299 -9.5750284 -1.5090145
-20.999653 -14.005027 -1.3228438
-6.3222175 -4.2036557 -2.0343177
-7.2100196 -4.7903266 -1.9984653
-8.2817974 -5.5003281 -1.9325136
-9.5775232 -6.3560667 -1.8205845
-0.72619039 -0.48174921 0.10700129
-11.464877 -7.6028352 -1.6891092
-14.392917 -9.5409231 -1.5107577
-21.176754 -14.027225 -1.3312175
-6.3336287 -4.1794314 -2.0332825
-7.2055478 -4.7511835 -1.9926165
-8.2829151 -5.4595027 -1.9283159
-9.6062508 -6.326942 -1.821836
-0.72289342 -0.47593674 0.10627007
-11.478081 -7.554038 -1.6871593
-14.436122 -9.4971905 -1.5118035
-21.36912 -14.047571 -1.3402194
-6.3594923 -4.1647062 -2.036906
-7.2237186 -4.7270694 -1.9930664
-8.3052082 -5.4327064 -1.9290791
-9.6448126 -6.3041787 -1.8249646
-0.71956497 -0.470153 0.10553886
-11.511027 -7.5182681 -1.6881342
-14.480861 -9.4543676 -1.5130236
-21.461515 -14.001266 -1.3429408
-6.3658919 -4.137218 -2.0343177
-7.2401752 -4.7018251 -1.9930664
-8.3109474 -5.3951302 -1.9260262
-9.6634455 -6.2683234 -1.8243389
-0.73286092 -0.47519842 0.10724504
-11.537202 -7.4780412 -1.6881342
-14.527152 -9.4124308 -1.5144182
-21.580673 -13.971855 -1.347337
-6.3786707 -4.1139259 -2.0338001
-7.25982 -4.6786342 -1.9939661
-8.3363295 -5.3703408 -1.9275526
-9.6902494 -6.237761 -1.8252774
-0.73952311 -0.47586003 0.10797625
-11.564904 -7.438797 -1.6883781
-14.553215 -9.3573523 -1.5137209
-21.720053 -13.954737 -1.3529893
-6.3832288 -4.0853868 -2.0306942
-7.2744641 -4.6522155 -1.9935162
-8.3517179 -5.3390923 -1.9267894
-9.7136288 -6.2049637 -1.8255905
-0.72946817 -0.4657971 0.10627007
-11.599167 -7.4037223 -1.6895967
-14.621061 -9.3290043 -1.5173815
-21.876415 -13.947551 -1.3596883
-6.4088674 -4.0703287 -2.0343177
-7.2791424 -4.6194859 -1.9903669
-8.376936 -5.3141131 -1.9283159
-9.7385645 -6.1731334 -1.8262162
-0.71935201 -0.45581049 0.10456391
-11.624938 -7.3631911 -1.6895967
-14.68047 -9.2949591 -1.5201705
-22.019482 -13.930907 -1.3655499
-6.4230356 -4.0479341 -2.0343177
-7.3018198 -4.5982003 -1.9921664
-8.3954334 -5.2848415 -1.9283159
-9.7700882 -6.1454096 -1.8280934
-0.71757758 -0.45118353 0.10407643
-11.657292 -7.3267922 -1.6905717
-14.721262 -9.2489576 -1.5210421
-22.172853 -13.919799 -1.3720396
-6.4354882 -4.0244641 -2.0338001
-7.3211303 -4.5747509 -1.9930664
-8.41716 -5.2575841 -1.9290791
-9.7898035 -6.1102247 -1.8277806
-0.73262161 -0.45708209 0.10602634
-11.701327 -7.2976084 -1.6932528
-14.765206 -9.2012644 -1.5220878
-22.326416 -13.907783 -1.3785293
-6.448554 -3.9998314 -2.0332825
-7.345336 -4.5543017 -1.9953159
-8.4347048 -5.2256641 -1.9286975
-9.8121328 -6.0743022 -1.8277806
-0.73927623 -0.45765659 0.10675755
-11.730103 -7.25881 -1.6937402
-14.804015 -9.1538553 -1.5227851
-22.492779 -13.897251 -1.3856469
-6.4312172 -3.9580588 -2.0234473
-7.3586588 -4.5253072 -1.994416
-8.4344959 -5.1848798 -1.9244996
-9.83496 -6.041048 -1.8280934
-0.74094868 -0.45494393 0.10675755
-11.766781 -7.2219982 -1.6952027
-14.85286 -9.1125422 -1.5245281
-22.653532 -13.887547 -1.3925552
-6.4499407 -3.938606 -2.0250003
-7.3760734 -4.500608 -1.9948659
-8.4508677 -5.1543837 -1.924118
-9.869482 -6.0149045 -1.8305963
-0.73575109 -0.44822362 0.1057826
-11.802094 -7.1870732 -1.6966652
-14.904999 -9.0730753 -1.5266199
-22.831562 -13.887261 -1.4005104
-6.4669538 -3.9180708 -2.0260355
-7.3784027 -4.4667592 -1.9912667
-8.4704866 -5.1258717 -1.9244996
-0.89670324 -0.54242128 0.091687836
-9.8937979 -5.982461 -1.8312221
-0.73901004 -0.44667965 0.10602634
-11.8407 -7.1540465 -1.6986151
-14.953636 -9.0312939 -1.5283631
-23.050896 -13.910678 -1.4109775
-6.4789352 -3.8944776 -2.0255179
-0.8792274 -0.52850217 0.017906168
-7.383152 -4.436245 -1.9885672
-0.90059853 -0.54092056 0.055057433
-8.4799137 -5.0912175 -1.9225914
-0.85075742 -0.51058054 0.086807117
-9.9169712 -5.9516521 -1.8318479
-0.74389172 -0.44626892 0.10651381
-11.877978 -7.1229086 -1.700565
-15.019251 -8.9995203 -1.5318493
-0.84642941 -0.50697899 -0.051707931
-0.84763902 -0.50730157 -0.017242977
-6.4901552 -3.8719816 -2.0250003
-0.83297759 -0.49675125 0.016928835
-7.3785048 -4.3984733 -1.9831684
-0.84062696 -0.50111443 0.051289242
-8.5102396 -5.0711102 -1.9256444
-0.79082328 -0.47105116 0.080531903
-9.9478674 -5.9230642 -1.833725
-0.75397408 -0.44874585 0.10773251
-0.83082253 -0.49428743 -0.11870075
-0.82540095 -0.49086693 -0.084018134
-0.837892 -0.49789953 -0.051079899
-0.82524693 -0.49019065 -0.016754311
-6.5185938 -3.8581586 -2.029659
-0.80708635 -0.47768998 0.016370358
-7.4165316 -4.3878732 -1.9894673
-0.82174164 -0.48597682 0.050033178
-0.83487487 -0.49354684 -0.1885193
-0.8027544 -0.47436967 0.08157777
-0.82481068 -0.48740333 -0.15174145
-0.73665708 -0.43513751 0.10505138
-0.82561964 -0.48749238 -0.11772579
-0.83740526 -0.49405739 -0.085064009
-0.8292163 -0.48903069 -0.050451867
-0.82350725 -0.48527673 -0.016684501
-0.87784302 -0.51564556 -0.27279529
-0.81564653 -0.47891989 0.016509976
-0.81679243 -0.47940105 -0.21865243
-0.82687831 -0.48512673 0.050242521
-0.84666675 -0.49673656 -0.190809
-0.81807226 -0.47976807 0.082972266
-0.80605739 -0.47253305 -0.14798702
-0.74159688 -0.43457067 0.10553886
-0.82389063 -0.48260081 -0.11723832
-0.82184559 -0.48121053 -0.083320886
-0.7964403 -0.46596164 -0.048358425
-0.82174361 -0.48038054 -0.01661469
-0.85626972 -0.4989613 -0.26554835
-0.82422513 -0.48009577 0.016649596
-0.82182902 -0.47850806 -0.21955223
-0.83201915 -0.48424655 0.050451867
-0.81785351 -0.47600195 -0.18393987
-0.81285334 -0.47290215 0.082275018
-0.8145324 -0.47368875 -0.1492385
-0.7448256 -0.43297678 0.1057826
-0.81870466 -0.47573274 -0.11626337
-0.85453159 -0.49635157 -0.086458497
-0.83261001 -0.48322996 -0.050451867
-0.80611682 -0.4674775 -0.016265644
-0.85131603 -0.49210209 -0.2634778
-0.8276273 -0.47821617 0.016684501
-0.81843179 -0.47271258 -0.21820252
-0.81978428 -0.47349375 0.049614493
-0.80930859 -0.46725461 -0.18165016
-0.79896843 -0.46109879 0.080706216
-0.83329171 -0.48071328 -0.15236719
-0.76180929 -0.4392992 0.10797625
-0.83239907 -0.47981143 -0.11796954
-0.82863778 -0.47745043 -0.083669513
-0.83948445 -0.48331019 -0.050765883
-0.81459534 -0.46879143 -0.016405262
-0.83124208 -0.47663495 -0.2567485
-0.80839169 -0.46353254 0.016265644
-0.82168555 -0.470965 -0.21865243
-0.82316512 -0.47162193 0.049719162
-0.80923104 -0.46345103 -0.18126856
-0.79365659 -0.45434779 0.080008969
-0.82288069 -0.4710778 -0.15017711
-0.75809312 -0.43381271 0.10724504
-0.81503147 -0.4662064 -0.11528841
-0.82143664 -0.4689194 -0.016509976
-0.81938559 -0.46623269 -0.25260741
-0.81000471 -0.46070808 0.016265644
-0.81993639 -0.46616757 -0.21775262
-0.8143878 -0.46282464 0.04909113
-0.81759101 -0.46464506 -0.18279503
-0.79169422 -0.44974491 0.079660349
-0.81421369 -0.4623498 -0.14829989
-0.75442362 -0.42822403 0.10651381
-0.81665385 -0.46335855 -0.11528841
-0.81627089 -0.46295294 -0.082100704
-0.82364082 -0.46675298 -0.049614493
-0.79696697 -0.4512696 -0.015986405
-0.82773751 -0.46716791 -0.25467795
-0.81509131 -0.45984298 0.016335452
-0.78591263 -0.44320044 -0.20830467
-0.81947815 -0.46194059 0.049300473
-0.80210543 -0.4521476 -0.17897885
-0.81061727 -0.45675954 0.081403457
-0.82098615 -0.4624131 -0.1492385
-0.75764364 -0.42656186 0.10675755
-0.80442667 -0.45271659 -0.1133385
-0.82656431 -0.46498507 -0.082972266
-0.82700616 -0.4648537 -0.049719162
-0.8020243 -0.45044333 -0.016056214
-0.83610594 -0.4680503 -0.2567485
-0.82018155 -0.4589479 0.016405262
-0.79765946 -0.44616219 -0.21100408
-0.8053959 -0.45030522 0.048358425
-0.7968244 -0.44551277 -0.17745239
-0.81916362 -0.45781499 0.082100704
-0.81742167 -0.45665428 -0.14829989
-0.75739473 -0.4229469 0.10651381
-0.80080205 -0.44700301 -0.11260728
-0.83166212 -0.46403858 -0.083320886
-0.83211267 -0.46390918 -0.049928509
-0.80883253 -0.45056057 -0.01616093
-0.83097875 -0.46137783 -0.25467795
-0.82177871 -0.4560819 0.016405262
-0.81284457 -0.45093819 -0.2146033
-0.81220299 -0.45039696 0.048672445
-0.80180848 -0.4446328 -0.17821561
-0.81901419 -0.45398688 0.081926398
-0.83628935 -0.46337214 -0.15142858
-0.77102226 -0.42703301 0.10821999
-0.81277782 -0.44997385 -0.11406972
-0.83502007 -0.46209762 -0.0834952
-0.81275278 -0.44940418 -0.048672445
-0.81390113 -0.44966835 -0.016230738
-0.83266425 -0.45832902 -0.25467795
-0.82169265 -0.45210308 0.016370358
-0.81449199 -0.44795576 -0.2146033
-0.82609987 -0.45415235 0.04940515
-0.81031448 -0.44547424 -0.17974208
-0.81543416 -0.44810352 0.081403457
-0.81547439 -0.44794008 -0.14736128
-0.77606231 -0.42611501 0.10870746
-0.81964207 -0.44985735 -0.11480093
-0.80177259 -0.43986744 -0.080008969
-0.81089151 -0.44450235 -0.048463102
-0.8015129 -0.43899754 -0.015951499
-0.81899816 -0.44708881 -0.25001919
-0.80220151 -0.43773785 0.015951499
-0.80578572 -0.43951121 -0.21190389
-0.82417291 -0.44935378 0.049195804
-0.81531191 -0.44452259 -0.18050532
-0.78725278 -0.42904577 0.078440167
-0.80489016 -0.43847606 -0.1451712
-0.7653414 -0.41675809 0.10700129
-0.82120752 -0.44699329 -0.11480093
-0.79980278 -0.4351618 -0.079660349
-0.7966457 -0.4330835 -0.047521055
-0.80655479 -0.438106 -0.016021309
-0.81036067 -0.4387089 -0.24691339
-0.80724198 -0.43683839 0.016021309
-0.79188865 -0.42835128 -0.20785476
-0.82038838 -0.44376746 0.048881788
-0.81340468 -0.43980634 -0.17974208
-0.80627322 -0.43576854 0.080183282
-0.79772604 -0.43096915 -0.14360686
-0.75980479 -0.41031101 0.10602634
-0.81220514 -0.43860835 -0.1133385
-0.80657721 -0.43520558 -0.080183282
-0.79991055 -0.43124804 -0.047625724
-0.81328416 -0.43827483 -0.016126024
-0.83733964 -0.44973049 -0.25467795
-0.81573343 -0.43794277 0.01616093
-0.79845613 -0.42848733 -0.20920448
-0.80249697 -0.43065584 0.047730397
-0.81139857 -0.43525046 -0.17897885
-0.80244613 -0.43026787 0.079660349
-0.80785614 -0.43298718 -0.1451712
-0.76291102 -0.40872657 0.10627007
-0.80140662 -0.42935044 -0.11163233
-0.81679881 -0.43722987 -0.081054844
-0.82070929 -0.43895462 -0.048777115
-0.7953347 -0.4252046 -0.015742071
-0.83712149 -0.44604284 -0.25416031
-0.80659139 -0.42959505 0.015951499
-0.80847347 -0.43041608 -0.21145399
-0.80575848 -0.42879021 0.047835067
-0.7972393 -0.42425668 -0.17554428
-0.80738652 -0.42947605 0.080008969
-0.82847321 -0.44050705 -0.14861277
-0.77828544 -0.4136475 0.10821999
-0.79764116 -0.42375651 -0.11090111
-0.82183969 -0.43624431 -0.081403457
-0.79746026 -0.42312497 -0.047311708
-0.79328066 -0.42055249 -0.015672261
-0.82166821 -0.4339498 -0.24898393
-0.81169426 -0.42850107 -0.21190389
-0.80399841 -0.4240796 -0.17668915
-0.8107177 -0.42744294 0.080183282
-0.80037397 -0.42181104 -0.14329399
-0.77445608 -0.40815187 0.10748877
-0.8201912 -0.43207192 -0.11382597
-0.78985894 -0.41574118 -0.078091539
-0.82375377 -0.43321431 -0.048777115
-0.83014423 -0.4363904 -0.016370358
-0.81462103 -0.42659786 -0.24639574
-0.83976305 -0.4395777 0.016544882
-0.81325924 -0.42552337 -0.21190389
-0.86013097 -0.4498567 0.050870556
-0.82635009 -0.43218896 -0.18126856
-0.81220472 -0.42461058 0.080183282
-0.80884451 -0.42267391 -0.14454547
-0.77770644 -0.4062295 0.10773251
-0.84816438 -0.44284454 -0.11748206
-0.82663161 -0.43141797 -0.08157777
-0.83765745 -0.43680069 -0.04950982
-0.83528513 -0.43519258 -0.016440166
-0.84868073 -0.44066641 -0.25623086
-0.83064306 -0.43111652 0.016335452
-0.82338881 -0.42716882 -0.21415339
-0.85283077 -0.44225448 0.050347198
-0.82959646 -0.43020582 -0.18165016
-0.82429522 -0.42727423 0.08122915
-0.85240936 -0.44165826 -0.15205432
-0.77030605 -0.39894783 0.10651381
-0.83207631 -0.43075499 -0.11504468
-0.83167148 -0.43036118 -0.081926398
-0.83562887 -0.43203926 -0.049300473
-0.81725591 -0.42217883 -0.016056214
-0.84506094 -0.43504849 -0.25467795
-0.82503051 -0.42455441 0.016195834
-0.82140899 -0.42250952 -0.2132536
-0.82409924 -0.4238933 0.048567772
-0.82236308 -0.42281878 -0.17974208
-0.83287007 -0.42803699 0.081926398
-0.84164608 -0.43236181 -0.14986424
-0.78052342 -0.40079033 0.10773251
-0.81238234 -0.41697016 -0.1121198
-0.84912282 -0.43564096 -0.0834952
-0.81935841 -0.42000887 -0.048253756
-0.82932967 -0.42493749 -0.016265644
-0.85173649 -0.43473077 -0.25623086
-0.83890158 -0.42817977 0.016440166
-0.82627732 -0.42155451 -0.21415339
-0.84514576 -0.43099505 0.049719162
-0.81333935 -0.41459602 -0.17745239
-0.8450104 -0.43055439 0.082972266
-0.82547444 -0.42060032 -0.14673555
-0.78361708 -0.39910072 0.10797625
-0.83498907 -0.42508125 -0.11504468
-0.82755214 -0.42093155 -0.08122915
-0.83142889 -0.42272055 -0.048881788
-0.83615631 -0.42475715 -0.016370358
-0.82042533 -0.4153257 -0.24639574
-0.91533041 -0.46316907 0.017906168
-0.8486113 -0.42922232 -0.21955223
-0.88051087 -0.44516394 0.051707931
-0.84449482 -0.42695516 -0.18393987
-0.87488508 -0.442128 0.085761249
-0.8198849 -0.41415375 -0.14548407
-0.77968943 -0.39367878 0.10724504
-0.84532875 -0.42663607 -0.11626337
-25.450693 -12.828201 -1.4936683
-6.761435 -3.3932598 -2.0270708
-7.6631331 -3.8424313 -1.9791193
-0.8740623 -0.43807974 -0.19004577
-10.40169 -5.2087793 -1.8424854
-0.78283405 -0.39184305 0.10748877
-12.524663 -6.2664175 -1.7195766
-15.962889 -7.9831696 -1.5614822
-25.395264 -12.689298 -1.4878067
-6.7472949 -3.3567283 -2.0193064
-7.6869693 -3.8208647 -1.9818188
-8.9457483 -4.4446006 -1.9416724
-10.410962 -5.1680498 -1.840921
-0.76641482 -0.38028494 0.10505138
-12.521564 -6.2103119 -1.7161642
-16.02636 -7.9451036 -1.5649685
-25.332018 -12.547383 -1.4815264
-16.821482 -8.3283072 4.3334575
-6.7659011 -3.3365729 -2.0213768
-7.675787 -3.7819505 -1.9755201
-8.9171772 -4.3916616 -1.932132
-10.434257 -5.1342902 -1.8418596
-0.76773763 -0.37760732 0.10505138
-12.537819 -6.1639404 -1.715433
-16.039694 -7.8820786 -1.563574
-25.307535 -12.425432 -1.477549
-16.878439 -8.2832794 4.3406558
-6.774035 -3.3112397 -2.0203414
-7.7047019 -3.7628288 -1.9795692
-8.9342155 -4.3613715 -1.9325136
-10.484074 -5.1134238 -1.8474913
-0.77975696 -0.38014463 0.10651381
-12.582458 -6.1314421 -1.7186016
-16.099352 -7.8417459 -1.5667117
-25.34716 -12.335267 -1.4773395
-16.973841 -8.2567034 4.3577518
-6.783814 -3.2867312 -2.019824
-7.7294145 -3.7432034 -1.9827186
-8.9476185 -4.3293033 -1.932132
-10.486746 -5.0717483 -1.8449883
-0.77922618 -0.37669256 0.10627007
-12.634893 -6.1052289 -1.7229888
-16.133802 -7.7889652 -1.5674089
-25.445486 -12.278928 -1.480689
-17.060806 -8.2291555 4.3730483
-6.801641 -3.2675631 -2.0218945
-7.7283783 -3.7094555 -1.9791193
-8.9725466 -4.3047032 -1.9344217
-1.0096335 -0.48416892 0.097963057
-10.504386 -5.0351114 -1.8449883
-0.77695578 -0.37225497 0.1057826
-12.670453 -6.0679436 -1.7249388
-16.170324 -7.740581 -1.5684546
-25.527836 -12.208982 -1.4829918
-17.272278 -8.2569628 4.4198384
-6.8147502 -3.2446315 -2.0224121
-7.7342401 -3.6791072 -1.9773197
-39.41906 -18.742847 2.2875001
-8.9999304 -4.2792583 -1.937093
-0.95013458 -0.45156342 0.092036456
-10.530818 -5.0026541 -1.8465527
-0.7728709 -0.36698619 0.10505138
-12.659277 -6.0083575 -1.7205516
-16.197245 -7.6840925 -1.5684546
-25.682196 -12.172836 -1.4894814
-40.794212 -19.31819 -0.78787142
-6.8225393 -3.2191763 -2.0213768
-7.7576122 -3.657073 -1.9800191
-9.0130348 -4.2469811 -1.9367114
-0.94089013 -0.44315061 0.090990596
-10.550004 -4.9667053 -1.8468655
-0.78312814 -0.36851197 0.10627007
-12.687356 -5.9675136 -1.7215265
-16.245605 -7.6376786 -1.5705464
-25.75345 -12.096705 -1.4911562
-40.745544 -19.121302 -0.78563756
-6.8302355 -3.1937034 -2.0203414
-1.0199317 -0.476686 0.019651409
-7.763268 -3.6266742 -1.9782196
-0.95189661 -0.44448364 0.055057433
-9.0189123 -4.2113385 -1.9348032
-10.574437 -4.9331889 -1.8481169
-0.78081137 -0.3640984 0.1057826
-12.718904 -5.9282217 -1.7229888
-16.290228 -7.5893378 -1.5722896
-25.893301 -12.052247 -1.4968085
-40.764889 -18.957041 -0.78472996
-6.8378367 -3.1682174 -2.0193064
-7.7935648 -3.6077373 -1.9827186
-9.0424662 -4.1839528 -1.9367114
-10.5898 -4.8954177 -1.8478041
-0.79288977 -0.36636654 0.10724504
-12.759345 -5.8929434 -1.7256701
-25.942467 -11.965134 -1.4972272
-41.037857 -18.910032 -0.78870916
-6.8611436 -3.1499715 -2.0229297
-7.8025689 -3.5788858 -1.9818188
-9.0623693 -4.1548171 -1.9378562
-10.601436 -4.8559546 -1.8468655
-0.79055399 -0.36194387 0.10675755
-12.787058 -5.8516731 -1.726645
-16.437031 -7.5185213 -1.5813538
-26.045835 -11.902728 -1.5007859
-41.121807 -18.774971 -0.78905821
-6.8633041 -3.1220045 -2.0203414
-41.815685 -19.012449 0.80179846
-7.8096919 -3.5492089 -1.9804692
-9.0839663 -4.1264081 -1.9393828
-10.623718 -4.8213682 -1.8478041
-0.78819686 -0.35754216 0.10627007
-12.805598 -5.8061824 -1.7264012
-16.457731 -7.4586315 -1.5808308
-26.14909 -11.839749 -1.5043448
-41.438526 -18.745052 -0.7938751
-6.8900118 -3.1051717 -2.0250003
-7.8238091 -3.5227282 -1.980919
-9.0911531 -4.0914512 -1.9378562
-10.64949 -4.7883077 -1.8493685
-0.78038704 -0.35071981 0.10505138
-12.836654 -5.7663274 -1.7278637
-16.501841 -7.4093027 -1.582574
-26.244926 -11.772922 -1.507485
-41.554802 -18.623188 -0.79485244
-6.8919897 -3.0771625 -2.0224121
-7.8431764 -3.4985714 -1.9827186
-9.1017952 -4.0580912 -1.937093
-10.669748 -4.7527118 -1.8499942
-0.80518168 -0.3584899 0.10821999
-12.862143 -5.7239079 -1.7285949
-16.51668 -7.346796 -1.5815279
-26.366167 -11.716932 -1.5120907
-41.484306 -18.417974 -0.79226947
-6.8938546 -3.0491803 -2.019824
-7.8678198 -3.4766839 -1.9858679
-9.1230879 -4.0294695 -1.9386196
-10.691698 -4.7178283 -1.8509328
-0.80642807 -0.35567728 0.10821999
-12.894759 -5.6845803 -1.7303011
-16.596924 -7.3131948 -1.5867574
-26.480028 -11.657013 -1.5162776
-41.665493 -18.324587 -0.79450333
-6.9097648 -3.0274234 -2.0213768
-7.8781219 -3.4484191 -1.985418
-9.1406946 -3.9991729 -1.9393828
-10.699049 -4.6765251 -1.8493685
-0.80220747 -0.35047594 0.10748877
-12.918163 -5.6411204 -1.7307886
-16.741041 -7.3070254 -1.5980877
-17.593363 -7.6753864 3.7310793
-26.586464 -11.593242 -1.5200456
-6.9220624 -3.0040541 -2.0218945
-7.8805752 -3.4183977 -1.9831684
-9.1672087 -3.9727066 -1.942054
-10.727186 -4.6465154 -1.8515586
-0.80336529 -0.34781373 0.10748877
-12.955017 -5.6061378 -1.7332259
-16.806679 -7.2659373 -1.6019225
-17.63674 -7.6247926 3.7348955
-26.657764 -11.519279 -1.5219297
-17.807758 -7.6913519 4.4783254
-44.499077 -19.21039 -0.84602284
-6.9461842 -2.9871888 -2.0260355
-7.8906689 -3.3900988 -1.9827186
-9.1767254 -3.9407353 -1.9412909
-10.750604 -4.6121573 -1.85281
-0.81734556 -0.35048366 0.10919494
-12.996401 -5.5702658 -1.7361507
-16.82885 -7.2093792 -1.6017481
-17.623543 -7.5461807 3.7264998
-26.74188 -11.445017 -1.524442
-17.811205 -7.6191802 4.472477
-45.146889 -19.303368 -0.85705274
-6.9512362 -2.9606543 -2.0244827
-7.9185939 -3.3694017 -1.9867678
-9.1813908 -3.9048383 -1.9393828
-10.782999 -4.5815544 -1.8556259
-0.80577379 -0.34219691 0.10748877
-13.01394 -5.5240898 -1.7359071
-17.622662 -7.4731231 3.7207754
-26.851545 -11.381218 -1.5284194
-17.843075 -7.5592408 4.4738264
-45.449699 -19.245453 -0.86152059
-6.9561887 -2.9341192 -2.0229297
-7.9392848 -3.3455253 -1.9890171
-9.2022038 -3.8758116 -1.9409093
-10.789821 -4.5400586 -1.8540615
-0.82526201 -0.34707767 0.10992616
-13.051442 -5.486321 -1.7383444
-16.965099 -7.1279922 -1.6099408
-17.789833 -7.4708519 3.7505417
-27.016338 -11.339982 -1.5355371
-17.838802 -7.4840975 4.4661779
-45.907551 -19.250635 -0.86892039
-6.969954 -2.9113071 -2.0239649
-7.9491162 -3.3170409 -1.9885672
-9.2211132 -3.845933 -1.942054
-10.805603 -4.5023665 -1.8540615
-0.82646853 -0.34419483 0.10992616
-13.08151 -5.4453101 -1.7398069
-17.039547 -7.0893898 -1.6146473
-27.111084 -11.268612 -1.5386772
-17.816231 -7.4015923 4.454031
-46.842468 -19.450695 -0.88532567
-6.9800735 -2.886961 -2.0239649
-7.9624481 -3.2900152 -1.9890171
-9.2308512 -3.8122253 -1.9412909
-10.824907 -4.4661255 -1.8546873
-0.84601659 -0.34887579 0.11236355
-13.115119 -5.4056649 -1.7417568
-17.095509 -7.042769 -1.6176106
-17.961369 -7.395812 3.7757285
-27.227827 -11.205832 -1.5430734
-47.435627 -19.512821 -0.89530849
-6.9901085 -2.8625782 -2.0239649
-7.9679031 -3.2613797 -1.9876676
-9.2368336 -3.7770076 -1.9397644
-10.852457 -4.4354377 -1.8568773
-13.132974 -5.362143 -1.7417568
-17.167952 -7.0026197 -1.6221427
-18.054874 -7.3643856 3.79023
-27.349915 -11.150164 -1.5478884
-7.0049334 -2.8415608 -2.0255179
-7.9900761 -3.2379379 -1.9903669
-9.2329311 -3.7397227 -1.9363298
-10.869704 -4.3982687 -1.8571903
-13.153451 -5.3170118 -1.7420006
-17.229876 -6.961319 -1.6258032
-27.447935 -11.078547 -1.5512379
-7.0022607 -2.8120518 -2.0218945
-8.0067549 -3.2122037 -1.9917165
-9.2677956 -3.716239 -1.9409093
-10.888659 -4.3617687 -1.8578159
-13.195891 -5.2806492 -1.7451692
-17.292915 -6.9166746 -1.6294638
-27.597725 -11.027125 -1.5575182
-7.0210094 -2.7911623 -2.0244827
-8.0070524 -3.1799197 -1.9890171
-9.2880087 -3.6867647 -1.9424356
-10.903818 -4.3237333 -1.8578159
-13.22716 -5.239675 -1.7468753
-17.36512 -6.8753381 -1.6339959
-27.673189 -10.945421 -1.5596117
-7.0379004 -2.7694666 -2.0265532
-8.0157404 -3.1526365 -1.9885672
-9.3099594 -3.6579082 -1.9443438
-10.930967 -4.2926049 -1.860006
-13.233377 -5.191433 -1.7454128
-17.470631 -6.8466711 -1.6416655
-19.891201 -7.7952828 4.1527672
-27.776281 -10.879816 -1.5633799
-7.0398455 -2.7433071 -2.0244827
-8.0339603 -3.1274667 -1.9903669
-9.3128891 -3.6234577 -1.9424356
-10.947724 -4.2551403 -1.8603188
-13.273623 -5.1538305 -1.7483377
-17.534105 -6.8045521 -1.6455004
-20.006149 -7.7598739 4.1710849
-27.869957 -10.804449 -1.56652
-7.0493798 -2.718715 -2.0244827
-67.356186 -25.963594 1.2600288
-8.0448275 -3.0994036 -1.9903669
-9.3236494 -3.5902197 -1.942054
-10.973573 -4.2211547 -1.8621961
-13.313769 -5.1160097 -1.7512627
-17.602388 -6.7604527 -1.649684
-20.091768 -7.7125063 4.1832967
-28.008198 -10.745731 -1.5721723
-7.0443869 -2.6885819 -2.0203414
-8.064702 -3.074774 -1.9926165
-9.3508005 -3.5632467 -1.945107
-10.980858 -4.1800098 -1.8609446
-13.333401 -5.0702124 -1.7515063
-17.66313 -6.71312 -1.6531701
-20.125908 -7.6451144 4.184823
-28.090349 -10.664919 -1.5746844
-20.227552 -7.6756477 4.994813
-7.0609584 -2.6667061 -2.0224121
-8.075387 -3.046602 -1.9926165
-9.3742037 -3.5347407 -1.9473966
-11.006474 -4.1458321 -1.8628219
-13.382604 -5.0355239 -1.7556499
-17.746132 -6.6738658 -1.6587481
-20.15247 -7.5748196 4.184823
-24.844255 -9.3333921 -1.3908806
-20.170303 -7.5734835 4.9741178
-7.0774627 -2.6447473 -2.0244827
-8.0859718 -3.0183969 -1.9926165
-9.3901634 -3.5033691 -1.9481598
-11.02828 -4.1101484 -1.8640733
-13.40196 -4.9894686 -1.7558937
-17.829071 -6.6341166 -1.664326
-28.328867 -10.52978 -1.5838956
-20.04682 -7.4473848 4.9372258
-24.891512 -9.2422428 -0.46346611
-7.0848384 -2.6193578 -2.0239649
-8.1074266 -2.9942036 -1.9953159
-9.3968096 -3.4685326 -1.947015
-11.042562 -4.0716271 -1.8640733
-13.423018 -4.9440312 -1.7563812
-17.904472 -6.5911136 -1.6692067
-28.432932 -10.455652 -1.5876638
-20.209879 -7.4277821 4.9709687
-43.61916 -16.022795 -0.81111807
-7.0921245 -2.5939455 -2.0234473
-8.1233196 -2.9678931 -1.9966656
-9.4014835 -3.4330144 -1.9454886
-11.060419 -4.0344105 -1.8646991
-13.458847 -4.9039416 -1.7588185
-17.949837 -6.5367556 -1.6712985
-28.548088 -10.385015 -1.59206
-7.0938702 -2.5665443 -2.0213768
-8.1202888 -2.9362977 -1.9935162
-9.4226427 -3.4035106 -1.9473966
-11.073737 -3.9977105 -1.8646991
-13.482505 -4.8619766 -1.7597934
-18.02503 -6.4929647 -1.6761792
-28.650019 -10.314643 -1.5958281
-7.0932479 -2.5397496 -2.0187886
-8.1341591 -2.9092491 -1.994416
-9.4431219 -3.3755493 -1.9493048
-11.091344 -3.960362 -1.8653249
-13.527438 -4.8248868 -1.7634495
-18.102764 -6.4532299 -1.6814086
-28.753584 -10.238692 -1.5995963
-41.58997 -14.801345 -0.77055866
-7.1166387 -2.520133 -2.0229297
-8.1364136 -2.8796582 -1.9926165
-9.4603996 -3.3445287 -1.9504496
-11.10814 -3.9248757 -1.8659505
-13.537749 -4.778019 -1.7627183
-18.174036 -6.4072194 -1.6859407
-28.858961 -10.168506 -1.6035738
-42.822193 -15.071674 -0.79240906
-7.1399779 -2.5003855 -2.0270708
-8.1524324 -2.8517458 -1.9939661
-9.4608955 -3.3076 -1.9481598
-11.133641 -3.8880408 -1.8678278
-13.573088 -4.7372794 -1.7651558
-18.252731 -6.3634167 -1.69117
-28.960169 -10.084996 -1.6071328
-43.10117 -15.00098 -0.7965976
-7.1391034 -2.4735324 -2.0244827
-8.1618443 -2.8246953 -1.9939661
-9.4662466 -3.2742827 -1.947015
-11.153942 -3.8536787 -1.8690792
-13.607486 -4.6987219 -1.7675931
-18.322702 -6.3197436 -1.6957021
-29.057652 -10.01103 -1.6106915
-43.139336 -14.854062 -0.79638827
-7.1417842 -2.4479649 -2.0229297
-8.1766968 -2.7995093 -1.9953159
-9.4844837 -3.2454159 -1.9485416
-11.166659 -3.8166721 -1.8690792
-13.635077 -4.6550417 -1.7690556
-21.647451 -7.3862591 3.6227098
-18.388815 -6.2743893 -1.6998856
-29.211681 -9.9558525 -1.6173905
-43.04705 -14.654419 -0.79373544
-7.1539454 -2.4242604 -2.0239649
-8.1642685 -2.7634525 -1.989917
-9.5031929 -3.2148049 -1.950068
-11.172428 -3.7751398 -1.8678278
-13.677574 -4.6163049 -1.7724679
-18.463465 -6.2279968 -1.7047664
-29.31061 -9.8755045 -1.6209494
-43.23819 -14.551264 -0.79631841
-7.162364 -2.3992734 -2.0239649
-8.1683216 -2.7330818 -1.9885672
-9.5180807 -3.1828582 -1.9508314
-11.196779 -3.7398727 -1.869705
-13.70302 -4.5716739 -1.7736866
-21.473616 -7.1599765 3.5851655
-18.541794 -6.1824155 -1.7099956
-21.467871 -7.1538982 4.3985295
-29.447229 -9.80721 -1.6266017
-43.243179 -14.385097 -0.79548067
-7.1798649 -2.3772953 -2.0265532
-8.1759615 -2.7039402 -1.9881173
-9.5291319 -3.1496165 -1.9508314
-11.215393 -3.7026231 -1.8706435
-13.732091 -4.5281649 -1.7753928
-21.524742 -7.0936313 3.5895457
-18.631384 -6.1401048 -1.7162709
-21.433037 -7.059268 4.3863173
-29.526815 -9.719346 -1.6291138
-43.483101 -14.296508 -0.79897118
-7.1771026 -2.348613 -2.0234473
-8.1946115 -2.6784136 -1.9903669
-9.5344696 -3.1145029 -1.9496864
-11.245152 -3.6689689 -1.8734595
-13.768576 -4.486969 -1.7780739
-21.680849 -7.0612783 3.6114464
-18.69059 -6.0873752 -1.7197571
-21.427683 -6.9746823 4.3802114
-29.720102 -9.6681175 -1.6379062
-43.487091 -14.129815 -0.79813343
-7.1815815 -2.3223555 -2.0224121
-8.2057648 -2.6503911 -1.9908168
-9.5564938 -3.0848207 -1.9519762
-11.26165 -3.6309052 -1.8740851
-13.80116 -4.4443598 -1.7802675
-18.761038 -6.037961 -1.7242892
-21.403305 -6.884213 4.3702893
-29.932402 -9.6217766 -1.6477454
-43.368603 -13.924136 -0.79506189
-7.1988449 -2.3002143 -2.0250003
-8.2205372 -2.623507 -1.9921664
-9.5672035 -3.0514455 -1.9519762
-11.264845 -3.5885715 -1.8725207
-13.831722 -4.4009724 -1.7822174
-18.824816 -5.9824371 -1.728124
-21.453398 -6.8177881 4.3756323
-30.022913 -9.5353708 -1.6508855
-43.535114 -13.810163 -0.79722589
-7.2090697 -2.274395 -2.0255179
-8.214776 -2.5901096 -1.9885672
-9.5839405 -3.0181284 -1.9531209
-11.287344 -3.550226 -1.8740851
-13.854576 -4.355041 -1.7831924
-18.902609 -5.9345932 -1.7333534
-30.194876 -9.4682865 -1.658422
-43.392239 -13.598313 -0.79373544
-7.2188096 -2.2497914 -2.0260355
-8.2335167 -2.5628796 -1.9908168
-9.5925426 -2.9840724 -1.9527394
-11.314758 -3.5154922 -1.876588
-13.885612 -4.3089418 -1.7851423
-23.15016 -7.1794596 3.8389022
-18.984108 -5.8874602 -1.7389314
-30.304056 -9.3864737 -1.6626089
-43.625187 -13.495905 -0.7970863
-7.2210793 -2.2228739 -2.0244827
-8.240551 -2.5335507 -1.9903669
-9.597271 -2.9488397 -1.9515946
-11.330739 -3.477134 -1.8772138
-13.904365 -4.2616086 -1.7856297
-19.038836 -5.831655 -1.742069
-30.420668 -9.3063421 -1.6672144
-43.966541 -13.433537 -0.80246168
-7.2287951 -2.197654 -2.0244827
-8.2530727 -2.5059023 -1.9912667
-9.6187782 -2.9187412 -1.9538842
-11.35415 -3.4409986 -1.8790911
-13.938157 -4.2187948 -1.7880672
-19.112469 -5.7813177 -1.7469497
-30.525625 -9.2220392 -1.6711919
-44.091251 -13.311938 -0.80392766
-7.2327209 -2.171298 -2.0234473
-8.2613382 -2.4785199 -1.9912667
-9.6420717 -2.8890941 -1.9565556
-11.354144 -3.3999276 -1.8772138
-13.961577 -4.1754007 -1.7892859
-19.166899 -5.7248311 -1.7500874
-30.693829 -9.1618977 -1.6787282
-44.229435 -13.185371 -0.80560309
-7.2472901 -2.1494985 -2.0255179
-8.2643337 -2.4480069 -1.989917
-9.6534815 -2.8576612 -1.9569372
-11.37731 -3.3636334 -1.8790911
-13.983683 -4.1288853 -1.7902608
-19.25457 -5.6815381 -1.7563624
-30.729458 -9.05583 -1.6789377
-44.160088 -12.997024 -0.80350876
-7.264019 -2.1269016 -2.0281062
-8.2859211 -2.4229743 -1.9930664
-9.6615133 -2.8233955 -1.9565556
-11.400357 -3.3272214 -1.8809682
-14.003728 -4.0817142 -1.790992
-19.354626 -5.6376944 -1.7636836
-30.768553 -8.9507389 -1.6793563
-44.41642 -12.904164 -0.80734831
-7.2676873 -2.1004596 -2.0270708
-8.2812223 -2.3902533 -1.989917
-9.6599941 -2.7863865 -1.9542658
-11.411902 -3.2874062 -1.8809682
-14.043893 -4.0429416 -1.7944044
-19.420141 -5.5833158 -1.767867
-30.78809 -8.8399744 -1.6787282
-25.84502 -7.4158287 -0.46933013
-7.2653251 -2.0736961 -2.0244827
-8.3040962 -2.3670516 -1.9935162
-9.6805077 -2.7575662 -1.9565556
-11.430342 -3.2517068 -1.8822197
-14.080135 -4.0028648 -1.7973293
-19.465384 -5.5265031 -1.7703073
-30.751905 -8.7193041 -1.6751696
-25.79636 -7.3093657 -0.46800375
-7.2795992 -2.0516882 -2.0265532
-8.3156509 -2.3405571 -1.994416
-9.689599 -2.7254491 -1.9565556
-11.441062 -3.213784 -1.8822197
-14.116959 -3.9601214 -1.800254
-25.063334 -7.0261121 4.1226745
-19.556503 -5.4823589 -1.7769312
-30.746031 -8.6075859 -1.6732854
-25.848679 -7.2268128 -0.46849242
-7.3016057 -2.030407 -2.0306942
-8.3143826 -2.3089085 -1.9921664
-9.7104044 -2.6947615 -1.9588453
-11.469342 -3.178575 -1.8850355
-14.130694 -3.9108229 -1.800254
-19.644653 -5.4331799 -1.7832065
-25.398571 -7.0197802 5.122077
-25.808931 -7.1283555 -1.4032319
-25.92387 -7.1503572 -0.46939993
-7.3030601 -2.0033722 -2.0291414
-8.331789 -2.2824478 -1.994416
-9.7159643 -2.6598098 -1.958082
-11.486085 -3.1400828 -1.8859742
-14.159581 -3.8656559 -1.802204
-19.691345 -5.3684783 -1.7856468
-25.41913 -6.9300518 5.121314
-25.771992 -7.021421 -1.3998823
-25.813599 -7.0230794 -0.46695659
-7.3028936 -1.9745764 -2.0270708
-25.830389 -6.9840913 0.46706131
-8.3415861 -2.2538583 -1.9948659
-25.868839 -6.9847918 1.4042785
-9.7256479 -2.6241813 -1.958082
-25.896688 -6.982615 2.3465812
-11.508961 -3.1010466 -1.8878514
-14.184489 -3.8193028 -1.8036665
-19.721512 -5.302814 -1.7866927
-25.565704 -6.8694444 5.1457372
-25.847704 -6.9403806 -1.4026037
-25.822508 -6.9287844 -0.46667737
-7.304142 -1.9475791 -2.0255179
-25.832628 -6.8831859 0.46664244
-8.3535585 -2.2242711 -1.9957658
-25.844084 -6.8765841 1.401557
-9.732851 -2.5897136 -1.9577004
-25.866993 -6.8778396 2.3417006
-11.517807 -3.0603466 -1.8875386
-25.884003 -6.8726969 3.2882788
-14.206067 -3.7693243 -1.8046414
-19.790886 -5.243762 -1.7912247
-30.791273 -8.1526575 -1.6693078
-25.932791 -6.8565831 -0.46821317
-7.326179 -1.9247202 -2.029659
-25.980278 -6.8254905 0.46887636
-8.3556156 -2.1936152 -1.994416
-25.94907 -6.80761 1.4059533
-9.7536736 -2.5570083 -1.95999
-25.903589 -6.7860212 2.3427463
-11.551877 -3.0241139 -1.8912928
-25.700436 -6.7280016 3.261955
-14.240263 -3.725239 -1.8073225
-25.867481 -6.7620916 4.2346816
-19.83606 -5.1816974 -1.7936652
-30.82481 -8.0407619 -1.6695172
-7.3359294 -1.9026661 -2.0306942
-47.419777 -12.290075 0.8550632
-8.3666172 -2.1668718 -1.9953159
-9.7692604 -2.5283232 -1.9615166
-11.551758 -2.9853387 -1.8897287
-14.26215 -3.6804757 -1.8085413
-25.9701 -6.69699 4.2478218
-19.907156 -5.1298099 -1.798546
-30.749344 -7.9179754 -1.6640742
-45.392323 -11.671659 -0.81809902
-7.342854 -1.8757657 -2.0306942
-47.446884 -12.120524 0.85478395
-8.3854589 -2.1405451 -1.9980152
-9.7746563 -2.4915299 -1.9607532
-25.655708 -6.5347934 2.316251
-11.566451 -2.9439507 -1.8903543
-14.278756 -3.6316504 -1.8090287
-26.154139 -6.6471686 4.2741027
-19.979012 -5.0740213 -1.8034266
-30.936907 -7.8454852 -1.6726573
-46.227543 -11.714536 -0.83240998
-7.3456101 -1.8491795 -2.029659
-46.436024 -11.68116 0.83579576
-8.4064789 -2.1131222 -2.0011647
-9.7813892 -2.4569161 -1.9603716
-25.736338 -6.4597425 2.3214803
-11.603481 -2.9102886 -1.8947345
-14.307377 -3.5831463 -1.8109785
-20.046852 -5.0168304 -1.8079587
-31.060991 -7.7616491 -1.6778909
-46.151741 -11.524044 -0.83031571
-7.3576455 -1.8249223 -2.0312121
-46.004807 -11.410607 0.82734877
-8.4191141 -2.0866394 -2.0025144
-47.11401 -11.668268 2.5437372
-9.7994356 -2.4251158 -1.9622798
-11.605398 -2.8698971 -1.893483
-14.34616 -3.5423465 -1.8143909
-20.118408 -4.9601774 -1.8128394
-31.152496 -7.6748481 -1.6814498
-46.199451 -11.364782 -0.83045536
-7.3674092 -1.8014309 -2.0322473
-46.502804 -11.361973 0.83558631
-8.4263458 -2.0572383 -2.0025144
-47.965523 -11.701604 2.5874898
-9.8188677 -2.3953977 -1.9645696
-11.623022 -2.8312387 -1.8947345
-14.373868 -3.4960003 -1.8163408
-20.200571 -4.9094319 -1.8187661
-31.237318 -7.580194 -1.6845899
-46.30492 -11.219456 -0.83164203
-7.3680182 -1.7743475 -2.0306942
-46.511074 -11.19208 0.83502781
-8.4353714 -2.0282679 -2.0029643
-46.879715 -11.26349 2.5267801
-9.830986 -2.3620281 -1.9653327
-11.632833 -2.7906492 -1.8947345
-14.393708 -3.447654 -1.8173158
-26.889894 -6.4358425 4.3792272
-20.287338 -4.8555832 -1.8250412
-31.372375 -7.4971056 -1.6904516
-46.320461 -11.052172 -0.83122319
-7.389205 -1.7521814 -2.0348353
-46.557644 -11.031502 0.83516747
-8.4367104 -1.9974655 -2.0016146
-46.909039 -11.106128 2.5263615
-9.8506346 -2.3304067 -1.9676224
-11.657883 -2.7536614 -1.8972374
-14.405655 -3.3973894 -1.8173158
-26.826494 -6.3266854 4.3654609
-20.34683 -4.7947965 -1.8288761
-31.382797 -7.3838887 -1.6896142
-46.454185 -10.92141 -0.83296841
-7.3952765 -1.7263774 -2.0348353
-8.4489813 -1.970805 -2.0029643
-47.562176 -11.085576 2.559438
-9.8548851 -2.2951164 -1.9668592
-11.668874 -2.7154343 -1.8975502
-14.436177 -3.3540916 -1.8197533
-20.437197 -4.7408462 -1.8354999
-31.05689 -7.1986012 -1.6707733
-45.954323 -10.63474 -0.82333475
-7.3896646 -1.6992464 -2.0317297
-47.407318 -10.89257 0.84905958
-8.4691038 -1.9443526 -2.0061135
-47.697922 -10.941802 2.5646715
-9.8605299 -2.2619846 -1.9664776
-11.684058 -2.6760087 -1.8984889
-14.471018 -3.3089926 -1.822678
-20.504124 -4.6810069 -1.8400321
-31.233715 -7.1248021 -1.6789377
-45.983368 -10.472487 -0.8231951
-7.4071479 -1.6747082 -2.0348353
-47.008148 -10.628239 0.84124094
-8.4834433 -1.9164954 -2.0079131
-9.8764133 -2.2275586 -1.968004
-11.691862 -2.6327324 -1.8981761
-14.497975 -3.2619448 -1.824628
-20.582544 -4.6233835 -1.8456099
-31.212845 -6.9997792 -1.6764255
-46.175747 -10.346889 -0.82598752
-7.4091773 -1.6480032 -2.0338001
-47.105347 -10.468887 0.84228802
-8.4828005 -1.8836993 -2.0061135
-47.597664 -10.569585 2.5552509
-9.893712 -2.1951959 -1.9699122
-11.726052 -2.5974576 -1.9022434
-14.517586 -3.2104993 -1.8256029
-20.660812 -4.5652647 -1.8511879
-31.478937 -6.9441333 -1.6894048
-7.4262085 -1.6246074 -2.036906
-47.057758 -10.294673 0.84082204
-8.4966164 -1.8572233 -2.0079131
-47.435242 -10.359905 2.5445745
-9.8936424 -2.1589725 -1.9683858
-11.72688 -2.5568745 -1.9009918
-14.535913 -3.1640246 -1.8265779
-20.762287 -4.5117316 -1.8588576
-31.622801 -6.8659797 -1.6958946
-7.4277768 -1.5991603 -2.0358706
-41.994831 -9.0335827 0.74979031
-8.5144796 -1.8300099 -2.0106125
-47.650761 -10.23285 2.5542042
-9.9007473 -2.1261542 -1.9683858
-11.747324 -2.5184088 -1.9028691
-14.566278 -3.1174226 -1.8290153
-20.831688 -4.4545217 -1.8637383
-32.029411 -6.8372846 -1.7164102
-46.64143 -9.9394636 -0.83240998
-7.4200845 -1.5704209 -2.0322473
-42.043716 -8.8906603 0.75010449
-8.5417881 -1.8047107 -2.0155613
-9.9196339 -2.0940115 -1.9706753
-11.756043 -2.4773901 -1.9028691
-14.596498 -3.0706441 -1.8314526
-20.882206 -4.3891592 -1.8668759
-32.076538 -6.7303591 -1.7176661
-46.781528 -9.7987413 -0.8342948
-7.4349785 -1.5464773 -2.0348353
-41.577194 -8.6405067 0.74123859
-8.5423117 -1.7736946 -2.0142117
-9.9345732 -2.0609677 -1.9722018
-11.762686 -2.435935 -1.9025562
-14.622678 -3.022892 -1.8334025
-20.979353 -4.3331609 -1.8741971
-32.240677 -6.647388 -1.7252026
-47.144501 -9.7031069 -0.84015888
-7.4497948 -1.5224504 -2.0374236
-41.524815 -8.4785194 0.73977256
-8.544632 -1.7430841 -2.0133121
-9.9455528 -2.0270631 -1.972965
-11.79241 -2.3991923 -1.9059978
-14.644813 -2.9742012 -1.834865
-21.025591 -4.2662411 -1.876986
-32.28326 -6.5387707 -1.7262493
-47.393684 -9.5820713 -0.84399837
-7.4645338 -1.4983374 -2.0400119
-41.538471 -8.3303633 0.73949337
-8.5563965 -1.7143975 -2.0146616
-9.9429436 -1.9904073 -1.9710571
-11.810397 -2.3599496 -1.907562
-14.662383 -2.927175 -1.83584
-21.095066 -4.2037244 -1.8818668
-32.34507 -6.4338336 -1.7283428
-7.4789381 -1.4754452 -2.0425999
-8.5582113 -1.6852609 -2.013762
-42.335777 -8.3366518 2.261332
-9.9591208 -1.9593189 -1.972965
-11.82785 -2.3226745 -1.9091264
-14.6798 -2.8800645 -1.8368149
-21.206654 -4.1528916 -1.8905823
-32.338783 -6.3211727 -1.7268775
-7.4667211 -1.4473271 -2.0379412
-41.812687 -8.0972757 0.74340266
-8.5694914 -1.6579794 -2.0151114
-42.274414 -8.1713839 2.2565172
-9.9597807 -1.9251642 -1.9718202
-11.831609 -2.2826905 -1.9085008
-14.713156 -2.8333089 -1.8397398
-21.259436 -4.0900722 -1.8940685
-32.430176 -6.2274642 -1.7306455
-42.201305 -8.0885115 -0.75003463
-7.4869099 -1.4241422 -2.0420823
-41.616741 -7.9087229 0.73942357
-8.5713978 -1.6273313 -2.0142117
-42.443962 -8.0505657 2.2640536
-9.983799 -1.8936788 -1.9752548
-11.843387 -2.2421141 -1.9091264
-14.754166 -2.7878263 -1.8436395
-21.34798 -4.0298862 -1.9006923
-32.479195 -6.1193919 -1.732111
-7.4918351 -1.398001 -2.0420823
-42.029396 -7.8352222 0.74626493
-8.5827742 -1.5984716 -2.0155613
-42.263668 -7.8636422 2.2529583
-9.9980698 -1.860256 -1.9767814
-11.862794 -2.2029228 -1.9110037
-14.779422 -2.7392049 -1.8455895
-21.428528 -3.9676762 -1.9066191
-32.826378 -6.0662365 -1.7494866
-42.162354 -7.7762737 -0.7483592
-7.5061717 -1.3735796 -2.0446706
-42.339748 -7.7402468 0.75129116
-8.5978861 -1.5702549 -2.0178108
-42.475559 -7.749754 2.2627978
-10.00064 -1.8246374 -1.9760182
-11.874298 -2.1622081 -1.9116293
-14.777175 -2.6854684 -1.8441271
-21.501057 -3.9035289 -1.9118483
-33.063534 -5.9907832 -1.7610005
-41.406063 -7.4874401 -0.73446709
-7.5033145 -1.3460033 -2.0425999
-42.496422 -7.6156859 0.75359488
-8.6052332 -1.5405761 -2.0182607
-9.999218 -1.788335 -1.9744916
-11.89733 -2.1235251 -1.9141324
-14.811865 -2.6383951 -1.8472956
-21.542013 -3.8333385 -1.9142886
-33.080315 -5.8746338 -1.7607911
-42.294376 -7.4957047 -0.74975538
-7.5060644 -1.319469 -2.0420823
-42.349426 -7.4368725 0.75052327
-8.6124773 -1.5108632 -2.0187106
-10.018935 -1.755792 -1.977163
-11.916345 -2.0840211 -1.9160095
-14.838583 -2.5897508 -1.8494893
-21.602371 -3.7663321 -1.9184722
-33.281647 -5.7906303 -1.770421
-42.202068 -7.327497 -0.74766105
-7.516336 -1.294245 -2.0436354
-42.666798 -7.3391695 0.7556892
-8.6119385 -1.4798007 -2.0173612
-59.634972 -10.247156 3.1711407
-10.028872 -1.7214751 -1.9779261
-11.915759 -2.0410783 -1.9147581
-14.876884 -2.5429518 -1.8531454
-21.690016 -3.7036455 -1.925096
-33.167774 -5.6515985 -1.7633032
-42.26556 -7.1942191 -0.7483592
-7.5303326 -1.2696059 -2.0462234
-42.604141 -7.1830115 0.75415337
-8.6148758 -1.4509104 -2.0169113
-10.046438 -1.6884093 -1.9802158
-11.930255 -2.0028608 -1.9160095
-14.88132 -2.4929514 -1.8526579
-21.738184 -3.6338282 -1.9282336
-33.27301 -5.5560598 -1.7679088
-42.128674 -7.0196996 -0.74549705
-7.5383134 -1.2452568 -2.0472586
-8.6237335 -1.4214656 -2.0178108
-59.705055 -9.8305902 3.1711407
-10.051982 -1.6550845 -1.9802158
-11.948868 -1.9631283 -1.9178867
-14.895808 -2.4419501 -1.8533891
-21.813034 -3.5720246 -1.9338117
-33.528736 -5.4785213 -1.7804693
-42.330551 -6.9015598 -0.74863845
-7.5407076 -1.2186272 -2.046741
-53.522858 -8.6400566 0.94633931
-8.628643 -1.3913543 -2.0178108
-10.055759 -1.6196738 -1.9798342
-11.971251 -1.9239143 -1.9203898
-14.931682 -2.3943424 -1.8568015
-21.896191 -3.5072041 -1.9400867
-33.949989 -5.4257579 -1.8018224
-42.694035 -6.8079057 -0.75464207
-7.546823 -1.1926008 -2.0472586
-53.438129 -8.4350891 0.94431478
-8.6353722 -1.3615295 -2.0182607
-75.697815 -11.921652 4.0160522
-10.072989 -1.5863953 -1.982124
-11.97399 -1.8815013 -1.9197639
-14.95956 -2.3452809 -1.8592389
-21.967354 -3.4399977 -1.9453162
-34.126591 -5.331881 -1.8101962
-7.5452127 -1.1653636 -2.0457058
-53.530487 -8.2582579 0.94543177
-8.6439247 -1.3319737 -2.0191607
-10.084285 -1.5521199 -1.9832687
-11.988296 -1.8408948 -1.9210155
-14.983353 -2.2954521 -1.8611888
-22.034372 -3.3717339 -1.9501969
-34.354279 -5.2446742 -1.8212916
-7.5606961 -1.140748 -2.0488117
-8.6408129 -1.3006301 -2.0173612
-10.099349 -1.5183688 -1.9851768
-12.010277 -1.8013773 -1.9235184
-14.995201 -2.2437272 -1.8616763
-22.116947 -3.3054004 -1.9564722
-34.818821 -5.1912928 -1.8449473
-7.5703659 -1.1151954 -2.0503645
-8.6547184 -1.273389 -2.0196106
-10.104588 -1.4831085 -1.9851768
-12.027912 -1.7632586 -1.9253956
-15.018272 -2.1962864 -1.8636261
-22.195381 -3.237956 -1.9623986
-35.108585 -5.1155396 -1.8593919
-7.5644608 -1.0887086 -2.0477762
-8.6629686 -1.2437222 -2.0205104
-53.775433 -7.7108479 2.8470762
-10.10362 -1.4487559 -1.984032
-12.041816 -1.7223811 -1.9266472
-15.033709 -2.1449707 -1.8646011
-22.253887 -3.1672018 -1.9665822
-35.474251 -5.0424156 -1.8778143
-53.528389 -7.5896382 -0.94368654
-7.572227 -1.0615126 -2.0488117
-53.441227 -7.4916582 0.94194132
-8.6672564 -1.2134769 -2.0205104
-53.802021 -7.523088 2.8470762
-10.120529 -1.4133413 -1.9863218
-12.05196 -1.6787819 -1.9272728
-15.080428 -2.0979469 -1.869476
-22.339802 -3.0999076 -1.973206
-35.820904 -4.9578247 -1.8951899
-7.5720577 -1.0345508 -2.0477762
-53.595131 -7.3130374 0.94417518
-8.6658545 -1.1809123 -2.0191607
-53.792332 -7.3303823 2.8451922
-10.129291 -1.3785369 -1.987085
-12.061662 -1.6372335 -1.9278985
-15.107686 -2.0453265 -1.8719133
-22.393925 -3.0277755 -1.9770409
-36.138851 -4.8733268 -1.9111
-7.5871134 -1.009642 -2.0508821
-53.690449 -7.1447635 0.94543177
-8.6658583 -1.151655 -2.0182607
-10.143772 -1.3444602 -1.9889932
-12.090524 -1.6003366 -1.931653
-15.114386 -1.9952159 -1.8719133
-22.48732 -2.9605093 -1.984362
-36.364716 -4.7810545 -1.9221951
-7.5961666 -0.98522174 -2.0524352
-53.389828 -6.9151783 0.93970734
-8.6736917 -1.1219003 -2.0191607
-10.142334 -1.31006 -1.9878482
-12.08624 -1.5568607 -1.9300886
-15.133072 -1.9439619 -1.8733757
-22.552349 -2.8930199 -1.9892427
-36.801182 -4.7078161 -1.9443855
-7.5976429 -0.95845819 -2.0519176
-53.739017 -6.7697716 0.94543177
-8.6833544 -1.0923439 -2.0205104
-10.152689 -1.2753825 -1.9889932
-12.115121 -1.5176084 -1.933843
-15.155523 -1.8930972 -1.8753256
-22.629528 -2.822669 -1.9951692
-37.162258 -4.6222115 -1.9625984
-7.6047769 -0.93240339 -2.0529528
-53.762318 -6.5821452 0.94543177
-8.6871147 -1.0620264 -2.0205104
-10.162925 -1.2406511 -1.9901379
-12.124268 -1.4757866 -1.9344687
-15.183717 -1.8428099 -1.8780067
-22.702536 -2.7513299 -2.0007472
-37.535076 -4.5355978 -1.9814395
-53.675594 -6.4669504 -0.94368654
-7.6118221 -0.90630871 -2.053988
-8.6985092 -1.0326171 -2.02231
-10.18084 -1.2067857 -1.9928092
-12.133268 -1.4339223 -1.9350946
-15.211742 -1.7923523 -1.880688
-22.775324 -2.6795156 -2.006325
-38.022789 -4.4599247 -2.0063515
-7.6187778 -0.88017434 -2.0550234
-8.6904459 -1.0009093 -2.0196106
-10.192794 -1.172135 -1.9943358
-12.17745 -1.39606 -1.941352
-15.221851 -1.7396929 -1.8811754
-22.796413 -2.6013587 -2.0073709
-38.050037 -4.328527 -2.0069795
-7.6333227 -0.85486609 -2.0581291
-8.6977596 -0.97099996 -2.0205104
-10.194872 -1.1363306 -1.9939542
-12.201882 -1.3557223 -1.9444805
-15.251509 -1.6891737 -1.8841002
-22.841002 -2.5257041 -2.0105085
-38.092705 -4.1987524 -2.008445
-7.6247368 -0.82696557 -2.0550234
