# .PCD v0.7 - Point Cloud Data file format
VERSION 0.7
FIELDS x y z
SIZE 4 4 4
TYPE F F F
COUNT 1 1 1
WIDTH 1505
HEIGHT 1
VIEWPOINT 0 0 0 1 0 0 0
POINTS 1505
DATA ascii
23.449129 -35.562466 2.2324429
5.0575752 -7.6731296 -1.7863539
5.7651987 -8.7533512 -1.6600827
6.6816707 -10.148695 -1.4919246
8.1119795 -12.33054 -1.2912995
10.490695 -15.958414 -1.0008729
19.322306 -29.404211 -0.61415023
3.9286766 -5.9967923 -1.9209551
23.340561 -35.640953 0.74364704
4.4220023 -6.7549539 -1.8639444
23.281101 -35.577255 2.2282557
5.0342522 -7.6931443 -1.7871171
5.7383022 -8.7757282 -1.6607084
6.646204 -10.171957 -1.4919246
8.0655985 -12.349031 -1.2904279
10.424617 -15.973043 -0.99961686
19.188963 -29.424578 -0.61317289
3.9024558 -6.0023708 -1.9183668
23.176779 -35.66185 0.74239045
4.3994584 -6.7719831 -1.8643943
23.082802 -35.544403 2.2211382
5.013783 -7.7205501 -1.7894068
5.709785 -8.7990198 -1.6613343
6.6128173 -10.198424 -1.4924121
8.0191917 -12.372096 -1.289905
10.381826 -16.029451 -1.0008729
19.062231 -29.454447 -0.61240494
3.8835742 -6.0192037 -1.9194021
23.00013 -35.661869 0.74071503
4.3863525 -6.8036776 -1.8688934
22.921806 -35.567677 2.2175794
4.993185 -7.7479053 -1.7916965
5.6790357 -8.8188972 -1.6613343
6.577178 -10.221445 -1.4924121
7.9802675 -12.406714 -1.2906022
10.340929 -16.089115 -1.0023383
18.90527 -29.43668 -0.61065972
3.8719149 -6.0473652 -1.9240609
22.823765 -35.661087 0.7390396
4.3489227 -6.7976074 -1.8630446
22.741558 -35.559978 2.2121365
4.9713979 -7.7735572 -1.7936047
5.652472 -8.8453245 -1.6625856
6.5435948 -10.247689 -1.4928997
7.9369116 -12.434495 -1.2906022
10.291149 -16.135218 -1.0029664
18.856138 -29.586805 -0.61240494
3.8528538 -6.064105 -1.9250962
22.630535 -35.632515 0.73680568
4.3335247 -6.8259077 -1.8666438
22.587326 -35.591927 2.2092056
4.9418211 -7.7900691 -1.7932231
5.6226187 -8.8666697 -1.6628985
6.5067205 -10.268791 -1.4926558
7.8880858 -12.458452 -1.2900794
10.215924 -16.147511 -1.0013963
16.606522 -26.258768 -0.54231608
3.829572 -6.0765514 -1.9245785
22.506176 -35.725372 0.73701513
4.3105536 -6.8450427 -1.8675436
22.437571 -35.644051 2.2073216
4.9111447 -7.8048053 -1.7924597
5.5984983 -8.9005947 -1.6654016
6.478548 -10.307697 -1.4948496
7.8497872 -12.49909 -1.2912995
10.147117 -16.169621 -1.0004543
16.559048 -26.397383 -0.54392171
3.8021541 -6.082356 -1.9219903
22.347532 -35.763527 0.73610759
4.2936959 -6.8740187 -1.871143
22.351103 -35.783134 2.2110896
4.891149 -7.8335576 -1.7951311
5.5647926 -8.9193783 -1.6650885
6.4365244 -10.324634 -1.4938745
7.8008404 -12.517962 -1.2904279
10.090612 -16.204943 -1.0004543
16.272366 -26.142649 -0.53749925
3.7839541 -6.1005163 -1.9235432
22.340542 -36.01757 0.73980755
4.2708778 -6.8882189 -1.871143
22.339693 -36.044281 2.2223942
4.8606734 -7.8455772 -1.7939863
5.5424647 -8.9495401 -1.6672788
6.4147863 -10.366179 -1.4967993
7.7665267 -12.560366 -1.2919967
10.034719 -16.234915 -1.000245
15.81744 -25.610619 -0.52542216
3.7697809 -6.122901 -1.926649
22.323689 -36.272446 0.74343765
4.2447648 -6.8997655 -1.870243
22.312143 -36.267864 2.2316055
4.8428564 -7.875031 -1.7970392
5.5173955 -8.9789295 -1.6691558
6.3827167 -10.395274 -1.4977744
7.7331719 -12.599637 -1.2933912
9.9738111 -16.263033 -0.99982619
15.759602 -25.707256 -0.5263297
3.7544277 -6.1459146 -1.9297549
22.297102 -36.499855 0.74657905
4.2228761 -6.9154668 -1.8706928
22.289465 -36.516003 2.2420726
4.8163614 -7.8935633 -1.7974207
5.5102205 -9.0342789 -1.6760391
6.3440771 -10.409602 -1.4967993
7.6860342 -12.621448 -1.2928683
9.9260569 -16.306257 -1.0004543
15.665614 -25.75528 -0.52619004
3.7330246 -6.1566782 -1.9292372
22.283567 -36.765575 0.75041854
4.207799 -6.9451661 -1.8747422
22.248774 -36.737095 2.250865
4.7881246 -7.9061337 -1.7966576
5.5083094 -9.1024675 -1.6851122
6.3128371 -10.440177 -1.4980181
7.6439929 -12.65161 -1.2932168
9.8670111 -16.337385 -1.000245
15.490891 -25.669413 -0.52332789
3.7024693 -6.1570749 -1.9250962
22.247843 -36.997372 0.75356001
4.186542 -6.9648223 -1.8760917
22.235611 -37.006271 2.2625883
4.7621479 -7.928679 -1.7978026
5.4921904 -9.1513901 -1.6904311
6.2998447 -10.501301 -1.5036241
7.595685 -12.67138 -1.2925197
9.8132248 -16.383718 -1.0008729
15.518295 -25.918919 -0.52730697
3.6809547 -6.1699619 -1.9250962
22.22476 -37.267586 0.75739956
4.1569963 -6.9734244 -1.8742923
22.210617 -37.258648 2.2732646
4.741477 -7.9570589 -1.8004738
5.4551597 -9.1620197 -1.6888667
6.3049569 -10.597679 -1.5141048
7.5615911 -12.714942 -1.2942628
9.751894 -16.411007 -1.0004543
15.442026 -25.996998 -0.52779567
3.6652994 -6.1927476 -1.9282019
22.209017 -37.523495 0.7610994
4.1348405 -6.9888482 -1.8747422
22.178026 -37.500988 2.2833133
4.7216649 -7.987082 -1.8035268
5.4337931 -9.195364 -1.6916825
6.3000574 -10.669809 -1.521417
7.5242491 -12.753271 -1.2954829
9.7035055 -16.453577 -1.0010822
15.339004 -26.030069 -0.52737683
3.653549 -6.2198601 -1.9328607
22.175102 -37.766335 0.76445031
4.1173239 -7.0150037 -1.8778914
22.164751 -37.763802 2.2948272
4.6891928 -7.9925351 -1.801237
5.396667 -9.2057552 -1.6901182
6.268795 -10.702012 -1.5228794
7.4819169 -12.778152 -1.2954829
9.6480293 -16.490797 -1.0012915
14.737753 -25.200443 -0.50957537
3.6279249 -6.2258992 -1.9307902
22.168541 -38.043541 0.76856905
4.0960007 -7.0319867 -1.8787912
22.151384 -38.044609 2.3071785
4.6642275 -8.0139456 -1.8023818
5.3651156 -9.2218933 -1.6898053
6.2532234 -10.757066 -1.5277542
7.4452729 -12.817974 -1.2968775
9.5932922 -16.522697 -1.0012915
14.587483 -25.144493 -0.50741124
3.6053255 -6.2345505 -1.9297549
22.131685 -38.286888 0.77191997
4.0675292 -7.0394921 -1.8769917
22.126335 -38.308487 2.3184831
4.6513739 -8.0531683 -1.8077245
5.3151193 -9.2097683 -1.6841737
6.2295198 -10.802904 -1.5311666
7.3925266 -12.830074 -1.2954829
9.5435333 -16.569933 -1.002129
14.493639 -25.18486 -0.50720185
3.5882158 -6.2577782 -1.9328607
22.115278 -38.568611 0.77603871
4.0468092 -7.0604105 -1.8787912
22.107651 -38.586514 2.3306251
4.624754 -8.0752745 -1.8088694
5.2764235 -9.2206144 -1.6826093
6.1829014 -10.809074 -1.5289729
7.3536277 -12.866179 -1.2965288
9.4708509 -16.583986 -1.0008729
14.405639 -25.2353 -0.50720185
3.5692155 -6.2753024 -1.9344137
22.094345 -38.861492 0.7802971
4.0180154 -7.0701127 -1.8774415
22.068674 -38.847889 2.3415108
4.58781 -8.0760059 -1.8054349
5.2364039 -9.225234 -1.6801064
6.1040716 -10.762594 -1.5192233
7.3044567 -12.88958 -1.2961801
9.4207792 -16.630848 -1.0017103
14.307139 -25.277487 -0.5069924
3.5480888 -6.2917075 -1.9354489
22.058748 -39.116043 0.78385741
4.00001 -7.0959787 -1.8805909
22.054512 -39.140453 2.3544903
4.5601058 -8.0961876 -1.8061981
5.2015882 -9.2426424 -1.6797936
6.0528388 -10.759614 -1.5158111
7.2613707 -12.918471 -1.2965288
9.3636732 -16.672232 -1.002129
14.185534 -25.267988 -0.50580567
3.5262618 -6.301753 -1.9349313
22.052885 -39.426666 0.78853464
3.986629 -7.1303091 -1.8859898
22.021034 -39.402004 2.3655853
4.5265279 -8.099268 -1.8035268
21.981865 -39.348042 3.9432745
5.1709094 -9.259841 -1.6797936
6.0104079 -10.772011 -1.5145923
7.2165523 -12.938999 -1.2961801
9.3102798 -16.70668 -1.0023383
14.081678 -25.289398 -0.50524718
3.5033064 -6.3123345 -1.9344137
22.023775 -39.699249 0.79244399
3.9673855 -7.1544065 -1.8886892
22.007301 -39.702229 2.3789835
4.5020351 -8.1218872 -1.8050531
21.958326 -39.630173 3.9638431
5.1308975 -9.2640095 -1.6772904
5.9746919 -10.796398 -1.5150797
7.1703777 -12.962368 -1.2960058
9.2480402 -16.732084 -1.0019196
13.89858 -25.166849 -0.50182652
3.4859085 -6.3329868 -1.9370018
3.9405093 -7.1647968 -1.8877892
21.973703 -39.953495 2.3896601
4.4632545 -8.1186285 -1.8008554
21.933083 -39.912621 3.984412
5.1061387 -9.2957144 -1.6797936
5.9417458 -10.825889 -1.5162985
7.1308365 -12.997799 -1.2970518
9.1818981 -16.750252 -1.0010822
13.521008 -24.67617 -0.49114564
3.4628553 -6.343421 -1.9364842
20.967352 -38.408981 0.76382202
3.9176612 -7.1795349 -1.888239
21.94313 -40.229839 2.4015925
4.4395866 -8.1427774 -1.8027636
21.902317 -40.188377 4.0042834
5.0762296 -9.3143311 -1.6801064
5.9086604 -10.850763 -1.5170298
7.1082759 -13.064612 -1.3012352
9.1263008 -16.780609 -1.0010822
13.429059 -24.712675 -0.49093619
3.4500813 -6.3701572 -1.9411429
20.943584 -38.685925 0.76787096
3.8953595 -7.1983085 -1.889589
21.954609 -40.587265 2.4183402
4.3929434 -8.121191 -1.7947495
21.909174 -40.520172 4.0300813
5.0371108 -9.319829 -1.6779163
5.8669753 -10.864336 -1.5160547
7.055449 -13.07058 -1.2994921
9.0771532 -16.829943 -1.002129
13.342713 -24.759401 -0.49093619
3.4241681 -6.3753543 -1.9390724
20.923819 -38.97374 0.77212936
3.8757377 -7.2221646 -1.8922883
15.360727 -28.63563 1.7030121
4.3729219 -8.1520472 -1.7981842
21.86928 -40.786041 4.0489068
5.0204124 -9.3669519 -1.683235
5.8271413 -10.88125 -1.5155673
7.0163627 -13.107426 -1.3007122
9.0164652 -16.858002 -1.0019196
13.233588 -24.763496 -0.49009848
3.3964438 -6.377038 -1.9359666
20.887259 -39.233643 0.77582932
3.8505037 -7.2356491 -1.8922883
15.258802 -28.685551 1.7028029
4.3352189 -8.1499281 -1.7943679
21.859604 -41.111931 4.0736594
4.9765596 -9.3634882 -1.6794806
5.7993641 -10.920809 -1.5182483
6.9481483 -13.089601 -1.2965288
8.9613085 -16.896433 -1.0023383
13.148938 -24.813074 -0.49016827
3.3813803 -6.4025202 -1.9401076
20.852871 -39.500843 0.77966887
3.822494 -7.243875 -1.8909385
15.229392 -28.872896 1.7107579
4.2957525 -8.1441736 -1.7897884
21.833044 -41.410049 4.0956225
4.9420023 -9.3773069 -1.6788548
5.7649088 -10.948012 -1.5192233
6.9051986 -13.119064 -1.2970518
8.8948383 -16.913467 -1.001501
13.012015 -24.763231 -0.48828343
3.3616998 -6.4194183 -1.9416605
20.850256 -39.832054 0.78476495
3.7908618 -7.2450876 -1.8877892
15.041505 -28.75952 1.7009187
4.2627487 -8.1504211 -1.7878804
21.808361 -41.715549 4.1182833
4.9064946 -9.3892498 -1.6779163
5.7275763 -10.969828 -1.5194671
6.8667364 -13.157218 -1.2984462
8.8394384 -16.951496 -1.0019196
12.907016 -24.773033 -0.48758534
3.3401616 -6.4328284 -1.9421781
20.803211 -40.082073 0.78825539
3.7700355 -7.2669249 -1.8900387
14.922635 -28.77639 1.6988254
4.2279458 -8.1530523 -1.7852092
21.768976 -41.996605 4.1385031
4.8809609 -9.4203501 -1.6804192
5.689249 -10.989754 -1.5194671
6.8161883 -13.17226 -1.2975746
8.7820473 -16.985798 -1.002129
12.820465 -24.817934 -0.48758534
3.3176863 -6.4444489 -1.9421781
20.794928 -40.410492 0.79328167
3.7446461 -7.2800407 -1.8900387
14.820271 -28.824753 1.6986159
4.1734276 -8.1171255 -1.7741421
21.729713 -42.281441 4.1590719
4.8426318 -9.4267874 -1.678542
5.65448 -11.01661 -1.5204421
6.7665296 -13.188883 -1.2968775
8.7336349 -17.037676 -1.0033851
12.731934 -24.858978 -0.48751554
3.2969272 -6.4594321 -1.9432135
20.711903 -40.596836 0.7955156
3.7209814 -7.2965388 -1.8909385
14.710493 -28.858513 1.6975693
4.1575503 -8.1561317 -1.7794847
21.699577 -42.587818 4.1817327
4.8096967 -9.443635 -1.678542
5.6195912 -11.043357 -1.521417
6.7349043 -13.240834 -1.2996664
8.6759195 -17.071619 -1.0035944
12.617919 -24.849775 -0.48646837
3.2787204 -6.4795198 -1.9458016
20.497868 -40.526134 0.79272318
3.6928515 -7.3042674 -1.889589
14.630933 -28.93922 1.6994532
4.1228561 -8.158329 -1.7768134
21.662176 -42.88382 4.2033467
4.7722507 -9.4515486 -1.6769776
5.5774317 -11.055818 -1.5204421
6.6922317 -13.271379 -1.3003637
8.6198702 -17.108934 -1.0040131
12.546238 -24.912916 -0.48688722
3.25002 -6.4788375 -1.9421781
20.345432 -40.558136 0.79202515
3.666863 -7.3129883 -1.8886892
14.676597 -29.282946 1.7166196
4.0917149 -8.1674061 -1.7756686
21.628332 -43.190773 4.2260075
4.7276154 -9.4408274 -1.6722846
5.5540614 -11.100882 -1.5240982
6.6405196 -13.283966 -1.2993178
8.5541601 -17.11956 -1.0029664
12.419902 -24.877836 -0.48535141
3.2345405 -6.5016866 -1.9458016
20.137842 -40.496407 0.78944212
3.6378436 -7.3187628 -1.8868895
21.641041 -43.557404 2.5489707
4.0558729 -8.1633463 -1.7718524
4.7016582 -9.4714279 -1.6747875
5.5152783 -11.120201 -1.5240982
6.6097074 -13.33269 -1.3019325
8.5032129 -17.167213 -1.0040131
12.324115 -24.903114 -0.48500237
3.2101166 -6.5094728 -1.9447664
19.991056 -40.555698 0.78923279
3.6122739 -7.3314171 -1.8868895
21.621229 -43.901447 2.5646715
4.0273528 -8.1774549 -1.7718524
4.6720567 -9.4948721 -1.6760391
5.4825592 -11.151855 -1.5258043
6.5552182 -13.339587 -1.3003637
8.4397144 -17.189617 -1.0035944
12.239754 -24.95137 -0.48510709
3.186527 -6.5189028 -1.9442488
19.773872 -40.470715 0.78623092
3.5866611 -7.3439813 -1.8868895
21.585258 -44.217159 2.5786974
3.9987833 -8.1914625 -1.7718524
4.6302252 -9.4933681 -1.6729103
5.4349031 -11.153081 -1.5233669
6.5059967 -13.357014 -1.2998407
8.3901501 -17.240524 -1.0048505
12.169196 -25.028112 -0.48577029
3.1586976 -6.5195551 -1.9411429
19.602852 -40.478298 0.78504413
3.5567584 -7.3476863 -1.8846399
21.569962 -44.579895 2.5954449
3.9684551 -8.2018375 -1.7710892
4.5996389 -9.5148077 -1.673849
5.4356518 -11.25421 -1.5345789
6.4688621 -13.39938 -1.3017582
8.3229761 -17.255316 -1.0040131
12.083495 -25.074039 -0.48584008
3.1426113 -6.5444727 -1.945284
19.407785 -40.434704 0.78288007
3.5150721 -7.3266735 -1.8760917
21.549875 -44.917683 2.6109364
3.9431977 -8.2227201 -1.7726158
4.5715175 -9.5414944 -1.6757263
5.4151902 -11.312507 -1.5399412
6.423768 -13.425474 -1.3021067
8.266139 -17.29147 -1.0044318
12.007177 -25.128407 -0.48611936
3.1197481 -6.5554023 -1.945284
19.244379 -40.437447 0.78169328
3.4957795 -7.3488493 -1.8787912
21.507875 -45.234337 2.6249626
3.9144709 -8.2364349 -1.7726158
4.5381575 -9.5530329 -1.6751004
5.3725395 -11.319642 -1.5384787
6.3879638 -13.471218 -1.3043728
8.2053299 -17.311567 -1.0040131
11.902274 -25.134018 -0.48542124
3.0996411 -6.5692062 -1.9463193
19.045099 -40.381393 0.77931976
3.4750912 -7.3715825 -1.8814906
21.486065 -45.598213 2.64171
3.8804419 -8.2351618 -1.7695627
4.5064659 -9.5723906 -1.6757263
5.3338394 -11.340122 -1.5387224
6.3483424 -13.503145 -1.3054187
8.1499481 -17.35095 -1.0046412
11.817862 -25.182655 -0.48556083
3.0685084 -6.5624862 -1.9411429
18.966682 -40.58168 0.78190273
3.4402661 -7.3642459 -1.8765416
21.453512 -45.944389 2.6574106
3.8558245 -8.2575521 -1.7714708
4.4738598 -9.5898542 -1.6760391
5.2925453 -11.355074 -1.5382349
6.3095827 -13.543284 -1.3071618
8.0977612 -17.397402 -1.0056878
11.731576 -25.227381 -0.48563069
3.0504553 -6.5836744 -1.9442488
18.920712 -40.8545 0.78588188
3.4096272 -7.3655996 -1.8738421
21.415462 -46.283642 2.6726928
3.8294511 -8.2763071 -1.7726158
4.3980851 -9.5139647 -1.6600827
5.2628641 -11.395105 -1.5411599
6.263104 -13.567035 -1.3073361
8.0386553 -17.42919 -1.0058972
11.621681 -25.220959 -0.48472315
3.025038 -6.5890155 -1.9426959
18.901424 -41.189285 0.79104781
3.3708963 -7.3491163 -1.8666438
21.391949 -46.659492 2.6900685
3.8054476 -8.3003302 -1.7749053
4.350863 -9.4987278 -1.6547639
5.2164483 -11.398966 -1.53921
6.2206817 -13.599685 -1.308382
7.9711266 -17.442608 -1.0050598
11.548525 -25.294115 -0.48535141
3.01526 -6.6317129 -1.9520133
18.872782 -41.527718 0.79621369
3.3278184 -7.3259368 -1.8576458
21.346237 -46.992104 2.7049317
3.7766221 -8.3177986 -1.7756686
4.3143873 -9.511013 -1.6541382
5.1762724 -11.421624 -1.5396974
6.1535296 -13.584281 -1.3047214
7.9104352 -17.478989 -1.0054785
11.460164 -25.33427 -0.48535141
2.9889181 -6.6351528 -1.9499428
18.843372 -41.830742 0.80082113
3.3051062 -7.3404851 -1.8585455
21.324701 -47.383236 2.7231448
3.7403154 -8.3148165 -1.772234
4.287684 -9.5360785 -1.6560154
5.1416221 -11.44597 -1.5406723
6.1191263 -13.634763 -1.3075105
7.8606048 -17.523346 -1.0065252
11.363479 -25.355873 -0.48500237
2.9645371 -6.6397357 -1.9483899
18.822748 -42.177486 0.80619651
3.2834332 -7.3608766 -1.8607951
3.7183177 -8.3397255 -1.7749053
4.3612733 -9.7909794 -1.6976269
5.112936 -11.489239 -1.5440848
6.0868349 -13.684105 -1.3102994
7.796144 -17.543377 -1.0061065
11.274903 -25.395384 -0.48500237
2.9405596 -6.6482768 -1.9478723
18.79022 -42.50264 0.81115294
3.2537801 -7.36338 -1.8585455
3.6899786 -8.3544512 -1.775287
4.3182979 -9.7862644 -1.6941855
5.0880151 -11.541527 -1.5487157
6.0502772 -13.730795 -1.3127397
7.7380767 -17.577795 -1.0065252
11.197458 -25.460213 -0.48549104
2.9150097 -6.653192 -1.9463193
18.76207 -42.842735 0.81638873
3.2202432 -7.356842 -1.8540466
3.6741722 -8.3978567 -1.7817745
4.307054 -9.8537683 -1.7032586
5.039752 -11.541025 -1.5462784
6.0094852 -13.768265 -1.3143086
7.6782694 -17.608358 -1.0067345
11.106919 -25.495478 -0.48542124
2.8925359 -6.6650991 -1.9468369
18.717453 -43.150124 0.82099611
3.1875675 -7.3519459 -1.8499974
15.119348 -34.888626 1.992744
3.6549828 -8.4340487 -1.7867355
4.2969627 -9.9249392 -1.7129576
4.9947071 -11.547616 -1.5448159
5.9669242 -13.801959 -1.3155288
7.6183419 -17.638723 -1.0069439
11.014689 -25.526749 -0.48528162
2.8662019 -6.668056 -1.9447664
3.1611147 -7.361237 -1.8495475
14.992749 -34.930176 1.9921161
3.6262951 -8.4485588 -1.7871171
4.2801957 -9.9816341 -1.7201536
4.977037 -11.617897 -1.5518843
5.9132185 -13.809883 -1.3143086
7.5630088 -17.679897 -1.0077813
10.930231 -25.576075 -0.48549104
2.848206 -6.6904626 -1.9483899
3.1415019 -7.3865724 -1.8531467
14.950426 -35.169781 2.0027926
3.5975502 -8.4629726 -1.7874987
4.2468724 -10.000151 -1.7207794
4.9310246 -11.622407 -1.5501782
5.8571992 -13.812097 -1.3125654
7.5059223 -17.717226 -1.0084094
10.823739 -25.573559 -0.48472315
2.8218317 -6.693244 -1.9463193
3.1051099 -7.3723502 -1.8468481
14.850816 -35.276978 2.0059328
3.5649397 -8.4682417 -1.7859724
4.218833 -10.031301 -1.7235951
4.8927326 -11.645039 -1.5509094
5.8398061 -13.905938 -1.3195379
7.4517603 -17.761734 -1.009456
10.749864 -25.648069 -0.48542124
2.7917528 -6.6870079 -1.9416605
3.0846066 -7.3957353 -1.8499974
14.467834 -34.705502 1.9705535
3.5398912 -8.4915066 -1.788262
4.1982193 -10.080615 -1.7295396
4.8406162 -11.634556 -1.5472534
5.7996464 -13.946474 -1.3214554
7.3912473 -17.791327 -1.0096654
10.660273 -25.685436 -0.48542124
2.7706079 -6.7020688 -1.9432135
3.0587726 -7.4064569 -1.8499974
14.352694 -34.770565 1.9713911
3.5117257 -8.5074406 -1.7890252
4.1803274 -10.137211 -1.7367356
4.8317318 -11.72847 -1.5574903
5.7471371 -13.957421 -1.3205838
7.3336568 -17.8281 -1.0102934
10.572068 -25.726191 -0.48549104
2.7435372 -6.7027593 -1.9406252
14.443246 -35.303993 0.66580933
3.0299489 -7.409874 -1.8481979
14.250883 -34.868519 1.9741124
3.4894364 -8.5378208 -1.7928416
4.1620893 -10.193805 -1.7439317
4.8005099 -11.769158 -1.5606589
5.7036448 -13.990314 -1.3218039
7.2759027 -17.864689 -1.0109214
10.49426 -25.792572 -0.4860495
2.718673 -6.7087145 -1.93959
3.0091848 -7.4330492 -1.8513472
14.136573 -34.936565 1.9751592
3.4507754 -8.5281096 -1.788262
4.1279621 -10.211932 -1.7445574
4.7675734 -11.806092 -1.5633401
5.6420984 -13.978727 -1.3188407
7.219471 -17.904799 -1.0117588
10.395197 -25.806791 -0.48563069
2.6945183 -6.7163711 -1.9390724
2.9687219 -7.4073305 -1.8423492
14.065037 -35.111774 1.9822769
3.4341261 -8.5729074 -1.7951311
4.1033006 -10.253789 -1.7492503
4.7572832 -11.900079 -1.573577
5.5585217 -13.911381 -1.3106481
7.1658144 -17.952148 -1.0130149
10.303569 -25.839205 -0.48556083
2.671771 -6.7275305 -1.93959
2.9543445 -7.4466305 -1.8495475
14.08669 -35.524555 2.0027926
3.4237206 -8.634119 -1.8054349
4.0762119 -10.290089 -1.7530048
4.7551599 -12.016285 -1.5867389
5.4894114 -13.878821 -1.3057673
7.1089778 -17.991915 -1.0138522
10.222123 -25.897333 -0.48597971
2.6503916 -6.7422094 -1.9411429
2.9240599 -7.4460144 -1.8468481
13.95968 -35.566071 2.0023739
3.3914087 -8.6405334 -1.8042899
4.0417109 -10.307932 -1.7536306
4.7240443 -12.060537 -1.590395
5.4387541 -13.892333 -1.3052443
7.0475855 -18.02034 -1.0140616
10.143305 -25.962658 -0.4865382
2.6254394 -6.7478194 -1.9401076
2.8938146 -7.4452777 -1.8441486
3.3555393 -8.6376791 -1.801237
4.0242858 -10.369858 -1.7617651
4.6768465 -12.057628 -1.5879577
5.3830271 -13.892655 -1.3035012
6.9687796 -18.003851 -1.0117588
10.048494 -25.973772 -0.48611936
2.5877686 -6.7168298 -1.9287195
18.71833 -48.610691 0.90923548
2.8789093 -7.4802952 -1.8504474
3.3395646 -8.6817427 -1.8081062
3.9863343 -10.373927 -1.7602009
4.6439533 -12.091602 -1.590395
5.3426366 -13.925312 -1.3048958
6.906179 -18.019403 -1.0113401
9.9580135 -25.995747 -0.48590991
2.5771863 -6.7560587 -1.9375196
18.669584 -48.96772 0.9147504
2.8478422 -7.4734111 -1.8463982
3.3107562 -8.6927691 -1.8081062
3.9645541 -10.420321 -1.7658324
4.6010132 -12.105884 -1.5901513
5.323699 -14.022107 -1.3122169
6.8449688 -18.038471 -1.0111308
9.8870602 -26.082705 -0.48688722
2.5544527 -6.7708817 -1.9390724
18.643948 -49.418011 0.92194086
2.8238001 -7.4887772 -1.847748
3.2830265 -8.7158689 -1.810396
3.9312053 -10.447725 -1.7680227
4.5706048 -12.153458 -1.5942949
5.2887349 -14.077907 -1.315703
6.747931 -17.981161 -1.0065252
9.7776976 -26.068377 -0.48597971
26.42053 -70.477356 20.167698
2.5321531 -6.7833767 -1.9401076
18.584322 -49.812012 0.92801428
2.7963343 -7.4990764 -1.847748
3.2573814 -8.7401533 -1.8130672
3.883683 -10.431765 -1.7630166
4.5315661 -12.185013 -1.5962448
5.2541366 -14.135501 -1.3193636
6.6607938 -17.939074 -1.0028617
9.6681747 -26.066544 -0.48528162
26.162046 -70.573723 20.167698
2.5024364 -6.7758636 -1.9354489
18.562677 -50.289291 0.93569332
2.7762101 -7.5252471 -1.8517971
3.2343233 -8.7717314 -1.8172649
3.8527083 -10.460085 -1.7655195
4.4924321 -12.210072 -1.5974635
5.2205801 -14.196765 -1.3233728
6.5891786 -17.937845 -1.001501
9.6046801 -26.175224 -0.48667783
2.4754541 -6.775486 -1.9328607
18.478931 -50.605488 0.94037062
2.7465849 -7.5257378 -1.8495475
3.2144487 -8.812479 -1.8233709
3.8141448 -10.467903 -1.764581
4.4409571 -12.201428 -1.5942949
5.1927876 -14.274817 -1.3289508
6.5285716 -17.966366 -1.001815
9.5487347 -26.306334 -0.48849288
2.4557278 -6.7949867 -1.9359666
2.7255909 -7.549943 -1.8531467
3.187 -8.8328781 -1.8252789
3.7641845 -10.443985 -1.7583237
4.4144788 -12.261682 -1.6001446
5.1618147 -14.345348 -1.3338314
6.4502816 -17.945816 -0.99940753
9.4554977 -26.335741 -0.48842305
2.4326437 -6.8053365 -1.9364842
2.7090507 -7.5869408 -1.8598953
3.1548281 -8.840251 -1.8245157
3.7177567 -10.429151 -1.7536306
26.560547 -74.549492 9.7171307
4.3709822 -12.275146 -1.5999008
5.1270747 -14.406451 -1.3378406
6.3748856 -17.932467 -0.99741876
9.3373203 -26.280273 -0.48681742
2.4108055 -6.8192506 -1.9380372
2.6799812 -7.5848584 -1.857196
3.1167634 -8.8308458 -1.820318
3.6805229 -10.43397 -1.7523791
4.3295937 -12.287701 -1.5996571
5.1104884 -14.520109 -1.3467305
6.3220139 -17.972349 -0.99846548
9.2660742 -26.371193 -0.48789948
2.3888164 -6.829031 -1.9385546
2.6547747 -7.5978451 -1.8580956
3.096523 -8.8670816 -1.8256606
3.6453812 -10.450484 -1.7530048
4.2905936 -12.313987 -1.6011195
5.0997229 -14.652641 -1.3573635
6.2421789 -17.945261 -0.99574399
9.2074385 -26.499712 -0.4896796
2.3587217 -6.8231339 -1.9344137
2.6339645 -7.6236439 -1.8621449
3.0684872 -8.8913622 -1.8283319
3.5986848 -10.439497 -1.7489375
4.2572842 -12.35704 -1.6047755
5.0686421 -14.728755 -1.3627671
6.165976 -17.937799 -0.99406928
9.14217 -26.611122 -0.49114564
2.3405135 -6.8477783 -1.9390724
2.607264 -7.6369352 -1.8630446
3.0431373 -8.9187412 -1.8317665
24.878954 -72.9562 6.743763
3.5705049 -10.476302 -1.7530048
4.2183619 -12.391354 -1.607213
5.0171976 -14.74636 -1.3627671
6.1039681 -17.961103 -0.99417388
9.0569401 -26.665594 -0.49156451
2.3147407 -6.8504162 -1.9375196
2.57569 -7.6270747 -1.8585455
3.0176337 -8.9460516 -1.8352009
3.5376401 -10.493701 -1.7539434
4.1886501 -12.439138 -1.6116004
4.968235 -14.771337 -1.3634645
6.051373 -18.002071 -0.99532533
8.9638071 -26.697046 -0.49156451
2.293236 -6.8617182 -1.9385546
6.2294002 -18.650158 0.34321901
2.5552206 -7.6545053 -1.8630446
6.2172046 -18.635288 1.0295531
2.9817388 -8.9373865 -1.8313849
3.5022359 -10.509734 -1.7545692
4.1414418 -12.442382 -1.6101379
4.935575 -14.836884 -1.3679966
5.9992027 -18.055305 -0.9971047
6.2036614 -18.69245 -0.34377751
24.121311 -72.723167 20.530046
2.2680583 -6.8660131 -1.9375196
2.53215 -7.6744809 -1.8657441
2.9529822 -8.9551983 -1.8329114
3.4791248 -10.563171 -1.7614522
4.0998449 -12.46242 -1.6108691
4.878777 -14.838881 -1.3666019
5.9567046 -18.138756 -1.0005589
8.7896729 -26.796976 -0.49226257
2.2368829 -6.8518505 -1.9313078
2.5089712 -7.6943898 -1.8684435
2.9277873 -8.9841175 -1.8367275
3.4403954 -10.569616 -1.7605137
4.0722775 -12.525739 -1.6172063
4.8306422 -14.867189 -1.3676479
5.9278798 -18.265823 -1.0064206
8.7182779 -26.895975 -0.49351916
2.2236285 -6.8927097 -1.9406252
2.4862802 -7.716085 -1.8715929
2.8958075 -8.9924154 -1.8363459
3.3938029 -10.551473 -1.7555077
23.628448 -73.505821 9.480217
4.0473514 -12.598466 -1.6247622
4.778718 -14.883961 -1.3676479
5.8976245 -18.391006 -1.0121775
8.6304398 -26.94529 -0.49386823
2.1989682 -6.8985896 -1.9401076
2.4540102 -7.708003 -1.8675436
2.8661854 -9.0080805 -1.8374907
3.3557553 -10.55949 -1.754882
23.416185 -73.727859 9.4982538
3.9745224 -12.521698 -1.6130629
4.7405896 -14.944231 -1.371657
5.8689852 -18.523815 -1.0183531
8.5544319 -27.032444 -0.49491537
2.1719728 -6.8970108 -1.9375196
2.4276733 -7.7183824 -1.8679937
2.8341362 -9.0161572 -1.8371091
3.3117733 -10.548524 -1.7511276
3.9569242 -12.618837 -1.6237873
4.7098441 -15.029131 -1.3779322
5.8490362 -18.687145 -1.0262035
8.4671774 -27.085045 -0.49533421
2.146163 -6.8990164 -1.9359666
2.404186 -7.7379746 -1.8706928
2.8003178 -9.0184965 -1.8355827
3.2620604 -10.518512 -1.7442445
3.8999288 -12.590856 -1.618425
4.6520534 -15.028351 -1.3763635
5.7949767 -18.743704 -1.0281924
8.3796616 -27.137363 -0.49575308
2.1209326 -6.9027719 -1.9349313
2.382879 -7.7649503 -1.875192
2.7653661 -9.0169544 -1.833293
3.223588 -10.524168 -1.7433058
23.020523 -75.202827 9.6566839
3.876862 -12.67273 -1.6271995
4.6100492 -15.078794 -1.3795011
5.7569289 -18.853596 -1.0331119
8.2918825 -27.189402 -0.49617192
2.0990689 -6.9175277 -1.9370018
2.3563237 -7.7750854 -1.8756418
12.465961 -41.13353 2.2525396
2.7355812 -9.0321884 -1.8344377
3.1868317 -10.535356 -1.7433058
3.8417885 -12.716589 -1.6310995
4.5579634 -15.096702 -1.3796754
5.7216392 -18.974924 -1.0386595
8.2212925 -27.281845 -0.49735868
2.0793452 -6.9396176 -1.9411429
2.3333225 -7.792191 -1.8778914
12.336048 -41.222717 2.2550519
2.6995373 -9.0266361 -1.8313849
3.1467867 -10.528833 -1.7404901
17.12693 -57.34145 7.347991
3.7978935 -12.723552 -1.6303681
4.5046687 -15.110611 -1.3795011
5.6775055 -19.056959 -1.0421137
8.1374159 -27.348709 -0.4980568
2.0557723 -6.944622 -1.9406252
2.318264 -7.8414016 -1.8877892
12.269042 -41.52602 2.2692871
2.664582 -9.0185919 -1.8279504
3.1491494 -10.672376 -1.762391
17.083874 -57.934017 7.4162378
3.7472827 -12.715787 -1.6276871
4.4449677 -15.092974 -1.3765378
5.6374369 -19.166718 -1.0470332
8.0441551 -27.384624 -0.49819639
2.0331442 -6.9573188 -1.9421781
2.2892411 -7.8438339 -1.8864396
12.120659 -41.557095 2.2686594
2.6341839 -9.0316076 -1.8287135
3.1599371 -10.848304 -1.7896105
3.701766 -12.724977 -1.6271995
4.3816867 -15.072049 -1.3732258
5.5927753 -19.263002 -1.0512201
7.958539 -27.447105 -0.49882469
2.008847 -6.9643736 -1.9421781
2.2656219 -7.8648853 -1.889589
2.6053584 -9.0501814 -1.8306217
3.1335135 -10.899137 -1.7961807
16.596781 -57.765682 7.3796773
3.6660898 -12.768351 -1.6310995
4.3361936 -15.112148 -1.3754919
5.5425534 -19.341927 -1.0544649
7.8861966 -27.538708 -0.50001144
1.9887557 -6.9862075 -1.9463193
3.7826736 -13.287978 0.24115735
2.2523263 -7.9173398 -1.9003865
3.7783477 -13.290397 0.72412038
2.5753596 -9.0648861 -1.8317665
3.7699478 -13.278475 1.2076299
3.1254077 -11.008282 -1.8124499
3.752207 -13.224768 1.6878905
3.6302261 -12.803355 -1.6340244
3.7540193 -13.248771 2.1810095
3.757422 -13.269601 -1.2065841
3.7479417 -13.23612 2.6739974
3.753406 -13.264255 -0.72244561
3.7283723 -13.184569 3.1632617
3.7446477 -13.250957 -0.24035454
3.7114496 -13.142244 3.6591837
1.959305 -6.9704466 -1.9401076
3.7092273 -13.204842 0.23941211
2.2173023 -7.8988862 -1.8940878
3.706037 -13.211201 0.71909612
2.5521784 -9.09795 -1.8367275
3.6947026 -13.179634 1.1975199
3.03634 -10.838421 -1.7827275
3.6867533 -13.168968 1.679116
3.5833733 -12.808302 -1.6330494
3.6790292 -13.159062 2.1641147
3.7026677 -13.243611 -1.2030978
3.6705453 -13.137564 2.6514819
3.6936541 -13.229183 -0.71982878
3.6613789 -13.122421 3.1452656
3.6849432 -13.215792 -0.23948193
3.6567366 -13.123483 3.6503839
1.9375421 -6.9865518 -1.9426959
3.6588385 -13.202293 0.23913288
2.1933579 -7.9197245 -1.8972371
3.6487124 -13.183633 0.71689802
2.5219769 -9.1124802 -1.8378724
3.6454875 -13.180929 1.196474
3.0500596 -11.035545 -1.8133886
3.6354787 -13.162621 1.6766785
3.5344164 -12.805424 -1.6310995
3.6251929 -13.143262 2.1594217
3.6542952 -13.248774 -1.2024006
3.617362 -13.123799 2.6461394
3.646924 -13.24007 -0.71972418
3.6098602 -13.114455 3.1403167
3.6313648 -13.20158 -0.23899324
3.6052721 -13.115677 3.64469
1.9121236 -6.9895453 -1.9416605
3.6127326 -13.214984 0.23913288
2.1754563 -7.9630504 -1.9057853
3.6021459 -13.194363 0.71679336
2.4999778 -9.1572123 -1.8451231
3.5952597 -13.178196 1.1950796
3.0058036 -11.02516 -1.809947
3.587945 -13.169486 1.6759474
3.4938672 -12.833006 -1.6330494
3.574626 -13.13868 2.1566057
3.6048889 -13.249913 -1.2013547
3.5730741 -13.142029 2.647284
3.5991139 -13.246937 -0.71941012
3.5620186 -13.119453 3.1385171
3.5884006 -13.225756 -0.23920268
3.5579505 -13.122587 3.643137
1.8867064 -6.9924469 -1.9406252
3.5665815 -13.227514 0.23913288
2.1496756 -7.9781218 -1.9075849
3.5581422 -13.214569 0.71721202
2.4659553 -9.1583014 -1.8435967
3.5502739 -13.194513 1.1954281
2.9683273 -11.039399 -1.8105727
3.5414379 -13.180014 1.6757036
3.4588308 -12.88155 -1.6376804
3.5343742 -13.172065 2.1600473
3.5596504 -13.266265 -1.2017034
3.5281942 -13.158214 2.6480472
3.5575037 -13.276783 -0.72035217
3.5247684 -13.163809 3.1461656
3.5447979 -13.24786 -0.2393772
3.5131218 -13.138659 3.6441724
1.8647711 -7.0083251 -1.9432135
3.5250113 -13.257277 0.23944701
2.1233144 -7.9912262 -1.9089346
3.5212202 -13.261657 0.71909612
2.4445527 -9.2066994 -1.8516105
3.5103261 -13.229936 1.1975199
2.9606547 -11.166167 -1.8296577
3.5040536 -13.224916 1.6798471
3.4153705 -12.899302 -1.6384115
3.4969614 -13.216786 2.1653662
3.5235114 -13.317133 -1.2051896
3.4902728 -13.200817 2.6541533
3.5131776 -13.296844 -0.72077084
3.4887471 -13.213717 3.1551635
3.5102656 -13.304625 -0.24018003
3.4815204 -13.205015 3.6591837
1.8402969 -7.0147915 -1.9432135
3.4913905 -13.317859 0.24031964
2.0939255 -7.9929352 -1.9075849
3.4921038 -13.33956 0.72265494
2.4193609 -9.2417669 -1.8569533
3.4913521 -13.346194 1.2069327
2.9216607 -11.176434 -1.8296577
3.3698211 -12.909225 -1.6381679
4.0010204 -15.338199 -1.3868221
3.4818058 -13.357304 2.6831563
3.4586861 -13.278103 -0.71909612
7.2935658 -28.040554 -0.50573581
1.8187004 -7.0323944 -1.9463193
2.0742962 -8.0322704 -1.9152331
2.4022937 -9.3090858 -1.8687835
2.895447 -11.2363 -1.8377923
15.068741 -58.51923 7.4196501
3.325233 -12.922832 -1.6384115
3.9628346 -15.411891 -1.3922259
3.4252312 -13.340392 -0.72181761
7.1926646 -28.05422 -0.50552642
1.792711 -7.0330839 -1.9447664
2.0510514 -8.0583477 -1.9197323
15.481109 -60.867928 3.2915132
2.3683331 -9.3117056 -1.8676385
2.8566921 -11.248253 -1.8381052
3.2864466 -12.959374 -1.6415801
3.9085248 -15.423697 -1.3920516
5.0498366 -19.956758 -1.0788535
7.1005707 -28.102421 -0.50594527
1.769091 -7.043046 -1.9458016
2.0229108 -8.0654583 -1.9197323
2.3401101 -9.3370562 -1.8710731
2.8202891 -11.269653 -1.8399823
15.422657 -61.673454 7.8057323
3.2314138 -12.922058 -1.6354867
3.8691442 -15.495238 -1.3972809
4.9748287 -19.952948 -1.0777022
7.0199122 -28.176264 -0.50685281
1.7424755 -7.0357475 -1.9421781
1.9975566 -8.0777969 -1.9210819
14.525698 -58.739582 3.1711407
2.3227932 -9.4000359 -1.88214
2.7705989 -11.229081 -1.8318479
14.720051 -59.704369 7.5502939
3.1975729 -12.969321 -1.6401178
3.8244059 -15.535069 -1.3997213
4.9033923 -19.948002 -1.0765507
6.9340687 -28.230459 -0.50741124
1.7214252 -7.0508709 -1.9447664
1.9666057 -8.067338 -1.9170328
14.292213 -58.673496 3.1648602
2.2967196 -9.4286699 -1.8863379
2.7445502 -11.284272 -1.8393567
3.1597788 -13.01127 -1.6440176
3.8077152 -15.703226 -1.4136661
1.7770115 -7.3284926 1.4657948
4.8400364 -19.975796 -1.0771787
6.8524075 -28.324463 -0.50866783
1.6951195 -7.0552545 -1.9442488
1.9420726 -8.0893126 -1.920632
2.2694685 -9.4675713 -1.8924437
2.6981149 -11.273124 -1.8359152
3.1028001 -12.973952 -1.6379241
3.7709239 -15.791998 -1.4204643
4.5217557 -18.965658 -1.0218073
6.7544241 -28.3521 -0.50873768
1.667369 -7.0479684 -1.9406252
1.9110667 -8.0906868 -1.9192824
13.858373 -58.670769 3.1594174
2.2386601 -9.4849892 -1.8943518
2.6505933 -11.247864 -1.8302835
3.0615919 -13.012291 -1.6413364
3.7171462 -15.810884 -1.4209872
1.7236266 -7.3371987 1.4650315
4.479259 -19.082438 -1.0272502
6.679163 -28.47674 -0.5105527
1.6361831 -7.0255237 -1.9328607
1.8908515 -8.1254501 -1.9260309
13.704157 -58.936665 3.1711407
2.2099817 -9.5118694 -1.8981681
2.610152 -11.243122 -1.8280934
3.0166314 -13.014636 -1.6403615
3.6745088 -15.878115 -1.4258679
1.6780392 -7.2510643 1.4467138
4.6868353 -20.268625 -1.0902628
6.5914116 -28.550541 -0.51146024
1.6176277 -7.0516233 -1.9385546
1.8633466 -8.1357994 -1.9269307
2.187186 -9.5574217 -1.9058005
2.5669298 -11.234833 -1.8252774
2.9658854 -13.001863 -1.6374366
3.6287963 -15.933583 -1.4297028
1.6588221 -7.2836766 1.4520565
4.57617 -20.109589 -1.0808423
1.6630461 -7.3140135 1.7316732
6.4970303 -28.596775 -0.51187909
1.6023972 -7.1046176 -1.9514956
2.1573126 -9.588357 -1.9103796
2.5421877 -11.317405 -1.8371665
2.9374361 -13.087675 -1.6469425
3.6062663 -16.09391 -1.4429505
1.6192466 -7.232233 1.4406079
4.488481 -20.063856 -1.0774928
1.6294249 -7.2896309 1.7244748
6.4093795 -28.673925 -0.51285642
1.5775884 -7.1101675 -1.9514956
2.1212852 -9.5843277 -1.90809
2.5133204 -11.374432 -1.8449883
2.9135609 -13.196708 -1.659373
3.5560675 -16.13364 -1.4453908
1.5855464 -7.1994948 1.4329756
4.4119782 -20.050142 -1.0759227
1.5951923 -7.2493172 1.7136772
6.3169813 -28.731277 -0.51348472
1.5511159 -7.1021485 -1.9478723
1.6232008 -7.4446712 -1.7591172
1.564991 -7.2200627 1.4360286
1.5694935 -7.2469487 1.7118775
1.5316157 -7.1261401 -1.9530486
1.594416 -7.4309592 -1.7546182
1.5844079 -7.3906035 -1.4692293
1.6184665 -7.5623498 -1.224882
1.6171813 -7.5757246 -0.67772305
1.5353061 -7.1983314 1.4306859
1.5393182 -7.2295113 1.7064787
1.5095267 -7.1446743 -1.9566721
1.5644463 -7.4174113 -1.7501192
1.5594106 -7.399931 -1.4699926
1.5757936 -7.4906311 -1.2123673
1.5773302 -7.5044365 0.94156259
1.5662282 -7.458087 -0.93571293
1.5596325 -7.4331288 -0.66447538
1.5093641 -7.1998038 1.4299227
1.5522448 -7.4107895 -0.39681125
1.5092828 -7.2119513 1.7010798
1.5499114 -7.4125423 -0.13218452
1.4861487 -7.1574659 -1.9587426
1.5342036 -7.3953876 0.13183548
1.5365674 -7.4132862 -1.7478697
1.5321864 -7.3986459 0.39597389
1.5383477 -7.4283986 -1.4745719
1.5283737 -7.3867278 0.65994328
1.5464373 -7.4806099 -1.2098643
1.5458025 -7.4907265 -0.93912524
1.5225749 -7.3846846 1.1942208
1.5344809 -7.44243 -0.66482401
1.529186 -7.4298563 -0.39754397
1.485669 -7.2248106 1.7028794
1.5280515 -7.4374952 -0.13253358
1.4661751 -7.1872172 -1.9654719
1.5115272 -7.4293928 0.39733464
1.5264989 -7.5029817 -1.4883102
1.5391867 -7.5788836 -1.224882
1.525955 -7.5272055 -0.94302505
1.5377616 -7.5922441 -0.67772305
1.4672414 -7.2505751 1.4379367
1.4604404 -7.2299528 1.7028794
1.4437355 -7.2055507 -1.9690953
1.4958597 -7.4792495 -1.7609169
1.9411573 -9.7145386 -1.9256444
2.6764619 -13.443218 -1.6830157
3.2837033 -16.508287 -1.4725833
1.4415402 -7.253727 1.4375551
4.0218697 -20.256248 -1.0823077
1.4405036 -7.2617679 1.7091781
1.411116 -7.1726356 -1.9587426
1.4945265 -7.6106315 -1.7906104
9.0592012 -46.17514 2.4660704
2.6299021 -13.454427 -1.6832595
3.233314 -16.556805 -1.4758953
1.4154592 -7.2548604 1.4367918
3.9786499 -20.41131 -1.0898441
1.4218514 -7.3011823 1.7172763
5.6899672 -29.245081 -0.52004683
1.3904657 -7.2002797 -1.9649543
1.5940915 -8.2702246 -1.9444768
8.8881483 -46.155491 2.4633489
2.1983695 -11.437467 -1.8446754
2.5836675 -13.467424 -1.6837471
3.1681139 -16.545063 -1.4738036
1.3923423 -7.2713265 1.4390815
3.9167578 -20.474115 -1.0924609
1.3970883 -7.3099289 1.7181761
5.569098 -29.166553 -0.51830161
1.355801 -7.1616707 -1.9530486
8.7151203 -46.123436 2.4599996
1.8252409 -9.6690626 -1.9126694
2.1608217 -11.468741 -1.8484299
2.5381114 -13.484164 -1.6847219
3.1210074 -16.612806 -1.4788586
1.3664064 -7.2802405 1.4398447
3.8210797 -20.378403 -1.0865992
1.3803331 -7.3686323 1.7307733
5.401711 -28.835955 -0.51208848
1.3389069 -7.2100449 -1.9649543
8.6340075 -46.630325 2.4853301
1.7957685 -9.6985397 -1.9172488
2.1200581 -11.472329 -1.8478041
2.5019941 -13.565607 -1.6937402
3.0741661 -16.700554 -1.4856569
1.337431 -7.2656574 1.4360286
3.6653919 -19.931967 -1.062106
1.3771398 -7.4960723 1.7595671
5.3039274 -28.898832 -0.51285642
1.3173121 -7.2415133 -1.9722012
1.510484 -8.3116522 -1.9503256
1.7651134 -9.7321014 -1.9225914
2.0801065 -11.491685 -1.8496813
2.4616904 -13.613325 -1.6986151
2.9985123 -16.615107 -1.4771154
1.3330854 -7.3941655 1.4604521
3.570009 -19.821434 -1.0555117
5.1683183 -28.724295 -0.50943571
1.2917386 -7.2225695 -1.9659895
1.4853917 -8.3221121 -1.9516754
1.7341856 -9.7356663 -1.9222099
2.0529232 -11.536702 -1.8559387
2.4248109 -13.65422 -1.7027587
2.9542978 -16.669567 -1.4811248
1.3166944 -7.4369802 1.4680845
3.5118959 -19.85615 -1.0567677
5.0703974 -28.697069 -0.50866783
1.270255 -7.2557998 -1.9737542
1.4511902 -8.3063841 -1.9467264
1.7048988 -9.7787037 -1.9294606
2.0075746 -11.526635 -1.8531229
2.3771303 -13.676704 -1.7044648
2.8846681 -16.631207 -1.4767668
3.5743294 -20.650183 -1.0983224
4.9699564 -28.743046 -0.50915653
1.2449571 -7.268023 -1.9758247
1.418767 -8.3001223 -1.9440269
1.6638147 -9.7439556 -1.9214467
1.9686304 -11.553389 -1.8562515
2.3296487 -13.700981 -1.7064147
2.8406072 -16.723673 -1.4840878
1.2706691 -7.4887953 1.4764801
3.5489547 -20.938219 -1.1129766
4.867238 -28.776842 -0.50943571
1.2186215 -7.2666087 -1.9742718
1.3901057 -8.3069458 -1.9444768
1.6265558 -9.73034 -1.9176304
1.9263406 -11.548499 -1.8543743
2.2870233 -13.740361 -1.7103145
2.8508389 -17.146221 -1.5206933
3.4941478 -21.060816 -1.1188382
4.7732935 -28.833113 -0.51013386
1.1957514 -7.2860689 -1.9784129
1.3566926 -8.2848244 -1.9381782
1.5903617 -9.7223949 -1.9149592
1.882836 -11.535658 -1.8512456
2.2374511 -13.738464 -1.7090958
2.8008893 -17.21703 -1.5260969
3.3418896 -20.58791 -1.0930889
4.6898141 -28.923794 -0.51146024
1.1700046 -7.2882905 -1.9778951
1.3344566 -8.3219891 -1.9458266
1.5623075 -9.7647209 -1.9222099
1.8402072 -11.514529 -1.8468655
2.1940696 -13.759531 -1.7108021
2.7611194 -17.354601 -1.5374273
3.1566732 -19.863132 -1.0540463
4.6038537 -29.034788 -0.51313567
1.1428303 -7.2730465 -1.9727188
1.303589 -8.3150434 -1.9431273
1.5311326 -9.777607 -1.9237365
1.8015271 -11.530642 -1.8484299
2.1472487 -13.77495 -1.711777
2.7050865 -17.373507 -1.5382988
3.2495043 -20.91806 -1.1094178
4.5283947 -29.184269 -0.51550919
1.1186093 -7.2846293 -1.9747895
1.2745306 -8.3096905 -1.9408777
1.7632798 -11.536551 -1.8484299
2.0973678 -13.754522 -1.7083646
2.6462243 -17.394659 -1.5393447
3.0195973 -19.872311 -1.0534182
4.4456792 -29.326429 -0.51774311
1.0950198 -7.2921195 -1.9758247
1.242918 -8.2967443 -1.9368286
1.719792 -11.521145 -1.8449883
2.0502198 -13.76765 -1.7090958
2.582078 -17.359983 -1.5355098
3.1134932 -20.983156 -1.1117204
4.3836875 -29.614754 -0.52255994
1.0670377 -7.2786946 -1.9711659
1.2105653 -8.2778931 -1.9314297
1.2195449 -8.349473 -1.6401943
1.6844068 -11.560309 -1.8503071
2.0021503 -13.774723 -1.7090958
2.3986702 -16.523022 -1.4607302
3.0253463 -20.891111 -1.1062775
4.2882938 -29.685291 -0.52353728
1.0424434 -7.2881117 -1.9727188
1.1805614 -8.2743511 -1.92963
1.1973164 -8.4022694 -1.6497347
1.6451551 -11.573941 -1.8515586
1.9546124 -13.785558 -1.7095833
2.4814937 -17.523567 -1.5484089
2.9387131 -20.80464 -1.1011486
4.2036209 -29.834728 -0.52591079
1.0161968 -7.2859664 -1.9711659
1.1548934 -8.3015833 -1.9350289
1.1793278 -8.4880695 -1.6657627
1.5936265 -11.49939 -1.8387309
1.9048487 -13.780499 -1.7081208
2.438292 -17.662384 -1.5599134
2.8513639 -20.707928 -1.0954963
4.1130528 -29.948277 -0.52765608
11.198169 -81.642601 22.080889
0.99257988 -7.3028693 -1.9747895
1.1219825 -8.276598 -1.9282805
1.142579 -8.4396067 -1.6554589
1.5555921 -11.520543 -1.8412338
1.8384523 -13.651318 -1.6913029
2.2241859 -16.537361 -1.4598585
2.6468265 -19.731949 -1.0433698
4.0062857 -29.906254 -0.52667874
0.96479952 -7.2890534 -1.9701307
1.0906992 -8.2512951 -1.921532
1.2994016 -9.8566389 -1.9325136
1.521763 -11.558932 -1.8465527
1.7993762 -13.704576 -1.6971526
2.171876 -16.586512 -1.4635193
2.7002456 -20.64962 -1.0914141
3.8692863 -29.670212 -0.52228069
0.94086969 -7.2941284 -1.9706483
1.063879 -8.2705135 -1.9251312
1.0863576 -8.4569235 -1.6573671
1.4846681 -11.589645 -1.85062
1.7500159 -13.698959 -1.6956902
2.2725897 -17.839132 -1.5733354
2.6490657 -20.823366 -1.1001018
3.7606635 -29.643862 -0.5215826
0.91628999 -7.3147802 -1.9753071
1.0226679 -8.17556 -1.9021862
1.2269127 -9.8362484 -1.9267894
1.4377924 -11.559725 -1.8449883
1.696561 -13.659677 -1.6900842
2.1943877 -17.718433 -1.5620052
2.6165459 -21.18775 -1.1188382
3.6463916 -29.569483 -0.52004683
0.88748378 -7.2910862 -1.9680601
0.98752964 -8.136694 -1.8922883
1.1904455 -9.8229303 -1.9233549
1.3903217 -11.505839 -1.8356022
1.6512331 -13.705218 -1.694959
2.1349049 -17.74577 -1.5637484
2.5425704 -21.196754 -1.1188382
3.5455332 -29.601883 -0.52039587
0.86225516 -7.2960582 -1.9685777
0.96488178 -8.1766949 -1.9008365
1.1545426 -9.8133774 -1.9206835
1.3493948 -11.486845 -1.8318479
1.6129335 -13.771739 -1.7025148
2.0868134 -17.871847 -1.5742069
2.4657884 -21.149521 -1.1159073
3.4661958 -29.820658 -0.52402598
0.839598 -7.3123116 -1.9722012
0.93566871 -8.1742039 -1.8994867
1.1217729 -9.8152008 -1.9203018
1.3137621 -11.530739 -1.8381052
1.5646286 -13.775312 -1.7022711
2.0331562 -17.956236 -1.5810052
2.3643529 -20.913893 -1.1030327
3.3567021 -29.784885 -0.52318823
0.81236464 -7.3114996 -1.9711659
0.91400599 -8.2393999 -1.9138836
1.0842803 -9.8055868 -1.9176304
1.2712742 -11.533512 -1.8377923
1.5250025 -13.857644 -1.711777
1.9719871 -17.977087 -1.5822253
2.3371799 -21.375097 -1.1268979
3.2579238 -29.84413 -0.52402598
0.78683674 -7.314291 -1.9711659
0.88400847 -8.2446318 -1.9143335
1.2331039 -11.557522 -1.840921
1.4626563 -13.754574 -1.6983713
1.9117492 -18.007635 -1.5843171
2.2644436 -21.401001 -1.1278399
3.1507835 -29.82748 -0.52353728
0.76110107 -7.3150716 -1.9706483
0.86230034 -8.3017912 -1.9269307
5.3064737 -51.175011 2.6963489
1.1984254 -11.596916 -1.8465527
1.4320863 -13.905472 -1.716408
1.8460286 -17.986452 -1.5818768
2.1928511 -21.402431 -1.1275259
3.0413685 -29.786572 -0.52262974
9.1195803 -89.469925 24.097607
0.73606479 -7.3098669 -1.9685777
0.83448368 -8.3163843 -1.92963
0.83923662 -8.3784714 -1.6367596
1.1595066 -11.616753 -1.8490556
1.3819664 -13.894583 -1.7144581
1.7838134 -17.966698 -1.5796106
2.1183255 -21.411943 -1.1276306
0.71372098 -7.3450789 -1.9773775
0.80144483 -8.2628574 -1.9165829
4.9514751 -51.142353 2.69279
0.80753088 -8.3559456 -1.6317985
1.1158561 -11.567447 -1.8406081
1.3318955 -13.857594 -1.7093396
1.7222284 -17.984718 -1.5806565
2.0482585 -21.428791 -1.128154
2.7979805 -29.380579 -0.51516014
0.68717581 -7.3379087 -1.9747895
0.77314663 -8.2870827 -1.921532
4.7928834 -51.470387 2.7091188
0.79000694 -8.4838209 -1.6562221
1.0732704 -11.56949 -1.8402953
1.2918718 -13.979006 -1.7237202
1.6610482 -18.042492 -1.5851886
1.9644067 -21.378475 -1.1251185
2.7267323 -29.788908 -0.5221411
0.6601041 -7.3384538 -1.9742718
0.74386579 -8.2858486 -1.920632
4.6099849 -51.450993 2.7072346
0.7618804 -8.5199022 -1.6627097
1.0329617 -11.596958 -1.8440496
1.2495712 -14.05659 -1.7327385
1.5767967 -17.808041 -1.5640969
1.8858615 -21.383541 -1.1250138
2.6209788 -29.778326 -0.52179205
0.6339848 -7.334939 -1.9727188
0.71215445 -8.2729874 -1.9170328
0.84757668 -9.8663168 -1.9248812
0.99483025 -11.628048 -1.8484299
7.1202431 -83.396027 10.276999
1.2027631 -14.116458 -1.7395632
1.5198555 -17.874979 -1.5695007
1.7360514 -20.502394 -1.0783302
2.5264452 -29.89888 -0.52374673
0.60885686 -7.3428831 -1.9742718
0.68664539 -8.2986078 -1.9224317
0.81119686 -9.8457355 -1.9203018
0.95529598 -11.619471 -1.8465527
6.8275814 -83.22332 10.252869
1.1489794 -14.035294 -1.7290823
1.460528 -17.917904 -1.5728126
1.6829488 -20.691181 -1.0879599
2.413995 -29.807859 -0.5220015
0.58404356 -7.3390841 -1.9727188
0.6579802 -8.3048391 -1.9233315
0.77869833 -9.8503284 -1.9206835
0.9097693 -11.559716 -1.8365408
1.0917618 -13.934331 -1.7161642
1.4231513 -18.204706 -1.5975647
1.6686697 -21.441654 -1.1271073
2.3114753 -29.836039 -0.52235055
0.55754238 -7.3295207 -1.969613
0.62898767 -8.307085 -1.9233315
0.74430811 -9.8529863 -1.9206835
0.87311673 -11.612068 -1.8443626
1.0352629 -13.833139 -1.7032461
1.3612299 -18.231421 -1.5994822
1.5239509 -20.507233 -1.0777022
2.1963983 -29.696352 -0.51976758
0.53265303 -7.3410559 -1.9722012
0.60082954 -8.3208933 -1.9260309
0.70793635 -9.8281097 -1.9153408
0.83088118 -11.591402 -1.8406081
0.99646515 -13.935498 -1.715433
1.2992764 -18.259909 -1.6015739
1.4525012 -20.514421 -1.0778068
2.0167589 -28.554508 -0.4996624
0.50897306 -7.3524189 -1.9747895
0.57296503 -8.3189516 -1.9251312
0.67628276 -9.8441133 -1.918012
0.7923044 -11.592121 -1.8402953
5.6794772 -83.309547 10.252869
0.95591807 -14.021908 -1.7256701
1.2410105 -18.297911 -1.6045372
1.4468503 -21.44375 -1.1263746
1.9182972 -28.505177 -0.49868506
0.48268405 -7.3251505 -1.9670248
0.54524654 -8.318862 -1.9246813
0.64491624 -9.8658934 -1.9218283
0.75296158 -11.580887 -1.8381052
0.91170776 -14.098454 -1.7346883
1.181479 -18.31982 -1.606106
1.3790554 -21.500252 -1.129096
1.9056075 -29.872725 -0.52249014
0.45867518 -7.3518567 -1.9737542
0.51584369 -8.3148785 -1.9233315
0.60986745 -9.8582859 -1.9199202
0.71265447 -11.585417 -1.8384181
0.86527461 -14.147122 -1.7402943
1.1166763 -18.309912 -1.6048858
1.2431908 -20.502155 -1.0764461
1.7885641 -29.667612 -0.51879025
0.43221533 -7.3399134 -1.9701307
0.48749921 -8.3283014 -1.9260309
0.57396472 -9.8348761 -1.9149592
0.6702643 -11.554308 -1.8330992
0.81143147 -14.072766 -1.7307886
1.0518407 -18.297785 -1.6034913
1.1725308 -20.522324 -1.0772835
1.689301 -29.749538 -0.52011663
0.40562907 -7.3240166 -1.9654719
0.45960277 -8.3513565 -1.9309798
0.540061 -9.8446617 -1.9164857
0.62971288 -11.552633 -1.8324735
0.7586531 -14.00812 -1.7225015
0.98892921 -18.319248 -1.6050601
1.1438842 -21.328035 -1.1193615
1.5848097 -29.743273 -0.51990718
0.37996161 -7.3234591 -1.9649543
0.42924559 -8.3295555 -1.925581
0.50609708 -9.8543291 -1.918012
0.58877873 -11.542924 -1.8305963
0.71135747 -14.042402 -1.7264012
0.92618197 -18.346468 -1.6071519
1.0730305 -21.403709 -1.1231297
1.4885288 -29.900414 -0.52255994
0.35448879 -7.3266702 -1.9654719
0.40119559 -8.3524141 -1.9305301
0.47235268 -9.8697624 -1.9206835
0.54867131 -11.548854 -1.8312221
0.66626477 -14.128082 -1.7366383
0.86335033 -18.375462 -1.6094179
0.99551928 -21.347473 -1.1199896
1.3813769 -29.845499 -0.52151281
3.8756967 -84.054436 22.546246
0.32839185 -7.3162837 -1.9623661
0.37186414 -8.3498707 -1.92963
0.43763661 -9.865468 -1.9195386
0.50852841 -11.554647 -1.8318479
0.62153161 -14.235432 -1.7495564
0.7996372 -18.388317 -1.6102896
0.9431172 -21.863636 -1.1468903
1.2826619 -29.978004 -0.52374673
0.30317146 -7.3251057 -1.9644365
0.34343433 -8.3686419 -1.9336793
0.40343842 -9.8728199 -1.9206835
0.469791 -11.595826 -1.8381052
0.57661808 -14.356524 -1.7641808
0.73528534 -18.387012 -1.6099408
0.84551483 -21.329954 -1.1187335
1.1800481 -30.03425 -0.52465427
0.27759913 -7.3261199 -1.9644365
0.31590244 -8.4145784 -1.9440269
0.37058476 -9.9173298 -1.9290791
0.43084538 -11.63885 -1.8446754
0.52642787 -14.356465 -1.7639371
0.66993517 -18.357611 -1.6071519
0.76571518 -21.185074 -1.1109878
1.0769212 -30.086147 -0.52549195
0.2515603 -7.313529 -1.9608132
1.9174042 -56.028667 0.97855645
0.28639531 -8.4117346 -1.9431273
0.33623132 -9.9264116 -1.9306054
0.38392788 -11.452727 -1.8149529
0.47861439 -14.427655 -1.7724679
0.6068362 -18.389708 -1.6097666
0.69234675 -21.205584 -1.1119298
0.9685331 -29.985792 -0.52367687
0.22656751 -7.3317409 -1.9654719
0.25542411 -8.3600922 -1.9309798
0.30169976 -9.9314489 -1.9313688
0.34596503 -11.521132 -1.8255905
