# .PCD v0.7 - Point Cloud Data file format
VERSION 0.7
FIELDS x y z
SIZE 4 4 4
TYPE F F F
COUNT 1 1 1
WIDTH 1504
HEIGHT 1
VIEWPOINT 0 0 0 1 0 0 0
POINTS 1504
DATA ascii
-10.589541 9.6154842 -2.2654841
-14.299417 12.99323 -2.372309
-20.596466 18.721628 -2.4351313
-35.37653 32.178875 -2.5062644
-35.554581 32.352158 -0.83907682
-5.8955927 5.3815303 -2.1388805
-6.8786969 6.2811108 -2.150532
-8.3538427 7.6334562 -2.1996462
-10.572177 9.6638756 -2.2686129
-23.096674 21.119749 3.8427844
-14.288475 13.070054 -2.377671
-20.592712 18.849916 -2.4424527
-35.39336 32.409317 -2.5150571
-35.441429 32.476082 -0.83907682
-5.8748698 5.3984375 -2.1378453
-6.8696394 6.3169551 -2.1545811
-8.3357077 7.6677623 -2.2015543
-10.55582 9.7167759 -2.2723672
-23.087061 21.259409 3.8535089
-14.248608 13.125227 -2.3786461
-20.553158 18.945992 -2.44559
-34.64278 31.945055 -2.4696295
-35.386627 32.653839 -0.840473
-5.8479567 5.4133701 -2.135257
-6.8504071 6.3435445 -2.1554811
-8.3147497 7.7049332 -2.2034624
-10.528826 9.7634583 -2.2742445
-23.065117 21.388454 3.8622835
-14.240543 13.209985 -2.3849833
-20.542385 19.06913 -2.452214
-35.216145 32.713409 -2.5190346
-35.2402 32.747215 -0.83970511
-5.8346777 5.4390202 -2.1373277
-6.828536 6.3699398 -2.155931
-8.2992868 7.744626 -2.2065153
-10.500456 9.8055439 -2.275496
-14.215233 13.28378 -2.3888831
-20.507721 19.170649 -2.456049
-35.183418 32.912548 -2.5248961
-35.207455 32.946537 -0.84165972
-5.8311496 5.4738984 -2.1430218
-6.800271 6.3858786 -2.1536813
-8.2736311 7.7748957 -2.206897
-10.485152 9.8565474 -2.2792504
-14.194239 13.352609 -2.3927829
-20.458084 19.258503 -2.4581404
-35.172955 33.122147 -2.5320137
-35.220299 33.189919 -0.84473133
-5.8115621 5.4918766 -2.1425042
-6.7850189 6.4162726 -2.155931
-8.2634954 7.8171263 -2.2110946
-10.456421 9.8985205 -2.2805018
-14.167722 13.421185 -2.3961952
-20.448568 19.384632 -2.4651129
-35.170174 33.351913 -2.5401783
-35.214462 33.417282 -0.8473841
-5.7913933 5.5131416 -2.1425042
-6.771049 6.4479795 -2.1586304
-8.234786 7.8473635 -2.2110946
-10.431506 9.9476843 -2.2830048
-14.146641 13.495222 -2.4005826
-20.395195 19.469648 -2.466856
-35.117004 33.546825 -2.5452025
-35.19302 33.631172 -0.84968781
-5.7693248 5.5306487 -2.1414688
-6.7614312 6.4862456 -2.1631293
-8.2087593 7.877419 -2.2114763
-10.405268 9.9922466 -2.2848821
-14.110899 13.555522 -2.4025323
-20.381689 19.593191 -2.47348
-35.100456 33.766121 -2.5525296
-35.196449 33.870293 -0.85261989
-5.7592936 5.5577993 -2.1445746
-6.7370815 6.5059242 -2.1622295
-8.1981239 7.9196024 -2.2156742
-10.380596 10.034935 -2.2867594
-14.077286 13.613282 -2.4044824
-20.362419 19.705009 -2.479058
-35.114548 34.004601 -2.5617406
-35.150005 34.050827 -0.85422552
-5.7422171 5.5782132 -2.1450922
-6.7154698 6.5282297 -2.1622295
-8.174654 7.9522762 -2.216819
-10.361419 10.083079 -2.2898879
-14.06097 13.692802 -2.4098444
-20.31349 19.795435 -2.4814982
-35.101444 34.230152 -2.5694864
-35.125404 34.265476 -0.85652924
-5.7286372 5.6059785 -2.1476805
-6.7012448 6.5623422 -2.1653788
-8.1552658 7.9918051 -2.2194905
-10.332859 10.129283 -2.2917652
-14.019189 13.752591 -2.4113071
-20.27492 19.903252 -2.4856818
-35.092594 34.473339 -2.5780694
-35.142208 34.534149 -0.86001974
-5.710803 5.6296496 -2.1487157
-6.6757588 6.5854926 -2.1649289
-8.1315126 8.0243587 -2.2206352
-10.312528 10.183745 -2.2955196
-13.99652 13.826552 -2.4156942
-20.250662 20.018728 -2.4912598
-35.062908 34.685532 -2.5847683
-35.086826 34.72131 -0.86162531
-5.6770191 5.6335888 -2.1430218
-6.6663303 6.6199508 -2.168978
-8.1173935 8.0637331 -2.2240696
-10.284305 10.223458 -2.296771
-13.981559 13.903686 -2.4210565
-35.072243 34.925625 -2.5939796
-35.090496 34.95602 -0.86455733
-5.6733403 5.6674018 -2.1487157
-6.6429625 6.6406436 -2.1685281
-8.0947475 8.0975723 -2.2255962
-10.255932 10.263093 -2.2980225
-13.952579 13.972071 -2.424469
-16.325333 16.359556 -2.0220132
-35.029079 35.127045 -2.5998411
-35.106625 35.217075 -0.86797798
-5.6552534 5.6908984 -2.1497512
-6.6185789 6.6649466 -2.1685281
-8.0705462 8.132762 -2.2271228
-10.237723 10.320248 -2.3024027
-13.912455 14.034394 -2.426419
-16.240023 16.393803 -2.0188756
-35.006901 35.363068 -2.6077964
-35.064522 35.433643 -0.8701421
-5.6424975 5.7198396 -2.1528571
-6.6050515 6.7002611 -2.1721272
-8.0489502 8.1706791 -2.2294126
-10.213689 10.371777 -2.3055315
-13.874846 14.09944 -2.4288561
-32.715607 33.291634 -2.4461827
-35.026901 35.656071 -0.87244582
-5.618793 5.73772 -2.1518216
-6.5804482 6.7244263 -2.1721272
-8.0244389 8.205739 -2.2309389
-10.178368 10.411966 -2.3061571
-13.828625 14.155881 -2.4298313
-16.113844 16.506708 -2.0181785
-34.997772 35.876068 -2.6266372
-34.996494 35.887299 -0.87495893
-5.5909638 5.7432923 -2.1476805
-6.5713401 6.755095 -2.1757267
-8.008338 8.2351513 -2.232847
-10.158445 10.453453 -2.30866
-20.947056 21.562908 3.691179
-13.800391 14.21109 -2.4322684
-35.033733 36.114151 -2.6368952
-35.020702 36.125935 -0.87823999
-5.5846429 5.7790275 -2.1533747
-6.5463653 6.7765899 -2.1752765
-7.9903731 8.2771606 -2.2362814
-10.128289 10.499147 -2.3105373
-13.769995 14.279177 -2.4356809
-20.038366 20.793869 -2.5264707
-34.970406 36.314243 -2.6421287
-35.024746 36.383385 -0.88152105
-5.5604229 5.7943039 -2.1518216
-6.51474 6.7935066 -2.1730273
-7.9668655 8.3106709 -2.237808
-10.102513 10.545847 -2.3130403
-13.736782 14.349631 -2.4390934
-19.987705 20.886717 -2.5292594
-34.970425 36.568893 -2.6517584
-35.012741 36.638725 -0.88459265
-5.5508242 5.8248658 -2.1559627
-6.4950175 6.8204389 -2.174377
-7.9445763 8.34554 -2.2397161
-10.084702 10.601085 -2.3174205
-13.700288 14.411878 -2.4415305
-19.942125 20.985247 -2.5327458
-35.000256 36.882576 -0.88752472
-5.5370975 5.851223 -2.158551
-6.4832211 6.8558125 -2.178426
-7.9167442 8.3746481 -2.2400978
-10.072051 10.66207 -2.3230519
-13.655348 14.465387 -2.4425056
-19.890631 21.077915 -2.5355349
-34.93438 37.071468 -0.88913029
-5.5020866 5.8550301 -2.1528571
-6.4659214 6.8855028 -2.1806755
-7.8914943 8.4065266 -2.2412426
-10.042878 10.705811 -2.3249292
-13.637354 14.547724 -2.4483552
-19.865973 21.199562 -2.54181
-34.911346 37.307064 -0.89185286
-5.4895229 5.8826742 -2.1559627
-6.4458327 6.9123092 -2.1820252
-7.8714724 8.4440737 -2.2439139
-10.005448 10.740799 -2.3249292
-19.4562 20.89344 3.5054502
-13.618954 14.630107 -2.454205
-19.854288 21.335865 -2.5498283
-34.929031 37.574955 -0.89548296
-5.4702702 5.9032173 -2.1564806
-6.4202266 6.9307871 -2.1811254
-7.8526206 8.4830236 -2.2469668
-9.9912424 10.797117 -2.3299353
-19.448814 21.024879 3.5166621
-13.605404 14.713082 -2.4605422
-19.801329 21.428455 -2.5526173
-34.919731 37.828892 -0.89862442
-5.4663634 5.9383802 -2.1626918
-6.398633 6.9560242 -2.1820252
-7.8297615 8.5147972 -2.2484932
-9.98557 10.866836 -2.3374441
-19.434399 21.15696 3.5273867
-13.685539 14.903781 -2.4844286
-19.743631 21.508678 -2.5543604
-34.895569 38.068485 -0.90141678
-5.4469056 5.9588523 -2.1632097
-6.3835144 6.9883881 -2.1851747
-7.8026381 8.5449762 -2.2492564
-9.9582291 10.913301 -2.339947
-19.56912 21.453459 3.5654097
-13.700307 15.024802 -2.4966154
-19.722118 21.636362 -2.5613329
-34.872849 38.311321 -0.90427899
-5.4221764 5.9735374 -2.1616566
-6.3616991 7.0135145 -2.1860743
-7.778038 8.5779781 -2.250783
-9.893548 10.918716 -2.3336897
-13.682419 15.110793 -2.5029526
-19.68124 21.743475 -2.565865
-34.818043 38.506844 -0.90616381
-5.3999987 5.990993 -2.161139
-6.3488417 7.0461545 -2.1896734
-7.7638102 8.6225863 -2.2553625
-9.8665361 10.961742 -2.3358798
-13.650821 15.176747 -2.5063653
-19.623867 21.83279 -2.5683055
-34.838383 38.800758 -0.91021281
-5.3788142 6.0074272 -2.1606214
-6.3229079 7.0668211 -2.1892235
-7.7443352 8.6585283 -2.2580338
-9.85849 11.029991 -2.3430758
-13.560738 15.182847 -2.4995403
-19.555492 21.910084 -2.5693512
-34.811852 39.044521 -0.91307497
-5.3593249 6.0299902 -2.1616566
-6.2994976 7.0903044 -2.1896734
-7.7138534 8.6883211 -2.2584155
-9.8258619 11.074916 -2.3449528
-13.473409 15.191476 -2.4932032
-19.478897 21.978205 -2.5693512
-34.778751 39.282578 -0.91579759
-5.3471932 6.0587993 -2.1652801
-6.285068 7.1265016 -2.1937227
-7.6821804 8.7137222 -2.2580338
-9.8158703 11.141756 -2.351836
-13.391405 15.210958 -2.4883285
-19.420488 22.067007 -2.5717916
-34.818432 39.591152 -2.7631295
-34.748055 39.538971 -0.9187994
-5.3298316 6.0817866 -2.1668332
-6.2678561 7.1571932 -2.1964221
-7.6607714 8.750824 -2.260705
-9.7691154 11.167032 -2.3499587
-13.317323 15.233699 -2.4844286
-19.374805 22.170668 -2.5759752
-34.787746 39.835812 -2.7717125
-34.722908 39.789585 -0.92180121
-5.314908 6.1076412 -2.1694212
-6.2377214 7.1731453 -2.1946225
-7.6456318 8.7952938 -2.2652845
-9.753396 11.227905 -2.3555903
-13.240642 15.253108 -2.4800413
-19.365206 22.31641 -2.5850394
-34.72699 40.047539 -2.7779927
-34.725239 40.073769 -0.92557096
-5.2973456 6.1305428 -2.1709743
-6.2151895 7.1978273 -2.1955223
-7.6212983 8.82936 -2.2671926
-9.7193012 11.26787 -2.356842
-13.189909 15.302241 -2.4805288
-19.3262 22.429157 -2.5902686
-34.670391 40.265381 -2.7846918
-34.697304 40.325096 -0.92857271
-5.2847209 6.1592584 -2.1745977
-6.1951022 7.2253947 -2.1973219
-7.5968213 8.8633604 -2.2691007
-9.6927624 11.316727 -2.3599706
-13.146736 15.360259 -2.4824786
-19.297014 22.554005 -2.5968924
-34.704426 40.619278 -0.93255186
-5.2631903 6.1776667 -2.1745977
-6.1723671 7.2499442 -2.1982217
-7.5658374 8.889823 -2.2691007
-9.6634359 11.362534 -2.3624737
-13.113611 15.430255 -2.4863784
-19.259439 22.669819 -2.6024704
-5.2353535 6.1886277 -2.1720095
-6.1570888 7.2833505 -2.2018209
-7.5423617 8.9251776 -2.2713904
-9.6339121 11.408268 -2.3649766
-13.059672 15.475933 -2.4863784
-19.226444 22.791731 -2.6087456
-34.640755 41.09351 -2.8167214
-34.682823 41.172569 -0.93967247
-5.2199306 6.214263 -2.1745977
-6.1416526 7.3167377 -2.2054203
-7.5174685 8.9589729 -2.2732985
-9.5965719 11.444853 -2.3656023
-12.990268 15.503169 -2.4834535
-19.174921 22.892303 -2.6125805
-34.63554 41.379601 -2.8280261
-34.63895 41.413033 -0.94239503
-5.1994457 6.2339277 -2.1751153
-6.1098347 7.3306489 -2.2031708
-7.4987187 9.0002413 -2.2771149
-9.5767841 11.502573 -2.3706081
-12.910686 15.517899 -2.478579
-19.125465 22.995865 -2.6167641
-34.573399 41.629063 -0.94455916
-5.1813517 6.2565022 -2.1766684
-6.091661 7.3609405 -2.2058702
-7.4660063 9.0248461 -2.2767329
-9.5466404 11.548115 -2.3731112
-12.82862 15.529204 -2.4732165
-19.060295 23.080927 -2.6188557
-31.043182 37.618252 -2.5560884
-34.572922 41.925365 -0.9485383
-5.1557975 6.2700748 -2.1751153
-6.0733542 7.3911924 -2.2085695
-7.4357028 9.0523729 -2.2771149
-9.5112867 11.587473 -2.3743625
-12.756713 15.5524 -2.4698043
-19.020042 23.196619 -2.6244338
-30.843332 37.642952 -2.550436
-34.540367 42.185051 -0.95167971
-5.1412125 6.2970119 -2.1782212
-6.053678 7.4198952 -2.2108188
-7.4127464 9.0889215 -2.2797861
-9.4857588 11.638976 -2.3781171
-12.684801 15.575283 -2.466392
-19.00437 23.343208 -2.633498
-34.566971 42.519497 -0.9564966
-5.1191983 6.3149209 -2.1782212
-6.0191526 7.4303827 -2.2076695
-7.3920918 9.1284742 -2.2832205
-9.4500418 11.678163 -2.3793685
-12.622863 15.610208 -2.4649296
-17.587601 21.757673 -2.4476819
-12.445947 15.413419 -0.34580198
-5.1068153 6.34479 -2.1823623
-12.438022 15.453199 0.34625572
-6.005476 7.4639673 -2.2117188
-7.3651056 9.1603413 -2.2847471
-9.416214 11.715591 -2.38062
-12.551141 15.627213 -2.4610295
-17.521526 21.831358 -2.4490762
-34.546124 43.058956 -2.893132
-12.427095 15.500453 -0.34677932
-5.0905709 6.3677273 -2.184433
-12.425198 15.548076 0.34740758
-5.9830356 7.48945 -2.2130685
-7.3408103 9.1923857 -2.2866549
-9.3875866 11.763827 -2.3837488
-12.484137 15.655415 -2.4585924
-17.466417 21.911161 -2.4515169
-12.440394 15.622924 -0.34859437
-5.0671129 6.383944 -2.1839154
-12.429516 15.659673 0.34897831
-5.967854 7.5214634 -2.2166677
-7.3159986 9.2271824 -2.2889447
-9.3607912 11.810376 -2.3868773
-16.879009 21.303642 3.3372703
-12.412435 15.671826 -2.4546924
-17.367573 21.943871 -2.448379
-34.532299 43.647091 -2.9167879
-12.431675 15.724292 -0.34988585
-5.0411286 6.3946443 -2.1818447
-12.430479 15.773641 0.35054904
-5.9463887 7.5483718 -2.2184672
-7.2926455 9.2606497 -2.2912345
-9.3268394 11.852292 -2.3887546
-16.804537 21.362434 3.3372703
-12.35275 15.708814 -2.4537175
-17.302092 22.010746 -2.449425
-12.423626 15.827368 -0.35121223
-5.0211592 6.4152431 -2.1828799
-12.427094 15.883085 0.35201502
-5.9212027 7.5706191 -2.2189171
-12.488836 15.973485 1.0626293
-7.2651148 9.2922344 -2.2927611
-9.2927046 11.894118 -2.3906317
-16.668777 21.342737 3.3250833
-12.278291 15.726806 -2.4498179
-13.939973 17.861616 -1.9822702
-13.948141 17.884951 -1.1886544
-12.428536 15.947921 -0.35292256
-5.0082202 6.4449348 -2.187021
-12.420648 15.989533 0.35341126
-5.8887653 7.5835443 -2.2166677
-12.408513 15.985426 1.060536
-7.2434707 9.3314943 -2.2961955
-9.2632399 11.942091 -2.3937604
-16.492002 21.269014 3.3046093
-12.208721 15.750745 -2.446893
-13.859776 17.893686 -1.9801785
-4.9892817 6.469367 -2.1890914
-12.428256 16.115135 0.35522628
-5.8741541 7.6194892 -2.2211666
-12.328249 15.997005 1.0584425
-7.2104163 9.3595371 -2.2965772
-9.224225 11.982225 -2.3950119
-16.2675 21.131409 3.2743859
-12.124614 15.755506 -2.4410431
-12.393212 16.116175 -1.7786744
-12.405694 16.144064 -1.0670255
-12.39486 16.135794 -0.35515645
-4.9666705 6.4867425 -2.1890914
-5.8497424 7.6456094 -2.2225163
-12.301085 16.083326 1.0611639
-7.1777034 9.3846474 -2.2965772
-16.193954 21.180805 2.3326364
-9.1895428 12.023767 -2.3968892
-16.175484 21.171955 3.271461
-12.042693 15.768285 -2.4361684
-13.705501 17.952002 -1.9759949
-13.70364 17.962563 -1.1840488
-13.715292 17.990852 -0.39487815
-4.9404883 6.4994273 -2.1875386
-13.728151 18.066507 0.39606491
-5.8336253 7.6799507 -2.2265656
-12.24728 16.129353 1.0613732
-7.1532092 9.4205923 -2.2992485
-16.054876 21.151503 2.3232236
-9.1522884 12.062067 -2.3981407
-16.084681 21.206152 3.2680488
-11.965983 15.781754 -2.4317811
-13.546469 17.872709 -1.9620501
-13.556441 17.898842 -1.1767218
-13.563101 17.920628 -0.39229518
-4.9270825 6.5289688 -2.1916797
-13.527711 17.932331 0.39208576
-5.8044362 7.6971531 -2.2256656
-12.253857 16.249607 1.0666069
-7.1332836 9.4627476 -2.3034463
-15.949766 21.166048 2.3186915
-9.1243935 12.112874 -2.401895
-15.912645 21.13213 3.2480619
-11.901277 15.810738 -2.4298313
-13.428899 17.846651 -1.9540318
-13.426667 17.856655 -1.1708602
-13.436319 17.875988 -0.39034054
-4.9077377 6.5507646 -2.1932325
-13.407026 17.89547 0.39030561
-5.7847185 7.7241607 -2.2279153
-7.1107969 9.5017338 -2.3068807
-15.928294 21.291794 2.3263609
-9.0960054 12.158883 -2.4050238
-15.887661 21.245188 3.257324
-11.829758 15.82468 -2.4259312
-13.336712 17.853508 -1.9496739
-13.326742 17.846674 -1.1673013
-13.330791 17.865082 -0.38908395
-4.8929048 6.5763044 -2.1963384
-13.311058 17.897236 0.38932827
-5.7600479 7.7474322 -2.2288151
-7.0733914 9.5173864 -2.3049729
-9.0582209 12.196902 -2.4062753
-15.896231 21.412094 3.2743859
-11.74606 15.82762 -2.4200816
-13.23989 17.853548 -1.9446188
-13.240582 17.860994 -1.1652079
-13.240968 17.874552 -0.38828114
-4.8710656 6.5973015 -2.1973739
-13.216437 17.900154 0.38838586
-5.7387571 7.7753291 -2.2310646
-7.0477858 9.5558863 -2.3080258
-9.0298605 12.252286 -2.4106555
-15.889692 21.560139 3.2885227
-11.671904 15.842949 -2.4161818
-13.130236 17.83548 -1.9376464
-13.124139 17.840219 -1.160707
-13.13347 17.859447 -0.38695475
-4.8468633 6.6127076 -2.1968563
-13.099916 17.879116 0.38688496
-5.7159762 7.8041735 -2.233314
-7.0190239 9.5867682 -2.3095522
-8.9917049 12.290106 -2.411907
-11.592666 15.85678 -2.4117944
-13.025581 17.823292 -1.9313713
-13.037045 17.852055 -1.1585089
-13.033321 17.853498 -0.38583782
-4.8282981 6.6358323 -2.1989267
-13.002911 17.870714 0.38576803
-5.6935053 7.8278108 -2.2346637
-6.9889812 9.6159725 -2.3106971
-8.9555407 12.32625 -2.4131584
-11.514363 15.859793 -2.4064322
-12.930532 17.823492 -1.9264905
-12.934393 17.835361 -1.1546359
-12.946283 17.864878 -0.38510481
-4.8096595 6.656507 -2.2004797
-12.895961 17.854389 0.38444161
-5.6650033 7.8460593 -2.2342138
-6.9662442 9.6518335 -2.31375
-8.9217062 12.370252 -2.4156613
-11.447323 15.883788 -2.403995
-12.839906 17.82263 -1.921784
-12.833544 17.826916 -1.1511818
-12.846472 17.858017 -0.38398784
-4.7875214 6.6748238 -2.2009974
-12.810249 17.866796 0.38374352
-5.6432586 7.8737044 -2.2364633
-6.939373 9.6856661 -2.3160398
-8.8922729 12.420591 -2.4194157
-11.354852 15.871984 -2.3961952
-14.883924 20.812649 4.0525918
-12.737056 17.810617 -1.9156833
-12.732922 17.817978 -1.1477276
-12.739893 17.840914 -0.38266146
-4.7664351 6.6946402 -2.2020326
-12.706058 17.852757 0.38248694
-5.6191316 7.8981185 -2.2378132
-6.8998294 9.7018318 -2.3141315
-8.8488598 12.451558 -2.4194157
-11.278686 15.882393 -2.391808
-12.640203 17.806232 -1.9104539
-12.638288 17.816706 -1.1447968
-12.63707 17.828175 -0.38143981
-4.7430358 6.7112389 -2.2020326
-12.615974 17.857801 0.38164926
-5.5960217 7.9240532 -2.2396126
-6.8738499 9.7370834 -2.316803
-8.8098993 12.488825 -2.4206672
-11.211743 15.905438 -2.3893704
-12.529774 17.781839 -1.9031327
-12.548426 17.821516 -1.1422846
-12.544847 17.829653 -0.38053226
-4.72402 6.7340803 -2.2041032
-12.514529 17.846058 0.38046247
-5.5694437 7.9451356 -2.2400625
-6.8567162 9.7851372 -2.3225272
-8.7707806 12.525975 -2.4219186
-11.162986 15.954234 -2.3908329
-12.434507 17.778126 -1.8980778
-12.441522 17.801363 -1.1382025
-12.4436 17.817596 -0.37934554
-4.7037945 6.7552857 -2.2056561
-12.414456 17.835478 0.37931061
-5.5472436 7.9725256 -2.2423122
-6.815794 9.7993402 -2.3202376
-8.7405338 12.575978 -2.425673
-11.104959 15.989844 -2.3903453
-12.354198 17.795231 -1.8952887
-12.348566 17.800379 -1.1353763
-12.356268 17.824764 -0.37857762
-4.6966619 6.7955008 -2.2134204
-12.329384 17.845802 0.37861249
-5.519382 7.9918394 -2.2423122
-6.7882409 9.8327646 -2.3225272
-8.7055588 12.619418 -2.4281759
-11.046819 16.025246 -2.389858
-12.266006 17.80051 -1.8912796
-12.252369 17.794027 -1.1322361
-12.256562 17.813427 -0.37742576
-4.6674504 6.8038888 -2.2108324
-12.231961 17.837605 0.37753049
-5.4980597 8.0207024 -2.2450116
-6.7660809 9.8742161 -2.326725
-8.668149 12.659511 -2.4300532
-10.999784 16.076813 -2.391808
-12.154304 17.770863 -1.8836099
-12.158632 17.790516 -1.1293054
-12.158223 17.803253 -0.37630877
-4.6414957 6.816947 -2.2097969
-12.133621 17.82729 0.37641349
-5.4722233 8.043067 -2.2459114
-6.7337828 9.9010201 -2.3274884
-8.6283493 12.696225 -2.4313047
-10.948062 16.121677 -2.3927829
-12.051906 17.753839 -1.8773347
-12.058339 17.776648 -1.1257465
-12.066569 17.795481 -0.37529656
-4.6209149 6.8379102 -2.21135
-12.031884 17.80447 0.37508711
-5.4509735 8.0692444 -2.2481608
-6.7046695 9.9326019 -2.3293962
-8.5906162 12.73132 -2.4325564
-10.894536 16.157898 -2.3927829
-11.955353 17.744576 -1.871931
-11.963618 17.763531 -1.1223971
-11.972004 17.789379 -0.37428433
-4.5982156 6.8531957 -2.21135
-11.940704 17.803179 0.3741796
-5.4162631 8.0785093 -2.2454615
-6.6738834 9.9580421 -2.3301597
-8.5615149 12.784206 -2.4369364
-10.835864 16.192528 -2.3922954
-11.870969 17.746033 -1.8679218
-11.863805 17.748724 -1.1188382
-11.884292 17.792812 -0.37348151
-4.580688 6.8788533 -2.2144558
-11.854115 17.808128 0.37341172
-5.3988252 8.1135931 -2.2499604
-6.6445155 9.9894524 -2.3320675
-8.5212078 12.820597 -2.4381878
-10.774886 16.223637 -2.3913205
-11.776989 17.739227 -1.8628668
-11.778596 17.755074 -1.1166401
-11.792274 17.78919 -0.37253907
-4.5577149 6.8964114 -2.2149734
-11.756603 17.796009 0.37229472
-5.376915 8.1421442 -2.25266
-6.6182613 10.025691 -2.3351207
-8.4872828 12.866751 -2.4413166
-10.724739 16.271095 -2.3927829
-11.688691 17.740295 -1.8586832
-11.691281 17.757717 -1.1142327
-11.694745 17.76973 -0.37131742
-4.5357347 6.9155087 -2.2160087
-11.674497 17.79978 0.37156174
-5.3573623 8.171339 -2.2558093
-6.5864544 10.053658 -2.3362653
-8.4532232 12.908048 -2.4438195
-10.681597 16.323179 -2.3952203
-11.586354 17.719288 -1.8522338
-11.596266 17.741222 -1.1107785
-11.599845 17.760216 -0.37027025
-4.5138297 6.9321318 -2.2165263
-11.576289 17.78512 0.37040988
-5.3288083 8.1899891 -2.2558093
-6.5605693 10.086966 -2.3389368
-8.4059639 12.934161 -2.4431939
-10.628874 16.367027 -2.3961952
-11.499483 17.721188 -1.8482246
-11.501662 17.731323 -1.1076384
-11.510584 17.758648 -0.36939764
-4.4904904 6.9518747 -2.2175617
-11.490272 17.788465 0.36964196
-5.3001895 8.208539 -2.2558093
-6.5342002 10.127439 -2.3427529
-8.3692083 12.981484 -2.4463224
-10.56738 16.397352 -2.3952203
-11.41166 17.72102 -1.8440411
-11.40526 17.724649 -1.1046028
-11.427965 17.766769 -0.36873442
-4.4703636 6.9740133 -2.2196321
-11.395863 17.785002 0.36869955
-5.2763729 8.2377577 -2.2585087
-6.5030408 10.156801 -2.3442793
-8.3430023 13.040574 -2.4519541
-10.505066 16.432631 -2.394733
-11.321842 17.717093 -1.839509
-11.318592 17.725639 -1.1021954
-11.327279 17.752901 -0.36758259
-4.4491048 6.9944644 -2.2211852
-11.296164 17.76561 0.36747789
-5.2496777 8.2594137 -2.2594085
-6.4643908 10.174467 -2.3431346
-8.299551 13.07295 -2.4525797
-10.445511 16.465851 -2.3942454
-11.226856 17.704342 -1.8341054
-11.229918 17.722864 -1.0995785
-11.231013 17.738266 -0.36646563
-4.419508 7.0017829 -2.2185969
-11.212734 17.771111 0.36677977
-5.2280893 8.2892275 -2.2625577
-6.4382615 10.211915 -2.3465691
-8.2707109 13.128585 -2.4575858
-10.394319 16.512289 -2.3957078
-11.131029 17.689466 -1.8285275
-11.144602 17.724758 -1.0972759
-11.144555 17.73842 -0.36566284
-4.3991408 7.0237174 -2.2206676
-11.127291 17.772852 0.36601186
-5.2032599 8.3140335 -2.2643573
-6.4088206 10.244315 -2.3488588
-8.2269297 13.160724 -2.4582114
-10.342929 16.558571 -2.3971701
-11.048112 17.694408 -1.8250412
-11.054122 17.717796 -1.0944496
-11.050835 17.726301 -0.36461568
-4.3847914 7.0554395 -2.2258439
-11.0272 17.750433 0.3647553
-5.1731801 8.3304882 -2.2639074
-6.3833742 10.283305 -2.3526752
-8.1788607 13.186003 -2.4575858
-10.285069 16.594572 -2.3971701
-10.961091 17.692219 -1.8208576
-10.960665 17.705332 -1.0913094
-10.969952 17.734161 -0.36398739
-4.3621659 7.0739899 -2.2268791
-10.94418 17.754774 0.36405718
-5.1471348 8.3534737 -2.2652571
-6.3484716 10.307195 -2.3530567
-8.1534872 13.248118 -2.4638431
-10.229157 16.633759 -2.3976579
-10.875273 17.691332 -1.8168485
-10.869529 17.695829 -1.0883787
-10.878695 17.724623 -0.36301005
-4.3364401 7.0875249 -2.2263615
-10.8571 17.751923 0.36321947
-5.1260772 8.3846893 -2.2688563
-6.317575 10.337667 -2.3549647
-8.1174841 13.293361 -2.4669719
-10.171029 16.669367 -2.3976579
-10.782325 17.678162 -1.8116193
-10.776505 17.682503 -1.0852385
-10.785561 17.71125 -0.36196291
-4.3156819 7.1092257 -2.2284322
-10.766019 17.74185 0.36224213
-5.1008191 8.4091978 -2.2706561
-6.2885742 10.37141 -2.3576362
-8.073082 13.324993 -2.4675977
-10.121006 16.718349 -2.3996074
-10.694765 17.673073 -1.8072613
-10.690952 17.6807 -1.082831
-10.705052 17.717983 -0.36133462
-4.295825 7.1325212 -2.2310205
-10.674114 17.729637 0.36122993
-5.0714359 8.4269514 -2.2706561
-6.2634621 10.411804 -2.3618338
-8.032629 13.363249 -2.4694748
-10.074856 16.773996 -2.4025323
-10.608401 17.6693 -1.8030781
-10.605542 17.678516 -1.0804236
-10.619503 17.708794 -0.36042708
-4.2679262 7.1424975 -2.2294674
-10.584485 17.71344 0.36018276
-5.0474582 8.4504147 -2.2724555
-6.2260761 10.431917 -2.3614521
-7.9983869 13.406777 -2.4726036
-9.9988432 16.773216 -2.3976579
-10.518106 17.658297 -1.7981973
-10.51722 17.663824 -1.077388
-10.531034 17.701077 -0.35951957
-4.2540736 7.1732278 -2.2346439
-10.510357 17.729635 0.35976389
-5.0228992 8.4763651 -2.2747052
-6.1984544 10.46433 -2.3641236
-7.9515433 13.434613 -2.4726036
-9.9503393 16.825096 -2.400095
-10.440229 17.66049 -1.7948854
-10.431125 17.659155 -1.074876
-10.442759 17.692951 -0.35861203
-4.2280269 7.1863685 -2.2341261
-10.421039 17.719675 0.35882148
-4.9972329 8.5005655 -2.2765048
-6.1628809 10.487596 -2.3645051
-7.9225993 13.492952 -2.478235
-9.8915434 16.859732 -2.400095
-10.349284 17.646986 -1.7898303
-10.347198 17.657551 -1.0725732
-10.352639 17.680981 -0.35763472
-4.1980481 7.1927404 -2.2315381
-10.330901 17.707584 0.35784414
-4.9675274 8.5179586 -2.2765048
-6.1321697 10.51922 -2.3667948
-7.8814201 13.530766 -2.4801123
-9.8426208 16.911312 -2.4025323
-10.24755 17.614117 -1.7828579
-10.264425 17.657299 -1.0703751
-10.267761 17.677238 -0.35683191
-4.1796927 7.2190528 -2.2351615
-10.238981 17.691612 0.35679698
-4.9416652 8.541995 -2.2783043
-6.1062264 10.559256 -2.3709927
-7.8380904 13.565038 -2.4813638
-9.8033772 16.979952 -2.4074073
-10.181019 17.641155 -1.7819862
-10.179774 17.653229 -1.0679675
-10.185033 17.676584 -0.35609892
-4.1621633 7.2470012 -2.2393024
-10.158242 17.694298 0.35613379
-4.9127893 8.5608807 -2.278754
-6.0781193 10.595834 -2.3744273
-7.7926598 13.595741 -2.4819896
-9.7381306 17.003731 -2.4059448
-10.093645 17.631628 -1.7774541
-10.093303 17.645311 -1.0653508
-10.097464 17.666891 -0.35519138
-4.138752 7.2648444 -2.2403376
-10.073659 17.689678 0.355331
-4.8876982 8.5864449 -2.2810037
-6.0313845 10.599924 -2.3706112
-7.760778 13.650334 -2.4869955
-9.6904869 17.058329 -2.4088695
-10.014333 17.635567 -1.7743167
-10.005038 17.633532 -1.0625247
-10.014032 17.663761 -0.35442346
-4.1086173 7.2708373 -2.2377496
-9.9882412 17.682951 0.35449326
-4.8557782 8.6000614 -2.2801039
-5.9933839 10.619203 -2.3702295
-7.7189002 13.687667 -2.4888725
-9.6347761 17.098972 -2.4098444
-9.9106627 17.59577 -1.7668213
-9.9248104 17.635283 -1.060536
-9.9258528 17.651546 -0.35348105
-4.0822687 7.2834473 -2.2372317
-9.8981152 17.667114 0.35348105
-4.8371572 8.6373615 -2.2855027
-5.9610767 10.648623 -2.3721375
-7.6768637 13.72487 -2.4907498
-9.576972 17.135963 -2.4103322
-9.8336382 17.602427 -1.7640322
-9.8417692 17.631453 -1.0582331
-9.8456736 17.652903 -0.35281786
-4.0624499 7.3077855 -2.2403376
-9.8140488 17.661354 0.35267821
-4.8069754 8.6541948 -2.2855027
-5.9372091 10.693398 -2.3774803
-7.6346536 13.76195 -2.4926271
-9.5297155 17.18499 -2.4127693
-9.7528172 17.601793 -1.760546
-9.7579184 17.625507 -1.0558257
-9.7667418 17.648714 -0.35208488
-4.0437942 7.3313656 -2.2434435
-9.7438354 17.672787 0.35225937
-4.7754302 8.6649656 -2.284153
-5.9102435 10.728501 -2.3809147
-7.602314 13.811418 -2.4970071
-9.468852 17.209538 -2.4117944
-9.6828794 17.613085 -1.7584542
-9.6686487 17.601749 -1.0524762
-9.6792927 17.628418 -0.35103768
-4.0213132 7.3481259 -2.2444789
-9.6583099 17.65588 0.35128203
-4.7569518 8.699564 -2.2891018
-5.8812227 10.760103 -2.3835862
-7.5602551 13.84349 -2.4982588
-9.4144297 17.252939 -2.4132569
-9.601305 17.610043 -1.7547936
-9.5968494 17.609161 -1.0510107
-9.6033506 17.635756 -0.35051414
-3.9952762 7.3645124 -2.2449965
-9.5851727 17.668396 0.35086316
-4.7265577 8.716115 -2.2891018
-5.8398771 10.778133 -2.382823
-7.5188732 13.888475 -2.5013874
-9.3617029 17.299667 -2.4152069
-9.5208282 17.608397 -1.7513075
-9.5123043 17.607319 -1.0488126
-9.5170307 17.623423 -0.34960663
-3.9704587 7.380116 -2.2455142
-9.4900475 17.647049 0.34974623
-4.7019629 8.7471104 -2.2927012
-5.8068619 10.8071 -2.3847308
-7.4759564 13.925077 -2.5032647
-9.2926073 17.323366 -2.4137444
-9.4291811 17.585333 -1.7457294
-9.4309816 17.603443 -1.0466145
-9.4316063 17.6194 -0.34883869
-3.9483116 7.4007468 -2.2475846
-9.4086246 17.643017 0.34901324
-4.6704822 8.7617512 -2.2922513
-5.7774138 10.842896 -2.3881655
-7.4384389 13.972014 -2.507019
-9.2488565 17.387245 -2.4181318
-9.339674 17.565369 -1.7405002
-9.346983 17.593925 -1.0441024
-9.3531742 17.620422 -0.34821042
-3.9233594 7.4161921 -2.2481024
-9.3245506 17.633324 0.3481755
-4.6380501 8.7745552 -2.2913516
-5.7432008 10.86994 -2.3896918
-7.3933144 14.00488 -2.5082705
-9.1881113 17.419422 -2.4181318
-9.2606497 17.564373 -1.7371882
-9.2603741 17.578739 -1.0412763
-9.2692604 17.610493 -0.34737271
-3.9028304 7.4401064 -2.2512081
-9.2471514 17.63566 0.34758213
-4.6110086 8.797596 -2.2931509
-5.7070422 10.893401 -2.3904552
-7.3462114 14.034103 -2.5088961
-9.1272449 17.451391 -2.4181318
-9.1780472 17.555984 -1.7331791
-9.184164 17.58263 -1.0396016
-9.1929235 17.614378 -0.34681424
-3.8777289 7.4553976 -2.2517259
-9.1670904 17.632343 0.34688404
-4.5883608 8.8291998 -2.2972002
-5.6726046 10.920223 -2.3919816
-7.3099208 14.084206 -2.5132763
-9.0735884 17.497242 -2.4200816
-9.1047935 17.564917 -1.730913
-9.1052847 17.580881 -1.0376127
-9.1050463 17.587936 -0.34569725
-3.8507934 7.4671717 -2.2512081
-9.0920658 17.630657 0.34625572
-4.5626259 8.8512964 -2.2989998
-5.6380444 10.946941 -2.3935082
-7.2649808 14.111885 -2.5139022
-9.0173264 17.530766 -2.4205692
-9.0197506 17.550516 -1.7263809
-9.0314159 17.580782 -1.0358334
-9.0308094 17.594709 -0.34520859
-3.8286514 7.4850607 -2.2527611
-9.0013418 17.60531 0.34513879
-4.5352507 8.8741093 -2.3007994
-5.612432 10.986557 -2.3980875
-7.2210679 14.147713 -2.5157793
-8.9723129 17.593964 -2.4249563
-8.9479246 17.553709 -1.7237663
-8.952774 17.578384 -1.0338446
-8.9524574 17.58535 -0.34444067
-3.8068666 7.5069947 -2.2553494
-8.9293385 17.608313 0.34461522
-4.5031567 8.8838835 -2.2994497
-5.5740447 11.006083 -2.3980875
-7.1759 14.175105 -2.5164051
-8.9103317 17.616537 -2.4239814
-8.8740177 17.559938 -1.7213258
-8.8710136 17.561626 -1.0311232
-8.8802023 17.595076 -0.34402186
-3.7854249 7.5264797 -2.2574198
-8.8498611 17.603642 0.34391713
-4.475616 8.9065151 -2.3012493
-5.5419245 11.033277 -2.3999958
-7.1458654 14.238911 -2.5232882
-8.8523474 17.654631 -2.4249563
-8.7992773 17.564089 -1.7187113
-8.7917757 17.556765 -1.0290296
-8.8008385 17.590195 -0.34332374
-3.7526453 7.5299282 -2.2543139
-8.7669544 17.591469 0.34307942
-4.4479771 8.92906 -2.3030491
-5.5023251 11.055271 -2.4003773
-7.107698 14.293308 -2.5282941
-8.79774 17.699642 -2.4269063
-8.7157536 17.550087 -1.7143533
-8.7113848 17.556669 -1.0271456
-8.7189436 17.579609 -0.34252095
-3.7280476 7.5464473 -2.2553494
-8.6873636 17.593004 0.34248602
-4.4178061 8.9505463 -2.3043985
-5.465436 11.077932 -2.4011405
-7.0804725 14.364096 -2.5364287
-8.7328043 17.731771 -2.4269063
-8.6324444 17.535715 -1.7099956
-8.635066 17.556501 -1.0253662
-8.6310625 17.556097 -0.34147376
-3.7025342 7.5611486 -2.255867
-8.6113911 17.585796 0.34178793
-4.3915296 8.9721479 -2.3061984
-5.4319105 11.107524 -2.4034302
-7.0657687 14.454935 -2.5483177
-8.6826611 17.778473 -2.4293437
-8.5493422 17.520975 -1.7056379
-8.5522795 17.534779 -1.0224353
-8.5548391 17.555557 -0.34088042
-3.6867239 7.5925007 -2.2615609
-8.5263729 17.567179 0.3408455
-4.3559284 8.9786577 -2.3039486
-5.407042 11.150207 -2.4087729
-7.0342135 14.518623 -2.5552011
-8.6153641 17.797949 -2.4278812
-8.4825106 17.531296 -1.7038947
-8.4753761 17.532156 -1.0205512
-8.4813271 17.560106 -0.34039176
-3.6576831 7.6001015 -2.2600081
-8.4589357 17.584217 0.34060118
-4.3296294 9.004344 -2.3066483
-5.366384 11.165475 -2.4080098
-7.0057263 14.589386 -2.5633357
-8.5600586 17.842232 -2.4298313
-8.4074821 17.532051 -1.7011058
-8.3994589 17.531012 -1.0187719
-8.4070311 17.562546 -0.33986816
-3.635288 7.6215425 -2.2625961
-8.3768454 17.57032 0.33976343
-4.3032036 9.0299568 -2.3093476
-5.3256845 11.180595 -2.4072464
-6.9717374 14.649424 -2.5695927
-8.5045395 17.886345 -2.4317811
-8.3274126 17.521706 -1.6972709
-8.3245001 17.531359 -1.017097
-8.318243 17.533974 -0.33875123
-3.6045351 7.625452 -2.2600081
-8.2966728 17.559675 0.33899555
-4.2733188 9.0484476 -2.3102474
-5.2975216 11.222197 -2.4122074
-6.9205546 14.673672 -2.5695927
-8.4454412 17.923105 -2.4327562
-8.2466784 17.509209 -1.6932617
-8.249651 17.531395 -1.0154223
-8.2467813 17.541185 -0.33833236
-3.5803559 7.6432357 -2.2615609
-8.2234592 17.563171 0.33850691
-4.2458363 9.0721359 -2.3124969
-5.2641425 11.253066 -2.4148786
-6.869288 14.697741 -2.5695927
-8.382822 17.952478 -2.4327562
-8.1669664 17.498171 -1.6894269
-8.1698313 17.520264 -1.0131196
-8.1753712 17.548113 -0.33791351
-3.5593455 7.667953 -2.2651844
-8.1503143 17.566376 0.33801821
-4.2125044 9.0833635 -2.3115969
-5.2264786 11.274938 -2.415642
-6.8121333 14.70908 -2.5674028
-8.3051043 17.9492 -2.4283688
-8.0966406 17.506681 -1.6875095
-8.088522 17.505159 -1.0106075
-8.0931082 17.531153 -0.33704087
-3.534981 7.6855955 -2.2667372
-8.0655622 17.543844 0.33704087
-4.18647 9.1104088 -2.3147464
-5.1879063 11.294898 -2.4160237
-6.7566314 14.723792 -2.5658383
-8.2010374 17.887856 -2.4161818
-8.0255241 17.513098 -1.6854178
-8.0157318 17.507862 -1.009142
-8.0168877 17.526567 -0.33641258
-3.5105336 7.7031636 -2.2682903
-7.9976377 17.557335 0.33676165
-4.1562552 9.1285143 -2.3156462
-5.1525164 11.321872 -2.4179318
-6.6978326 14.731105 -2.5630226
-8.0761471 17.779016 -2.3976579
-7.947041 17.502911 -1.6817572
-7.9380627 17.499359 -1.0070486
-7.9358521 17.510731 -0.33557487
-3.4788542 7.7048054 -2.2651844
-7.9182091 17.545046 0.33599374
-4.1307778 9.157176 -2.3192453
-5.1161942 11.346946 -2.4194582
-6.6358266 14.730981 -2.5589554
-7.875545 17.499361 -2.3562222
-7.8662834 17.486935 -1.6775737
-7.8638344 17.497812 -1.0053738
-7.8623977 17.51096 -0.33505133
-3.4558802 7.7257195 -2.2677724
-7.8365159 17.526939 0.33512112
-4.1003761 9.1750994 -2.3201451
-5.0797553 11.371908 -2.4209847
-6.5730901 14.728799 -2.554575
-7.8774605 17.668165 -2.3752339
-7.7938361 17.488811 -1.6751333
-7.7929544 17.503262 -1.0041177
-7.7939057 17.521856 -0.33473715
-3.4320238 7.7447996 -2.2698431
-7.7655649 17.532248 0.33470225
-4.0714817 9.1964836 -2.3219447
-5.0447984 11.400341 -2.4232745
-6.5112572 14.728167 -2.5505078
-7.815743 17.695553 -2.3752339
-7.7174568 17.481277 -1.6718215
-7.7164998 17.495638 -1.002129
-7.7214022 17.523338 -0.33424848
-3.4080768 7.7638087 -2.2719138
-7.6922617 17.531782 0.33417869
-4.0346608 9.1999302 -2.3192453
-5.0057573 11.419681 -2.423656
-6.4487157 14.725472 -2.5461278
-7.7427816 17.697268 -2.3718214
-7.6452165 17.482552 -1.6693811
-7.6369863 17.480373 -0.99972153
-7.6401925 17.504364 -0.33337587
-3.3809531 7.7756591 -2.2719138
-7.6166749 17.525513 0.33355039
-4.0079556 9.2264709 -2.3223946
-4.965867 11.437083 -2.423656
-6.3846941 14.718899 -2.541122
-7.6761599 17.704632 -2.3693841
-7.574636 17.487194 -1.6672894
-7.5703731 17.494093 -0.99898887
-7.5686121 17.498402 -0.33278248
-3.3582087 7.7939229 -2.2739842
-7.5434914 17.515778 0.3328872
-3.9835031 9.2540293 -2.3259938
-4.9310141 11.460703 -2.4251826
-6.327271 14.720025 -2.5376801
-7.5985956 17.686218 -2.3635342
-7.48596 17.440811 -1.6604911
-7.4942188 17.476881 -0.99658144
-7.493216 17.482965 -0.33201456
-3.3323424 7.8050175 -2.2739842
-7.4688773 17.502073 0.33215421
-3.9535558 9.2689819 -2.3264439
-4.8999133 11.493244 -2.428617
-6.2637115 14.706397 -2.5317357
-7.6394114 17.953745 -2.3957078
-7.4172363 17.448503 -1.6587481
-7.4221582 17.46855 -0.99469727
-7.4211998 17.483246 -0.33152589
-3.3059709 7.8225164 -2.2755373
-7.395287 17.498566 0.33159572
-3.9204204 9.2809296 -2.3259938
-4.8577585 11.511125 -2.428617
-6.2067013 14.721974 -2.5304842
-7.6545539 18.165062 -2.4203253
-7.3493228 17.457764 -1.6571794
-7.3418264 17.45697 -0.99249917
-7.3500485 17.485083 -0.33107215
-3.2793889 7.8357916 -2.2760549
-7.3233895 17.507105 0.33124667
-3.8878794 9.2988348 -2.3268938
-4.8190584 11.531635 -2.4293802
-6.141572 14.71074 -2.5248528
-7.563468 18.134369 -2.4125259
-7.2745428 17.450207 -1.6540416
-7.2716265 17.460369 -0.99124306
-7.2736268 17.482363 -0.33051369
-3.2534978 7.8507595 -2.2770901
-7.2499838 17.503002 0.33068818
-3.8635976 9.3321524 -2.3318427
-4.7840328 11.561085 -2.4320514
-6.0841498 14.717483 -2.5223496
-7.4895158 18.134972 -2.4091134
-7.1968646 17.434973 -1.6502067
-7.1999779 17.459793 -0.98977768
-7.1912246 17.455875 -0.32953632
-3.2253418 7.8602805 -2.2765725
-7.1660743 17.472702 0.32964104
-3.8295231 9.3419762 -2.3309429
-4.7443891 11.579532 -2.4324331
-6.0237627 14.71669 -2.5185952
-7.4148927 18.133446 -2.4054573
-7.1186199 17.417574 -1.6461976
-7.1261492 17.453388 -0.98799825
-7.123455 17.464207 -0.3292222
-3.1986098 7.873282 -2.2770901
-7.0922537 17.46611 0.32904765
-3.7990859 9.3607044 -2.3322923
-4.7105846 11.612395 -2.4358678
-5.9567709 14.699183 -2.5120249
-7.1042423 17.548326 -2.3245361
-7.0495615 17.421999 -1.6442802
-7.051712 17.444824 -0.9861142
-7.0527205 17.464861 -0.32876843
-3.1747136 7.8933606 -2.2796783
-7.0208044 17.464783 0.32855898
-3.7671123 9.3757181 -2.3327425
-4.6780663 11.648808 -2.4400656
-5.8958602 14.696056 -2.5079577
-6.9853458 17.429293 -2.3055246
-6.9775863 17.418758 -1.6416655
-6.9751973 17.430393 -0.9839161
-6.9805741 17.461521 -0.32824486
-3.1535704 7.9205484 -2.284337
-6.9509211 17.46689 0.32814014
-3.7372444 9.3960524 -2.334542
-4.6323013 11.652295 -2.4373941
-5.8357792 14.694515 -2.5042033
-6.936172 17.483095 -2.3094242
-6.9071975 17.41893 -1.6393995
-6.9040084 17.42864 -0.98245066
-6.9004521 17.437435 -0.32733732
-3.1251969 7.9297099 -2.2838194
-6.8818412 17.470585 0.3277562
-3.7079947 9.4181061 -2.3367915
-4.5901632 11.664739 -2.436631
-5.7822847 14.709279 -2.5032647
-6.8315611 17.396339 -2.2948
-6.833252 17.40955 -1.6362618
-6.835104 17.43218 -0.98129922
-6.8307853 17.439074 -0.32691848
-3.0967975 7.9387693 -2.2833018
-6.8062916 17.457237 0.32705811
-3.6779249 9.4382563 -2.3385913
-4.55654 11.698986 -2.4404473
-5.7165751 14.692556 -2.4970071
-6.7672033 17.410828 -2.2935812
-6.7587276 17.398012 -1.6329499
-6.7583194 17.414968 -0.97899652
-6.7612 17.440437 -0.32649961
-3.0683694 7.9477305 -2.2827842
-6.7345181 17.452902 0.32653454
-3.6463614 9.4546738 -2.3394909
-4.5149717 11.712987 -2.4400656
-5.6531892 14.681081 -2.4916885
-6.6987376 17.40538 -2.2899251
-6.6822219 17.380589 -1.6291151
-6.6853194 17.406757 -0.97721708
-6.6861248 17.417961 -0.32566193
-3.044064 7.9632759 -2.284337
-6.6630402 17.439648 0.32587135
-3.6129 9.4612522 -2.3381412
-4.4845023 11.749907 -2.4446449
-5.6037664 14.697903 -2.4913754
-6.6261334 17.388546 -2.2848067
-6.6195908 17.389614 -1.627895
-6.6190357 17.406429 -0.97596097
-6.6254902 17.432558 -0.32552227
-3.0237958 7.9895868 -2.2889957
-6.5988078 17.444815 0.3255572
-3.5828857 9.4768257 -2.3390412
-4.4455161 11.764712 -2.4446449
-5.5417442 14.681291 -2.485431
-6.5558252 17.376991 -2.2804193
-6.5562706 17.396555 -1.6265004
-6.5514293 17.402113 -0.97449559
-6.5549726 17.420744 -0.32489401
-2.9966085 7.9977603 -2.2884779
-6.5318003 17.442257 0.32510343
-3.5562189 9.5014324 -2.3421905
-4.411984 11.7941 -2.4476981
-5.4888759 14.688486 -2.4835539
-6.4884453 17.372599 -2.2770069
-6.4825225 17.375267 -1.6224912
-6.4846144 17.399416 -0.97313493
-6.4852953 17.41053 -0.32430062
-2.9659307 8.0050678 -2.2874427
-6.4567208 17.436073 0.32454494
-3.5247545 9.5235395 -2.34444
-4.3734913 11.823081 -2.4503694
-5.4254208 14.682562 -2.4791737
-6.4106884 17.36759 -2.2731071
-6.4125929 17.382088 -1.6209226
-6.4132051 17.402449 -0.97198343
-6.4121833 17.418413 -0.32398647
-2.9366419 8.0117445 -2.2864075
-6.3813772 17.419075 0.32381195
-3.4921575 9.5376167 -2.3448899
-4.331522 11.83643 -2.4499876
-5.3646374 14.675439 -2.4747934
-6.3445821 17.374945 -2.2711573
-6.3464098 17.389393 -1.6195279
-6.3462586 17.407843 -0.97104144
-6.3417668 17.414381 -0.3234978
-2.9172165 8.045557 -2.2931368
-6.3137159 17.422443 0.3234629
-3.4548635 9.5387535 -2.3421905
-4.2975268 11.871786 -2.4541855
-5.3086786 14.68107 -2.4726036
-6.2737727 17.36898 -2.2675011
-6.2775559 17.38895 -1.6174362
-6.2671652 17.37916 -0.96821523
-6.2721252 17.411955 -0.32304403
-2.888464 8.0538712 -2.2926192
-6.2393708 17.406727 0.32276481
-3.4254918 9.5617619 -2.3448899
-4.2573857 11.890409 -2.4549487
-5.2507505 14.680911 -2.4694748
-6.2024236 17.360863 -2.2636015
-6.2020822 17.369474 -1.6136013
-6.2064662 17.400928 -0.96821523
-6.1998949 17.401724 -0.32245067
-2.8596849 8.0620852 -2.2921014
-6.1758943 17.420862 0.32262516
-3.3940434 9.5791712 -2.3462396
-4.2178183 11.910752 -2.4560935
-5.1961751 14.68984 -2.4679105
-6.1338444 17.359949 -2.2606766
-6.1324062 17.375183 -1.6120325
-6.13306 17.386703 -0.96622658
-6.12782 17.391195 -0.3218573
-2.8307576 8.0743351 -2.2926192
-6.1071115 17.41967 0.32220635
-3.3625209 9.5964775 -2.3475893
-4.1786771 11.939101 -2.4587648
-5.1318717 14.67895 -2.4629045
-6.067975 17.366261 -2.2587266
-6.0599041 17.362621 -1.6088949
-6.0633707 17.392092 -0.96528447
-6.0591836 17.389816 -0.32143843
-2.8025575 8.0841665 -2.2926192
-6.0222702 17.381474 0.32108939
-3.329236 9.6142626 -2.3489389
-4.1356945 11.949903 -2.4580016
-5.0728531 14.674373 -2.4591501
-5.9952083 17.362116 -2.2553141
-5.9908056 17.359186 -1.6066289
-5.9896102 17.375387 -0.96319103
-5.9856362 17.383549 -0.32091483
-2.7768247 8.1012096 -2.2946897
-5.9583244 17.392929 0.32091483
-3.2975516 9.6313562 -2.3502886
-4.1003094 11.982843 -2.4618177
-5.015213 14.673297 -2.4560213
-5.9217429 17.345364 -2.2504396
-5.9237447 17.361137 -1.6048858
-5.9205499 17.371611 -0.96183026
-5.9204125 17.391085 -0.32067052
-2.7516272 8.1200027 -2.2972779
-5.8918056 17.396574 0.32060072
-3.2657878 9.648344 -2.3516383
-4.0534205 11.982206 -2.4587648
-4.9570031 14.670129 -2.4525797
-5.8522768 17.339598 -2.2470272
-5.8580074 17.366606 -1.6034913
-5.8464875 17.352423 -0.95963216
-5.8512173 17.376511 -0.32004225
-2.7214274 8.1240616 -2.2957251
-5.8264575 17.393263 0.32018185
-3.234391 9.6609697 -2.3520882
-4.0121951 11.998143 -2.4591465
-4.9026957 14.669624 -2.449764
-5.7884541 17.34008 -2.2445898
-5.7816 17.339697 -1.5991336
-5.7825933 17.352768 -0.95858544
-5.7772679 17.356983 -0.31930923
-2.6926508 8.1275406 -2.294172
-5.7543979 17.379326 0.31955358
-3.2043235 9.683301 -2.3547876
-3.9810183 12.037477 -2.464489
-4.8458791 14.669769 -2.4469483
-5.7191858 17.333786 -2.2411776
-5.7141724 17.338957 -1.597216
-5.7182412 17.361465 -0.95795745
-5.710392 17.358051 -0.31896019
-2.6664467 8.1483707 -2.2972779
-5.6837425 17.3689 0.31899512
-3.1680772 9.6870184 -2.352988
-3.9393077 12.059453 -2.4660156
-4.7841167 14.663016 -2.4428809
-5.6512556 17.330997 -2.2382526
-5.6468301 17.337957 -1.5952986
-5.6440616 17.350019 -0.95617801
-5.6417322 17.353153 -0.31850642
-2.6433387 8.1741714 -2.3019366
-5.6138983 17.370584 0.31864604
-3.1343505 9.7041283 -2.3543377
-3.9008038 12.084342 -2.4683053
-4.7286644 14.666465 -2.440691
-5.5822244 17.334589 -2.236059
-5.5801749 17.338596 -1.5935556
-5.5755219 17.344896 -0.9548173
-5.5799041 17.368931 -0.31843659
-2.6153753 8.1851902 -2.3024545
-5.5465217 17.358631 0.31808758
-3.1033359 9.7181816 -2.3552375
-3.8603897 12.103495 -2.46945
-4.6757989 14.668892 -2.4385006
-5.512661 17.315176 -2.231184
-5.5153871 17.344679 -1.5923353
-5.5101051 17.338547 -0.95345652
-5.5101628 17.359718 -0.31791306
-2.5893834 8.1975021 -2.3034897
-5.4804802 17.360722 0.3177734
-3.0723281 9.7382479 -2.357487
-3.8178732 12.108739 -2.4679236
-4.6233826 14.681355 -2.437875
-5.4474244 17.319162 -2.2292342
-5.4452963 17.322958 -1.5886748
-5.4435692 17.338617 -0.9524098
-5.4351754 17.333048 -0.31707534
-2.5572979 8.195426 -2.3003838
-5.4115157 17.353018 0.31728473
-3.040638 9.7563543 -2.3592868
-3.7784982 12.131366 -2.4698317
-4.570343 14.691747 -2.4369364
-5.3786855 17.311533 -2.2258217
-5.3765192 17.315224 -1.5862345
-5.3770933 17.338442 -0.95136315
-5.371676 17.342365 -0.31690079
-2.5286767 8.2043018 -2.3003838
-5.3385429 17.331671 0.31655174
-3.0088542 9.7743587 -2.3610861
-3.7355542 12.142603 -2.46945
-4.5178742 14.703834 -2.4363105
-5.3112402 17.30743 -2.2228971
-5.3025141 17.300524 -1.583097
-5.304842 17.318907 -0.94926965
-5.3023357 17.332327 -0.31637722
-2.5036476 8.2301502 -2.3050425
-5.2745161 17.338724 0.31634232
-2.9724472 9.7773466 -2.3592868
-3.6933026 12.163729 -2.4709766
-4.4668212 14.729744 -2.437875
-5.2404246 17.291668 -2.2185097
-5.2397861 17.311298 -1.5823996
-5.2349682 17.317207 -0.94811827
-5.2331314 17.322016 -0.31585366
-2.4776843 8.2480898 -2.3076308
-5.2074847 17.346447 0.31613287
-2.9410734 9.8031063 -2.362886
-3.659281 12.204754 -2.4767008
-4.4255733 14.779311 -2.4435067
-5.1679158 17.280327 -2.2146099
-5.1730461 17.308487 -1.5804822
-5.1647801 17.302839 -0.94633883
-5.165771 17.317183 -0.31543481
-2.4488797 8.2566872 -2.3076308
-5.1431127 17.340612 0.31571403
-2.910212 9.818409 -2.3642356
-3.6161013 12.21557 -2.4763193
-4.3776627 14.797692 -2.4441323
-5.1038375 17.274525 -2.2116849
-5.1018782 17.290131 -1.5771703
-5.0983386 17.289219 -0.94466412
-5.0968118 17.306335 -0.31491122
-2.4198546 8.259202 -2.306078
-5.0729947 17.325836 0.31512067
-2.878108 9.83599 -2.3660352
-3.5761206 12.22938 -2.4767008
-4.327086 14.816676 -2.4447582
-5.0390563 17.276991 -2.2097349
-5.0355973 17.276348 -1.5743814
-5.0351615 17.297323 -0.94414073
-5.0280008 17.295219 -0.31438765
-2.393158 8.2750206 -2.3081484
-5.0047159 17.316544 0.314632
-2.8432183 9.8441038 -2.3655853
-3.5301461 12.230469 -2.4744112
-4.2775311 14.839281 -2.4460096
-4.9765248 17.286844 -2.20876
-4.9703069 17.276588 -1.5728126
-4.9708862 17.301357 -0.94340807
-4.9687052 17.316507 -0.31445748
-2.3663774 8.2907562 -2.310219
-4.9398465 17.318525 0.31435275
-2.8077674 9.8502216 -2.3646853
-3.4981863 12.280481 -2.4820435
-4.2316484 14.875024 -2.4494512
-4.9063826 17.269741 -2.2043729
-4.9126868 17.303417 -1.5736841
-4.9028392 17.291702 -0.94194263
-4.9027762 17.314507 -0.31410843
-2.3389955 8.3045435 -2.3117716
-4.8690734 17.299088 0.31368956
-2.7781179 9.8768454 -2.3687346
-3.4574258 12.300178 -2.4835701
-4.1797023 14.889704 -2.4494512
-4.8396435 17.263823 -2.201448
-4.8447356 17.2936 -1.5712438
-4.8370724 17.289474 -0.94089592
-4.8304729 17.289143 -0.31334051
-2.3109281 8.3103924 -2.311254
-4.8223834 17.353674 0.31438765
-2.7479541 9.8953924 -2.3709843
-3.4160957 12.309682 -2.4831884
-4.1334643 14.914906 -2.4513285
-4.7791858 17.268299 -2.1999855
-2.2799404 8.3169441 -2.3107367
-2.712883 9.9030437 -2.3705342
-3.3776865 12.346739 -2.4881494
-4.0766916 14.922331 -2.4500768
-4.7309079 17.328922 -2.2055917
-7.7885938 28.568214 -2.5906172
-12.199835 44.84095 -0.81115294
-2.2524092 8.3304462 -2.3122892
-2.6760578 9.9110403 -2.3700843
-3.339685 12.377408 -2.4919655
-4.0261159 14.942195 -2.4510155
-5.1790276 19.247721 -2.4473803
-7.7260656 28.733759 -2.6031678
-4.8365102 18.012379 -0.97742641
-12.146871 45.269543 -0.81813389
-2.2258031 8.3475904 -2.3148775
-2.6456876 9.9292746 -2.3723338
-3.2954464 12.385197 -2.4912024
-3.9780698 14.96119 -2.4519541
-5.1090531 19.241766 -2.4444554
-7.690064 29.003208 -2.6251309
-12.091084 45.698299 -0.82511491
-2.1990941 8.3586626 -2.3159127
-2.6085382 9.9290247 -2.3700843
-3.2563543 12.403652 -2.4927289
-3.925323 14.973073 -2.4516413
-5.0343099 19.23068 -2.4407995
-7.6200252 29.149385 -2.6359382
-12.049498 46.126724 -2.4985187
-2.1708646 8.3760176 -2.318501
-2.5807009 9.9644814 -2.3763828
-3.2113588 12.417404 -2.4931104
-3.8733776 14.998836 -2.4535184
-4.9666595 19.246212 -2.4405556
-7.5997572 29.492224 -2.6645253
-2.1387465 8.3723135 -2.3153951
-2.543201 9.9700966 -2.375483
-3.1660576 12.420929 -2.4915841
-3.8210015 15.012264 -2.4535184
-4.902935 19.291222 -2.4439681
-7.4320188 29.263672 -2.6415162
-11.87712 46.869156 -0.84396344
-2.1113927 8.3872213 -2.3174658
-2.5101268 9.9784746 -2.375483
-3.127939 12.452851 -2.4957819
-3.7721629 15.028685 -2.4541442
-4.8452044 19.332407 -2.4471366
-7.4188285 29.645065 -2.6735895
-11.879792 47.505932 -2.5663462
-11.856851 47.484608 -0.85429525
-2.0854316 8.4016771 -2.3195364
-2.4771528 9.9947433 -2.3772829
-3.0880449 12.468871 -2.4969265
-3.7206242 15.045596 -2.4547698
-4.7933908 19.412802 -2.4551802
-7.4035339 30.006086 -2.7039196
-11.834278 48.035812 -2.5927234
-11.811185 47.978027 -0.86246306
-2.0583873 8.4182873 -2.3221245
-2.4435349 10.001008 -2.376833
-3.0431025 12.473853 -2.4957819
-3.6753924 15.077043 -2.4578986
-4.6787591 19.22221 -2.4291
-7.3617907 30.291178 -2.7272775
-11.792763 48.560001 -2.6188915
-2.0304618 8.4250669 -2.3221245
-2.4127107 10.02653 -2.380882
-3.0058601 12.501054 -2.4992163
-3.6231985 15.091702 -2.4582114
-4.608398 19.224911 -2.4273939
-7.322783 30.595716 -2.7523782
-11.728186 49.039867 -2.6425474
-11.718363 49.074615 -0.8806833
-1.9982252 8.426815 -2.3205717
-2.3781481 10.036786 -2.3813319
-13.848612 58.49247 3.1502061
-2.958204 12.504346 -2.4976897
-3.5705881 15.116413 -2.4600887
-4.545361 19.258268 -2.4295874
-7.2634883 30.822769 -2.7705069
-11.741415 49.902966 -2.6867189
-1.969243 8.4356184 -2.3210893
-2.3422275 10.049231 -2.3822315
