# .PCD v0.7 - Point Cloud Data file format
VERSION 0.7
FIELDS x y z
SIZE 4 4 4
TYPE F F F
COUNT 1 1 1
WIDTH 1480
HEIGHT 1
VIEWPOINT 0 0 0 1 0 0 0
POINTS 1480
DATA ascii
-19.233521 8.5874605 -1.842821
-29.682133 13.265029 -1.7038494
-41.609779 18.612942 -0.79565525
-6.275754 2.8178024 -1.8433093
-7.1206055 3.2001262 -1.8023077
-9.2662687 4.166369 -1.9748732
-11.049522 4.972806 -1.9191382
-0.78919238 0.35533941 0.10627007
-13.985342 6.2999387 -1.883369
-19.214327 8.6594534 -1.8438668
-29.635649 13.368558 -1.7038494
-6.2746778 2.843679 -1.8458976
-44.964451 20.387316 0.86176491
-7.0880957 3.215302 -1.796909
-9.2355795 4.1913877 -1.9714386
-11.051881 5.0203333 -1.9225799
-0.77710378 0.3531644 0.10480764
-13.970496 6.3520021 -1.884344
-19.189713 8.7331257 -1.8445642
-29.566994 13.461987 -1.7025934
-44.790573 20.412245 -0.859182
-6.2501597 2.8602269 -1.8417563
-44.500252 20.364408 0.85422552
-7.1051788 3.2530043 -1.8041074
-9.2255087 4.227663 -1.9725834
-11.020838 5.0550418 -1.9203898
-0.77225775 0.35421944 0.10432017
-13.955455 6.4040413 -1.8853189
-19.191704 8.8150225 -1.8477017
-29.510193 13.566936 -1.7021748
-44.323002 20.386293 -0.85157275
-6.1647224 2.8471959 -1.8194979
-44.036846 20.347866 0.84675586
-7.12151 3.2921076 -1.8113058
-8.1397676 3.764549 -1.7432311
-11.001331 5.0926509 -1.9200768
-0.7727555 0.35788178 0.10456391
-13.936618 6.4543853 -1.8858064
-19.164431 8.8836365 -1.8480502
-29.506142 13.690032 -1.704687
-43.910572 20.382603 -0.84501064
-6.1937718 2.8855717 -1.830886
-43.555882 20.301176 0.83879757
-7.1282158 3.3239415 -1.815805
-9.1680527 4.2770815 -1.9664776
-10.984383 5.1291051 -1.9200768
-0.76976597 0.35960221 0.10432017
-13.91154 6.4988852 -1.8853189
-19.131256 8.9454527 -1.8477017
-29.446108 13.78103 -1.7038494
-43.339279 20.292374 -0.83530712
-6.1859174 2.9069171 -1.8314036
-43.093815 20.260029 0.83118832
-7.1277342 3.3525381 -1.8185043
-9.1644773 4.3124757 -1.9687674
-10.972675 5.1680284 -1.9210155
-0.77216071 0.36384517 0.10480764
-13.908524 6.5567141 -1.888
-19.115904 9.015645 -1.8490963
-29.400248 13.878595 -1.7038494
-42.884876 20.26243 -0.82790726
-6.2088981 2.9442174 -1.8412387
-42.665104 20.240623 0.82427716
-7.1195092 3.3790693 -1.8194041
-9.1475954 4.3435955 -1.9683858
-10.945647 5.2020588 -1.9194511
-0.76730049 0.36483333 0.10432017
-13.890929 6.6077867 -1.8887312
-19.098707 9.0891666 -1.8504907
-29.394897 14.001758 -1.7063617
-42.438442 20.232994 -0.82064706
-6.1794147 2.9567013 -1.8355448
-42.186554 20.194311 0.81638873
-7.0865798 3.3937984 -1.8140053
-9.1386938 4.3804908 -1.9699122
-10.945236 5.2487745 -1.9225799
-0.75528371 0.3623575 0.10285773
-13.871357 6.6579523 -1.8892187
-19.09041 9.1711798 -1.852931
-29.336182 14.105932 -1.705943
-42.00354 20.205912 -0.81359631
-6.1754942 2.9826908 -1.8376153
-41.777359 20.186962 0.80989635
-7.0863748 3.4256866 -1.8171545
-9.1066732 4.4062586 -1.9664776
-10.933035 5.2923012 -1.9238312
-0.77181655 0.37377551 0.10529512
-13.857582 6.7139392 -1.8906811
-19.060255 9.2428274 -1.8532797
-29.284281 14.213367 -1.705943
-41.565834 20.183285 -0.8065455
-6.1645207 3.0053051 -1.8376153
-41.386761 20.185665 0.80375314
-7.0685177 3.4490728 -1.815805
-9.0894728 4.4371591 -1.966096
-10.917115 5.3340693 -1.9244571
-0.76330775 0.37311485 0.10432017
-13.836447 6.7664285 -1.8911686
-19.027874 9.3093042 -1.8532797
-29.270365 14.333071 -1.7080364
-41.193504 20.189407 -0.80075133
-6.126256 3.0131633 -1.8293331
-40.892605 20.121653 0.7955156
-7.066925 3.4788897 -1.8185043
-9.0721674 4.4679928 -1.9657143
-10.871851 5.3590436 -1.9197639
-0.76556128 0.37753317 0.10480764
-13.826984 6.8217125 -1.8931185
-19.020275 9.3880129 -1.85572
-29.220158 14.43515 -1.7080364
-40.796535 20.171768 -0.79439861
-6.1589646 3.0559967 -1.8422741
-40.857941 20.282057 0.79621369
-7.0372853 3.4948671 -1.8140053
-9.0653057 4.5040011 -1.9676224
-10.863689 5.4022408 -1.9216411
-0.75535238 0.37578201 0.10358895
-13.803087 6.869936 -1.8931185
-18.99452 9.4579067 -1.8564173
-29.144564 14.524589 -1.706571
-40.872616 20.387232 -0.79726088
-6.1067986 3.0567238 -1.8298507
-40.929943 20.496174 0.79900604
-6.9989076 3.5063195 -1.8072568
-9.0372438 4.5294604 -1.9649512
-10.850065 5.4427843 -1.9225799
-0.74339086 0.37307411 0.10212652
-13.771929 6.9145107 -1.8921436
-19.004122 9.5456104 -1.8606008
-40.801201 20.529781 -0.79726088
-6.0816431 3.0680616 -1.825192
-40.865341 20.62467 0.79900604
-7.0069942 3.5379505 -1.8122058
-9.0212173 4.556942 -1.9645696
-10.836439 5.4786243 -1.9232055
-0.75992906 0.38436735 0.10456391
-13.764307 6.9649162 -1.8940935
-18.979471 9.6121798 -1.861298
-6.0720787 3.091208 -1.8257096
-7.0588512 3.5951109 -1.8288521
-9.0114517 4.5935426 -1.966096
-10.805727 5.5129218 -1.9213283
-0.76211929 0.38882196 0.10505138
-13.75759 7.021945 -1.8965309
-18.956451 9.6838121 -1.8623439
-6.0560956 3.1097374 -1.8241568
-6.9260335 3.5594962 -1.7978089
-9.0023451 4.6285615 -1.9676224
-10.786417 5.5506077 -1.9213283
-0.75009948 0.38616076 0.10358895
-13.752939 7.0832295 -1.8994557
-18.947329 9.7626991 -1.8647844
-6.113821 3.1663959 -1.8448622
-7.0024352 3.6281681 -1.8207539
-0.93270195 0.48346657 0.055057433
-8.9878769 4.6608615 -1.968004
-0.93025929 0.48261276 0.091687836
-10.774965 5.5899854 -1.9225799
-0.74176717 0.38498828 0.102614
-13.729374 7.1287975 -1.8994557
-6.1495237 3.210794 -1.8588384
-0.9234519 0.48235881 0.018185407
-6.9828196 3.6489773 -1.8189542
-0.90277135 0.47175673 0.053382684
-9.0123873 4.7115612 -1.9767814
-0.92865378 0.48569497 0.091687836
-10.76589 5.6330552 -1.9244571
-0.75976455 0.39770186 0.10529512
-13.667477 7.1573396 -1.8943372
-0.86830944 0.45490631 -0.085761249
-0.81989998 0.43009189 -0.01616093
-6.1006737 3.2124372 -1.8474505
-0.90769237 0.47796437 0.017906168
-7.0655079 3.7220678 -1.8436987
-0.87991619 0.46373087 0.052126616
-0.92695284 0.48893344 0.091687836
-0.90680724 0.4783074 -0.162379
-0.75844157 0.40021917 0.10529512
-0.91461015 0.48283157 -0.12698787
-0.84557682 0.44676542 -0.083669513
-0.89347506 0.47227246 -0.052963994
-0.87849164 0.46474463 -0.017347692
-0.86853558 0.46103078 -0.2634778
-0.83890593 0.44549087 0.016579786
-0.88801271 0.47176716 -0.2321495
-0.83949214 0.44617766 0.049823835
-0.86325854 0.45900264 -0.19004577
-0.8021841 0.42652878 0.079486035
-0.82839638 0.44065157 -0.14861277
-0.75353509 0.4009991 0.10480764
-0.82530707 0.4393779 -0.11480093
-0.81939512 0.43659768 -0.08122915
-0.83181906 0.44359031 -0.04940515
-0.87333536 0.46592605 -0.017277883
-0.89068222 0.47697937 -0.27072471
-0.81611544 0.43723053 0.01616093
-0.83131462 0.44556019 -0.21775262
-0.81672877 0.43792611 0.048567772
-0.8408097 0.4510271 -0.18546635
-0.81466126 0.43700057 0.08088053
-0.83373803 0.44742113 -0.14986424
-0.74506438 0.40000236 0.10383269
-0.83418405 0.44803557 -0.11626337
-0.85438478 0.45907742 0.15361866
-0.82831895 0.44525802 -0.082275018
-0.82315207 0.44285104 -0.048986461
-0.82583964 0.44448277 -0.016370358
-0.84133738 0.45452973 -0.25623086
-0.82858098 0.44782519 0.016440166
-0.81596231 0.44118917 -0.21415339
-0.81870896 0.44267428 0.048777115
-0.83232301 0.45022285 -0.18393987
-0.79202682 0.42860466 0.078788787
-0.83904111 0.45423573 -0.1511157
-0.74359328 0.40273049 0.10383269
-0.84657919 0.45850772 -0.11821327
-0.85277706 0.46205699 0.15361866
-0.83026284 0.45004568 -0.082623646
-0.82511234 0.4476265 -0.049195804
-0.824283 0.44736281 -0.016370358
-0.85679156 0.46655592 -0.26140723
-0.8165552 0.44483069 0.016230738
-0.81278366 0.44296005 -0.2137035
-0.82775885 0.45112142 0.04940515
-0.81531209 0.44452232 -0.18050532
-0.80459404 0.4388611 0.080183282
-0.81845605 0.44660741 -0.14767416
-0.74225378 0.40519398 0.10383269
-0.81369132 0.44419152 -0.11382597
-0.76455581 0.41754201 0.13797522
-0.84625036 0.46234912 -0.084366761
-0.82011867 0.4484438 -0.048986461
-0.80525148 0.44049695 -0.016021309
-0.82983655 0.4554522 -0.25364268
-0.82208705 0.45138562 0.016370358
-0.79252201 0.43533257 -0.20875457
-0.82092804 0.45112225 0.04909113
-0.79490709 0.43682307 -0.17630751
-0.79265875 0.43576765 0.079137415
-0.82562488 0.45407885 -0.1492385
-0.75308055 0.4143517 0.10553886
-0.8330043 0.45851618 -0.11675084
-0.77693665 0.42783114 0.14047816
-0.81504279 0.44881487 -0.081403457
-0.81687778 0.45019698 -0.048881788
-0.78444797 0.43268108 -0.015637357
-0.81640965 0.45179835 -0.25001919
-0.79076511 0.43778726 0.015776975
-0.78929299 0.437152 -0.20830467
-0.81410724 0.45108116 0.048777115
-0.78822565 0.43674064 -0.17516267
-0.785905 0.43563434 0.078614481
-0.8153972 0.45216793 -0.14767416
-0.74642193 0.41408893 0.10480764
-0.80362761 0.44600832 -0.11285102
-0.78925484 0.4382115 0.14298111
-0.80301988 0.44585413 -0.080357596
-0.81704718 0.45401582 -0.048986461
-0.78642797 0.4373607 -0.015707165
-0.81145358 0.45276284 -0.24898393
-0.7874862 0.43957007 0.015742071
-0.80307508 0.44845557 -0.2123538
-0.80904037 0.45197219 0.048567772
-0.8021217 0.44810706 -0.17859723
-0.77568358 0.43351477 0.077742919
-0.79657203 0.44537139 -0.14454547
-0.74497187 0.41669214 0.10480764
-0.8107276 0.45365739 -0.11406972
-0.8463254 0.4737708 0.15361866
-0.78581196 0.43989551 -0.078788787
-0.78932095 0.44222176 -0.047416382
-0.78140807 0.43814722 -0.015637357
-0.80818444 0.4546454 -0.2484663
-0.78943229 0.44427773 0.015811879
-0.78622186 0.44265166 -0.20830467
-0.80571765 0.45381323 0.048463102
-0.78857857 0.44415981 -0.17592591
-0.76722246 0.43230754 0.077045679
-0.78985018 0.44523922 -0.14360686
-0.74697107 0.42124003 0.10529512
-0.80741006 0.45550922 -0.11382597
-0.82746339 0.46701315 0.15048997
-0.78427148 0.44263604 -0.078788787
-0.79125053 0.4469389 -0.047625724
-0.79031873 0.44677654 -0.015846785
-0.80995327 0.45936987 -0.24950157
-0.78961593 0.44801751 0.015846785
-0.77789283 0.44154549 -0.20650508
-0.79891825 0.45366424 0.048149083
-0.78702337 0.44690979 -0.17592591
-0.77783537 0.44187191 0.078265861
-0.800313 0.45482576 -0.14579694
-0.75067317 0.4267883 0.10602634
-0.77993244 0.44360349 -0.11016989
-0.76745367 0.43668324 0.13985243
-0.80350196 0.45719481 -0.08088053
-0.78621441 0.44772148 -0.047416382
-0.78180498 0.4455719 -0.015707165
-0.80331367 0.45931762 -0.24794866
-0.76201051 0.43587759 0.015323212
-0.77465546 0.44329029 -0.20605516
-0.77182806 0.44185117 -0.17287296
-0.76937258 0.44062355 0.077568613
-0.79015046 0.45270658 -0.1442326
-0.7543456 0.43236747 0.10675755
-0.7646026 0.43842375 -0.10821999
-0.77277863 0.44329113 0.14110391
-0.7915318 0.45404854 -0.079834662
-0.76905781 0.4415136 -0.046474334
-0.76637387 0.44032848 -0.015427927
-0.7849685 0.45247117 -0.24277227
-0.77780735 0.44852448 0.015672261
-0.77310342 0.44599169 -0.20605516
-0.78197157 0.45110762 0.047311708
-0.76858068 0.4435612 -0.17249134
-0.77473152 0.44729143 0.078265861
-0.76974934 0.44459409 -0.14079103
-0.75970703 0.43897042 0.10773251
-0.79400265 0.4589721 -0.11260728
-0.77814513 0.44980568 0.14235538
-0.75889623 0.43885559 -0.076697052
-0.78134096 0.45219892 -0.047311708
-0.76664001 0.44386947 -0.015462833
-0.79173595 0.46006149 -0.24536048
-0.78323174 0.45511985 0.015811879
-0.78509814 0.45638797 -0.20965438
-0.79765755 0.46387485 0.048358425
-0.78060329 0.45413962 -0.17554428
-0.78005332 0.45400184 0.078963101
-0.77339256 0.45012522 -0.14172964
-0.74966967 0.43649307 0.10651381
-0.78904563 0.45960429 -0.1121198
-0.83801323 0.48832291 0.15361866
-0.76080239 0.4435086 -0.077045679
-0.78673834 0.45881218 -0.047730397
-0.78753781 0.45964664 -0.015916595
-0.80354273 0.47049344 -0.24950157
-0.77818727 0.45582983 0.015742071
-0.77845645 0.45616975 -0.20830467
-0.78224933 0.45857576 0.047521055
-0.79264253 0.46466857 -0.17859723
-0.78026211 0.4575941 0.079137415
-0.77863193 0.45682043 -0.14298111
-0.73102152 0.42905909 0.10407643
-0.78914839 0.46336097 -0.11236355
-0.78861225 0.46323103 0.14485833
-0.77478886 0.45511118 -0.078614481
-0.79374087 0.46661654 -0.048253756
-0.78592837 0.46239305 -0.015916595
-0.80855024 0.47722328 -0.25157213
-0.7955327 0.46972725 0.016126024
-0.78524876 0.46383986 -0.21055418
-0.78236312 0.46231985 0.047625724
-0.78425479 0.46343768 -0.17707075
-0.77866018 0.46031475 0.079137415
-0.80083656 0.47361323 -0.14736128
-0.73977011 0.43767318 0.10553886
-0.78581786 0.46510148 -0.1121198
-0.81262672 0.48116037 -0.082623646
-0.80069858 0.47447518 -0.048777115
-0.77570963 0.46003351 -0.015742071
-0.80355901 0.47806725 -0.25053686
-0.79732496 0.47454679 0.016195834
-0.78864807 0.46956897 -0.21190389
-0.77902883 0.46402574 0.047521055
-0.77757227 0.46315816 -0.17592591
-0.77533704 0.46201015 0.078963101
-0.78730112 0.46932551 -0.1451712
-0.73994279 0.44126937 0.1057826
-0.77566582 0.46275648 -0.11090111
-0.79554445 0.47480449 -0.081054844
-0.77503198 0.46292877 -0.047311708
-0.77581549 0.46376449 -0.015776975
-0.79028785 0.47391459 -0.24691339
-0.79051924 0.47424096 0.016091119
-0.77697867 0.46630228 -0.20920448
-0.78939068 0.4739387 0.048253756
-0.76921803 0.46182734 -0.17439944
-0.77713561 0.46676546 0.079311721
-0.770419 0.46291429 -0.14235538
-0.73839802 0.44384956 0.1057826
-0.78255171 0.4705762 -0.1121198
-0.75973678 0.45703757 -0.077568613
-0.77341133 0.46563131 -0.047311708
-0.76220232 0.45924547 -0.015532642
-0.79193532 0.47866899 -0.24794866
-0.77516955 0.46871972 0.015811879
-0.77367878 0.46800295 -0.20875457
-0.78260529 0.47358924 0.04793974
-0.77767915 0.47060823 -0.17668915
-0.77550143 0.46947557 0.079311721
-0.76372939 0.46253088 -0.14141677
-0.73344857 0.44436711 0.10529512
-0.78939235 0.47844985 -0.1133385
-0.76495153 0.46381861 -0.078265861
-0.76324373 0.46314776 -0.04678835
-0.7691406 0.46709323 -0.015707165
-0.79190958 0.48243535 -0.2484663
-0.77352858 0.47142291 0.015811879
-0.76871264 0.46867186 -0.20785476
-0.78606284 0.47943798 0.048253756
-0.7810601 0.4763867 -0.17783399
-0.7653541 0.46699074 0.078440167
-0.77559888 0.47342747 -0.14391972
-0.73189306 0.44692448 0.10529512
-0.78263545 0.47809768 -0.11260728
-0.76332784 0.46648601 -0.078265861
-0.76503026 0.46789318 -0.046997696
-0.76750529 0.46977541 -0.015707165
-0.78692806 0.48317501 -0.24743101
-0.77699006 0.47726011 0.015916595
-0.76541179 0.47033194 -0.20740487
-0.78098142 0.48008725 0.048044413
-0.77437478 0.476026 -0.17668915
-0.77899373 0.47905269 0.080008969
-0.76552927 0.47095647 -0.14235538
-0.73201907 0.45051721 0.10553886
-0.76912904 0.47354144 -0.11090111
-0.76848048 0.47332716 -0.078963101
-0.75319099 0.46427265 -0.046369661
-0.75564951 0.46615213 -0.015497738
-5.8991308 3.6504931 -1.8588384
-0.79062188 0.48944232 0.016230738
-7.382513 4.572 -2.0047638
-0.78269643 0.48491424 0.048253756
-8.6316366 5.347672 -1.9737284
-0.77562338 0.48071924 0.079834662
-0.75884402 0.470503 -0.14141677
-0.72706813 0.450977 0.10505138
-0.79307711 0.49307102 -0.016300548
-5.8486514 3.6475487 -1.8469328
-0.87034422 0.54300672 0.017906168
-7.3698134 4.5998073 -2.0056636
-0.81996429 0.51197273 0.05066121
-8.5846071 5.3600931 -1.9672408
-0.76042193 0.47497967 0.078440167
-10.337749 6.459743 -1.9307145
-0.7305392 0.45666888 0.1057826
-13.267773 8.2970619 -1.9213922
-18.387423 11.503128 -1.8975549
-27.894747 17.464428 -1.7247839
-40.44025 25.338621 -0.8330034
-5.8424263 3.6720548 -1.8490034
-40.610313 25.534094 0.83733153
-7.3454642 4.620317 -2.0034139
-8.5658455 5.3900242 -1.9672408
-10.313464 6.4947362 -1.9304014
-0.71214497 0.44863501 0.10334522
-13.23201 8.3390932 -1.9204172
-18.360641 11.575744 -1.8989493
-27.779556 17.527596 -1.7214345
-40.402283 25.51165 -0.83405048
-5.8099885 3.6800215 -1.8427917
-40.520927 25.675707 0.83733153
-7.3161254 4.6375813 -1.9998149
-8.5602417 5.4283028 -1.9702938
-10.30074 6.5370464 -1.9322786
-0.71392632 0.45324609 0.10383269
-13.206172 8.3873606 -1.9209048
-18.35376 11.66113 -1.9024355
-27.711464 17.620173 -1.7210158
-40.418697 25.709885 -0.8361448
-5.7987361 3.701318 -1.8433093
-40.56031 25.88954 0.83991456
-7.3023486 4.6628656 -2.0002646
-8.5379314 5.456038 -1.9695306
-10.293984 6.5807452 -1.9350946
-0.71576411 0.45775011 0.10432017
-13.188318 8.4375267 -1.9223672
-18.316298 11.727274 -1.9027841
-27.679787 17.729204 -1.7226905
-40.429718 25.915565 -0.83823907
-5.7978048 3.7278407 -1.8469328
-40.513412 26.059099 0.84082204
-7.2745552 4.6809459 -1.9971154
-8.514843 5.4811301 -1.9683858
-10.259327 6.6091499 -1.9329045
-0.71416187 0.46024582 0.10432017
-13.155451 8.4813566 -1.9218796
-18.280655 11.790109 -1.9031327
-27.651299 17.847374 -1.7247839
-40.402836 26.097776 -0.83956546
-5.763679 3.7344015 -1.8402034
-40.455761 26.222111 0.84152013
-7.2696171 4.7137322 -2.0002646
-8.502244 5.5150948 -1.9699122
-10.241163 6.6481476 -1.933843
-0.71255094 0.46273595 0.10432017
-13.144076 8.5391226 -1.9245608
-18.252754 11.862535 -1.9045273
-27.605576 17.954678 -1.7258307
-40.381882 26.284454 -0.84103149
-5.8104601 3.7935741 -1.8593562
-40.497921 26.450651 0.84431255
-7.2580147 4.7422757 -2.0016146
-8.4895153 5.549036 -1.9714386
-10.216242 6.682775 -1.9335302
-0.71093136 0.46522039 0.10432017
-13.122494 8.5903893 -1.9257796
-18.24457 11.948007 -1.9080135
-27.526028 18.039982 -1.7247839
-40.386871 26.488867 -0.84305596
-5.8004103 3.8159568 -1.8603914
-40.465481 26.63142 0.84556907
-7.228394 4.7590108 -1.9980152
-8.4700937 5.5786366 -1.9714386
-10.192853 6.7183952 -1.9335302
-0.70598859 0.46551368 0.10383269
-13.089114 8.633954 -1.925292
-18.192774 12.005036 -1.9069676
-27.482885 18.149162 -1.7260401
-40.354221 26.669374 -0.84431255
-5.7854452 3.8351123 -1.8598738
-40.478935 26.843243 0.847803
-7.2117376 4.7842135 -1.9980152
-8.4505701 5.6081672 -1.9714386
-10.182504 6.7626777 -1.9360331
-0.69939911 0.46467939 0.10310147
-13.068813 8.6861868 -1.9267545
-18.183941 12.090532 -1.9104539
-27.439322 18.258266 -1.7272961
-40.357422 26.87435 -0.84633702
-5.8073654 3.8788903 -1.8712618
-40.448162 27.026604 0.84912938
-7.2047153 4.8158541 -2.0007145
-8.4276772 5.635448 -1.9706753
-10.165402 6.8025723 -1.9372847
-0.7027216 0.47043091 0.10383269
-13.051609 8.7405901 -1.9287045
-18.158178 12.165017 -1.9121969
-27.382055 18.358383 -1.7277148
-40.346386 27.070778 -0.84808224
-5.772954 3.8851178 -1.8645325
-40.456429 27.23686 0.8512935
-7.1846285 4.8387976 -1.9998149
-8.4079533 5.664834 -1.9706753
-10.144871 6.8402238 -1.9379103
-0.69942933 0.47177109 0.10358895
-13.024312 8.7883139 -1.9291918
-18.112303 12.226098 -1.9118483
-27.288019 18.433723 -1.7258307
-40.28809 27.236086 -0.84885013
-5.7577591 3.9041603 -1.8640147
-40.410748 27.411589 0.85234064
-7.1644692 4.8616586 -1.9989151
-8.3930025 5.6974554 -1.9718202
-10.120931 6.875597 -1.9379103
-0.69942021 0.47532535 0.10383269
-13.009971 8.8448839 -1.9316292
-18.089281 12.302697 -1.9139401
-27.263134 18.555838 -1.7283428
-40.275417 27.432831 -0.85059541
-5.760047 3.9351325 -1.8691912
-40.430386 27.631468 0.85478395
-7.1474547 4.8866382 -1.9989151
-8.3730631 5.7267179 -1.9718202
-10.103392 6.9153452 -1.9391619
-0.68792921 0.47103485 0.10237025
-12.975742 8.8880005 -1.9311417
-18.056089 12.372519 -1.9149859
-27.175131 18.635084 -1.7268775
-40.275043 27.638882 -0.85261989
-5.7462759 3.955215 -1.8691912
-40.333694 27.772417 0.85478395
-7.1335635 4.9137688 -1.9998149
-8.3546391 5.7570248 -1.9722018
-10.07919 6.9505706 -1.9391619
-0.7026208 0.48470551 0.10480764
-12.957708 8.9422607 -1.9330916
-18.042307 12.455849 -1.9181236
-27.142778 18.752533 -1.7289709
-40.25069 27.829338 -0.85415566
-5.7371974 3.9785504 -1.8707441
-40.400803 28.027035 0.85827446
-7.1179681 4.9397502 -2.0002646
-8.3312683 5.7839117 -1.9714386
-10.061355 6.9902186 -1.9404132
-0.69766462 0.48488921 0.10432017
-12.926414 8.9874372 -1.9330916
-18.005259 12.523302 -1.9188207
-27.080439 18.849442 -1.7291801
-40.236954 28.017509 -0.85583109
-5.7248578 3.999661 -1.8712618
-40.428944 28.245604 0.86085743
-7.0999513 4.9622111 -1.9998149
-8.3126354 5.8140855 -1.9718202
-10.042975 7.0269437 -1.941352
-0.71231568 0.49858326 0.10675755
-12.89654 9.0302534 -1.9330916
-17.948385 12.576925 -1.9174263
-27.043949 18.957483 -1.730855
-40.230591 28.222095 -0.85778576
-5.7210436 4.0252924 -1.8743677
-40.372616 28.416481 0.86176491
-7.0825877 4.9869628 -1.9998149
-8.2965202 5.8438783 -1.9725834
-10.018387 7.061955 -1.941352
-0.69759232 0.49191496 0.10480764
-12.881161 9.0866585 -1.9355291
-17.942392 12.661649 -1.9212611
-26.944981 19.028728 -1.7287614
-40.22654 28.429304 -0.85981029
-5.6738591 4.0217791 -1.8634971
-40.305809 28.58036 0.86246306
-7.0651369 5.0116558 -1.9998149
-8.2792711 5.8750777 -1.9733468
-10.000116 7.1014571 -1.9426033
-0.69910759 0.49664631 0.10529512
-12.865546 9.1430635 -1.9379665
-17.904581 12.728821 -1.9219584
-26.910942 19.145824 -1.730855
-40.201992 28.6229 -0.86141586
-5.6487813 4.0337 -1.8598738
-40.335972 28.813869 0.86525542
-7.0507698 5.0385532 -2.0007145
-8.2587147 5.9039407 -1.9733468
-9.9800854 7.1397719 -1.943542
-0.70059836 0.50139403 0.1057826
-12.827096 9.1832952 -1.9369916
-17.885952 12.809808 -1.9247475
-26.788757 19.200081 -1.7272961
-40.192829 28.828325 -0.86337054
-5.6660318 4.0759559 -1.8702265
-40.397461 29.071299 0.86874592
-7.0426288 5.0699658 -2.0034139
-8.226903 5.9247012 -1.9706753
-9.9615135 7.1791835 -1.9447935
-0.6988439 0.50383657 0.1057826
-12.811062 9.2396269 -1.9394289
-17.84436 12.874496 -1.925096
-26.844633 19.382336 -1.7352512
-40.173004 29.026997 -0.86511582
-5.6517692 4.0957093 -1.8702265
-40.295734 29.212137 0.86874592
-7.0201554 5.0910869 -2.0020645
-8.2157068 5.9603004 -1.972965
-9.9299984 7.20927 -1.943542
-0.70671803 0.51327211 0.10724504
-12.778729 9.2842932 -1.9394289
-17.815432 12.948416 -1.9268392
-26.757429 19.461828 -1.733995
-40.165203 29.235306 -0.86714023
-5.612474 4.097187 -1.8619443
-40.355007 29.470549 0.87223637
-6.9976201 5.1121116 -2.0007145
-8.1964378 5.9900994 -1.9733468
-9.9079609 7.2462201 -1.9441677
-0.70171767 0.51339185 0.10675755
-12.762265 9.3405638 -1.9418663
-17.773338 13.012878 -1.9271878
-26.692558 19.557463 -1.7342044
-40.143536 29.434464 -0.86888552
-5.6160922 4.1314688 -1.868156
-40.246727 29.618252 0.87223637
-6.9804068 5.1388807 -2.0011647
-8.1712646 6.0177732 -1.9725834
-9.8845167 7.2848306 -1.9447935
-0.69663584 0.51360416 0.10627007
-12.731139 9.3896332 -1.9423537
-17.757587 13.101591 -1.930674
-26.704243 19.716862 -1.7396474
-40.146713 29.652817 -0.87118924
-5.6125016 4.1590977 -1.8717794
-40.308952 29.870611 0.87572682
-6.9648938 5.1631598 -2.0016146
-8.1580944 6.0521069 -1.9744916
-9.8698215 7.3246322 -1.9466707
-12.693557 9.4270658 -1.9413787
-17.718143 13.168252 -1.9313713
-26.625896 19.795771 -1.7388101
-40.116764 29.847683 -0.87279487
-5.6172581 4.1915512 -1.8779911
-40.204437 30.011137 0.87572682
-6.9468269 5.1874418 -2.0016146
-8.128541 6.0720792 -1.9722018
-9.850523 7.363771 -1.9479222
-27.928434 20.885536 4.2820015
-12.673291 9.4808283 -1.9433287
-17.696712 13.243649 -1.9338117
-26.559828 19.890985 -1.7390193
-40.146744 30.088274 -0.87572682
-5.5964155 4.20649 -1.8759204
-40.259254 30.271482 0.87921733
-6.934906 5.2163448 -2.0034139
-8.1182785 6.1086774 -1.9748732
-9.8184462 7.3933578 -1.9466707
-12.655971 9.5369587 -1.9457661
-17.653557 13.30774 -1.9341602
-26.512554 20.000416 -1.7404847
-40.188305 30.339066 -0.87893814
-5.5431929 4.1968474 -1.8629795
-40.312748 30.532564 0.88270783
-6.9151034 5.2393422 -2.0029643
-8.1015987 6.1405368 -1.9760182
-9.7957277 7.4299712 -1.9472965
-27.506783 20.871222 4.2395911
-12.635253 9.5906792 -1.947716
-17.622868 13.381327 -1.9359034
-26.455305 20.10251 -1.7413222
-40.174473 30.549377 -0.88096255
-5.4440217 4.151741 -1.8345095
-40.205933 30.673086 0.88270783
-6.8859282 5.2551727 -1.9998149
-8.0879154 6.1747379 -1.9779261
-9.779151 7.4713159 -1.9491737
-27.436913 20.969521 4.2400784
-12.6017 9.6347237 -1.947716
-17.585545 13.450023 -1.9369491
-26.451586 20.24571 -1.7457184
-40.115215 30.725906 -0.88200974
-6.8721776 5.2827406 -2.0011647
-8.0632019 6.2005367 -1.977163
-9.7655334 7.5150461 -1.9516766
-27.423325 21.111174 4.2493405
-12.567991 9.6786528 -1.947716
-17.560581 13.528353 -1.9393896
-26.355448 20.318411 -1.7440436
-40.102718 30.939026 -0.88410401
-5.4485192 4.2156529 -1.8458976
-6.8613987 5.3126621 -2.0034139
-8.0384045 6.2262411 -1.9763998
-9.7501726 7.5575576 -1.9538667
-27.776169 21.537638 4.3156376
-12.540404 9.7273312 -1.948691
-17.506958 13.58468 -1.9386923
-26.331682 20.447041 -1.7471838
-40.070271 31.13772 -0.88577944
-5.404819 4.2120838 -1.8360624
-40.194782 31.335875 0.88961899
-6.8474231 5.3401761 -2.0047638
-8.021265 6.257885 -1.9775445
-9.7175026 7.5866833 -1.9526151
-27.672657 21.612469 4.3112507
-12.515759 9.7783794 -1.9501534
-17.459433 13.645707 -1.9386923
-40.048691 31.334507 -0.88759446
-5.362731 4.2094526 -1.8267449
-40.147282 31.513435 0.89087552
-6.8266101 5.3604465 -2.0038638
-7.9978299 6.2846322 -1.977163
-9.6922913 7.6188664 -1.9526151
-27.600834 21.704117 4.3112507
-12.489503 9.8247395 -1.9511282
-17.449265 13.736147 -1.9428759
-40.039589 31.553329 -0.88982844
-5.9777384 4.7243204 -2.0415647
-40.137421 31.732767 0.8931095
-6.8048005 5.3818259 -2.0029643
-7.9877224 6.3196464 -1.9798342
-9.6780272 7.6624627 -1.9551181
-12.473803 9.88307 -1.9540532
-17.401213 13.796968 -1.9428759
-20.780622 16.48233 -1.3900431
-40.02943 31.772472 -0.89206231
-5.9634042 4.7486067 -2.0425999
-6.7829251 5.4031162 -2.0020645
-7.9660401 6.3501062 -1.9802158
-9.6514225 7.6991148 -1.9554311
-12.436126 9.9240761 -1.9535657
-17.359171 13.862604 -1.943573
-40.027622 31.999407 -0.89450562
-5.943779 4.7669749 -2.0415647
-40.0653 32.144295 0.89659989
-6.7706742 5.434041 -2.0043139
-7.930048 6.3668098 -1.9767814
-9.6352673 7.7414184 -1.9576212
-12.402765 9.9720745 -1.9540532
-17.316883 13.928109 -1.9442703
-39.994175 32.213631 -0.8963905
-5.9286051 4.7889075 -2.0420823
-40.108379 32.409649 0.9000904
-6.7562122 5.4613156 -2.0056636
-7.9154091 6.4006252 -1.9786894
-9.6081877 7.775003 -1.9576212
-12.39256 10.035298 -1.957953
-17.265068 13.98596 -1.9439217
-25.987682 21.066952 -1.7532547
-39.996403 32.446266 -0.89897346
-5.9088554 4.8071351 -2.0410471
-40.026031 32.574692 0.90078849
-6.7446637 5.4910183 -2.0079131
-7.9112844 6.4430928 -1.9832687
-9.5702705 7.7997589 -1.9554311
-12.359214 10.076339 -1.957953
-17.250105 14.073852 -1.9477565
-25.892328 21.139854 -1.7517892
-39.870003 32.563545 -0.89855462
-5.8988605 4.8316002 -2.0431178
-6.7098389 5.4997659 -2.0029643
-7.8853211 6.4655585 -1.982124
-9.5596237 7.8439827 -1.9585598
-26.044693 21.378124 4.1372209
-12.31039 10.104671 -1.9555157
-17.194101 14.123389 -1.9467106
-25.908485 21.296623 -1.757651
-39.851379 32.769241 -0.90057904
-5.8828058 4.8511353 -2.0431178
-39.932522 32.941231 0.9035809
-6.699079 5.5281882 -2.0052137
-7.8714066 6.497921 -1.984032
-9.5350819 7.8768988 -1.9588726
-12.290341 10.16023 -1.957953
-17.1754 14.208723 -1.9501969
-25.788479 21.341675 -1.7543013
-39.847637 32.999981 -0.90309221
-5.8545842 4.8640227 -2.0394943
-6.6782432 5.5502934 -2.0047638
-7.8414998 6.5217061 -1.9825056
-9.5122232 7.9168468 -1.9601241
-12.270057 10.215771 -1.9603903
-17.1257 14.268586 -1.9501969
-25.737701 21.459064 -1.7561854
-39.818192 33.210613 -0.90504688
-5.8316431 4.8794708 -2.0374236
-39.849117 33.354488 0.90707141
-6.6713018 5.5859923 -2.0088129
-7.8277173 6.5566025 -1.9847952
-9.4905834 7.95508 -1.9613756
-25.495399 21.378017 4.0853047
-12.244702 10.270878 -1.9623404
-17.081892 14.333407 -1.9508941
-25.73912 21.612997 -1.7614192
-39.852371 33.487541 -0.90860724
-5.8145757 4.899796 -2.0374236
-6.6487827 5.6067328 -2.0079131
-7.807785 6.5864167 -1.9855584
-9.4627571 7.9881606 -1.9613756
-25.294743 21.360573 4.0650744
-12.214838 10.318684 -1.9633152
-17.043928 14.403236 -1.9522886
-25.645216 21.687235 -1.7601629
-39.808498 33.688454 -0.91028261
-5.8003826 4.9225631 -2.0384588
-6.6262016 5.6273837 -2.0070133
-7.7907319 6.6187158 -1.987085
-9.4363232 8.0224209 -1.9616885
-25.123245 21.36643 4.0494747
-12.181767 10.363832 -1.9638027
-17.002651 14.47039 -1.9533345
-25.599768 21.802523 -1.7622565
-39.818336 33.924023 -0.91307497
-5.7831645 4.94278 -2.0384588
-39.959579 34.152828 0.91754282
-6.6030602 5.6455269 -2.0056636
-7.7645969 6.6433177 -1.9863218
-9.4156666 8.0588083 -1.9629399
-12.150349 10.406754 -1.9642901
-16.964142 14.540022 -1.954729
-25.539455 21.897694 -1.7630938
-39.745216 34.101868 -0.91412216
-5.7696705 4.9644508 -2.0394943
-6.5906973 5.6748991 -2.0079131
-7.7454991 6.6715918 -1.987085
-9.3919706 8.0954943 -1.9638785
-24.012053 20.704712 3.8929946
-12.131987 10.464664 -1.9672151
-16.936951 14.61442 -1.9571693
-25.514259 22.031094 -1.7666527
-39.765079 34.348515 -0.91719377
-5.7464671 4.9794984 -2.0374236
-39.877319 34.554977 0.92103332
-6.580677 5.7043824 -2.0106125
-7.7251272 6.7011628 -1.9878482
-9.3710403 8.131773 -1.96513
-24.01222 20.844086 3.9042068
-12.109208 10.515249 -1.9691651
-16.958019 14.736181 -1.9655364
-25.441063 22.115582 -1.7666527
-39.768654 34.59473 -0.92005599
-5.7296324 5.0017991 -2.0379412
-6.5499196 5.7219157 -2.0079131
-7.7079077 6.7358899 -1.9897563
-9.3442087 8.1715965 -1.9660686
-12.074718 10.566897 -1.97014
-16.978849 14.863855 -1.9742517
-25.401026 22.252586 -1.7697929
-39.764847 34.860546 -0.92305779
-5.7106872 5.0204921 -2.0374236
-6.5240536 5.7395959 -2.0061135
-7.6769791 6.7562695 -1.9878482
-9.3096972 8.1989412 -1.964817
-24.138803 21.266245 3.9500296
-12.055633 10.624728 -1.9730648
-17.046421 15.02844 -1.9881967
-25.308222 22.3279 -1.7687461
-39.741844 35.086494 -0.92536151
-5.7061453 5.0519204 -2.0420823
-6.5098133 5.7675033 -2.0079131
-7.6562891 6.7856293 -1.9886116
-9.2957993 8.2444963 -1.9679458
-12.015503 10.664112 -1.9725773
-17.026636 15.116954 -1.9920316
-25.283876 22.46386 -1.7725142
-39.685066 35.271221 -0.92675769
-5.6740556 5.0589538 -2.036906
-6.4935603 5.7916536 -2.0088129
-7.6413431 6.8201594 -1.9909012
-9.2713556 8.2779083 -1.9685715
-11.987474 10.710512 -1.9737961
-16.926241 15.133797 -1.9864537
-25.221159 22.558237 -1.7733518
-39.677933 35.513557 -0.92948025
-5.6601253 5.0803213 -2.0379412
-6.4820037 5.8220968 -2.0115123
-7.6157627 6.8428369 -1.9901379
-9.2482815 8.3155022 -1.9698231
-11.951489 10.753617 -1.9740397
-16.830053 15.148523 -1.98105
-25.204588 22.702276 -1.777748
-39.657696 35.745564 -0.93192363
-5.6423554 5.1000495 -2.0379412
-6.4529705 5.8368444 -2.0088129
-7.5976539 6.8746486 -1.9916644
-9.222127 8.3503866 -1.9704487
-11.916824 10.797935 -1.9745274
-16.720972 15.156336 -1.9744262
-25.128151 22.792799 -1.7779572
-39.64817 35.988609 -0.93464613
-5.6302342 5.1249142 -2.0400119
-16.968039 15.450554 0.40056765
-6.4267931 5.8540874 -2.0070133
-16.944929 15.440333 1.2014244
-7.5750623 6.9024477 -1.992046
-9.1914606 8.3811979 -1.9701359
-11.854131 10.816719 -1.9703838
-16.603216 15.155509 -1.9667566
-24.992397 22.829185 -1.7739797
-39.63744 36.232018 -0.93736875
-5.6137342 5.1458416 -2.0405295
-16.96706 15.558343 0.40182421
-6.4106283 5.8804355 -2.008363
-16.945377 15.549351 1.2052971
-7.5538149 6.9315023 -1.9928092
-9.16506 8.4159012 -1.9707617
-11.830915 10.871468 -1.9728212
-16.491545 15.159436 -1.959784
-24.99781 22.99472 -1.7800506
-39.631367 36.481213 -0.94023097
-5.5914788 5.1614752 -2.0389764
-16.975821 15.67581 0.40332511
-6.3914938 5.9040995 -2.0088129
-16.952606 15.665338 1.2096933
-7.5252485 6.9538312 -1.9916644
-9.1399784 8.4518661 -1.9717003
-11.808924 10.927526 -1.9755023
-16.356647 15.141115 -1.9500225
-24.932045 23.095406 -1.7810974
-39.644558 36.749847 -0.94358182
-5.5734291 5.1809602 -2.0389764
-16.973715 15.783994 0.4045817
-6.3736982 5.929028 -2.0097127
-16.954844 15.777483 1.2137756
-7.5066776 6.9854069 -1.9931908
-9.1133118 8.486412 -1.972326
-11.788135 10.984921 -1.9784272
-16.254145 15.15193 -1.944096
-24.842514 23.174122 -1.7804693
-39.574505 36.942593 -0.944978
-5.5538983 5.1990652 -2.0384588
-16.965223 15.886887 0.40569863
-6.3486991 5.9472427 -2.008363
-16.962332 15.895296 1.2182765
-7.4879775 7.0169373 -1.9947174
-9.0836344 8.5181694 -1.972326
-11.758403 11.034152 -1.9798895
-21.224577 19.924232 4.6107497
-16.128525 15.140394 -1.9353805
-24.813877 23.309927 -1.7842376
-39.57645 37.203766 -0.94811946
-5.5511794 5.2329969 -2.044153
-16.964952 15.998139 0.40702501
-6.3307333 5.972043 -2.0092628
-16.943058 15.988677 1.2208933
-7.4705782 7.0497704 -1.9966254
-9.056715 8.5525398 -1.9729517
-11.725589 11.080582 -1.9808645
-16.013317 15.137746 -1.9278849
-5.5258746 5.2456908 -2.0415647
-16.981508 16.126112 0.40877026
-6.3155003 5.999474 -2.0110624
-16.959538 16.11651 1.2261269
-7.4501944 7.0798593 -1.9977702
-9.02108 8.5786572 -1.9717003
-11.689713 11.124184 -1.981352
-15.905542 15.14135 -1.9212611
-16.986107 16.181305 -1.2294763
-5.5159087 5.2729578 -2.0446706
-6.3057861 6.0322585 -2.0146616
-7.416925 7.0976782 -1.9954805
-9.0096292 8.6278543 -1.9757676
-11.665142 11.178655 -1.9837892
-15.779243 15.126457 -1.9123713
-24.542471 23.543608 -1.7823534
-39.542446 37.959602 -0.95677584
-5.4932938 5.2881608 -2.0431178
-6.2790766 6.0488248 -2.012862
-7.3949304 7.1262522 -1.9962438
-8.9851446 8.6647348 -1.977019
-11.640337 11.233088 -1.9862267
-15.667574 15.124712 -1.9052244
-18.527536 17.898085 -1.3500584
-18.522568 17.899527 -0.44960889
-5.4817362 5.3140264 -2.0457058
-18.442738 17.878496 0.44835231
-6.257585 6.0682573 -2.0124121
-18.46134 17.909033 1.347965
-7.3756466 7.1574888 -1.9977702
-8.9549437 8.6931076 -1.9767061
-11.59448 11.26333 -1.9847643
-21.191658 20.593594 4.6802068
-15.546107 15.112652 -1.8968576
-18.399351 17.89259 -1.3450342
-18.382582 17.888769 -0.44772404
-5.4557896 5.324079 -2.0425999
-18.360184 17.923208 0.44786364
-6.2266045 6.080533 -2.0092628
-18.418715 17.992905 1.3494304
-7.351871 7.1819086 -1.9977702
-8.9259567 8.7256947 -1.977019
-11.560768 11.309286 -1.9857392
-15.440373 15.109771 -1.8900594
-18.308247 17.928755 -1.3429408
-18.322882 17.955626 -0.44779384
-5.4481936 5.3539248 -2.046741
-18.288952 17.978777 0.44765425
-6.2095122 6.106329 -2.0106125
-18.407053 18.107513 1.3531986
-7.3267565 7.2075272 -1.9977702
-8.909524 8.7706556 -1.9801477
-11.526875 11.355144 -1.9867141
-15.34354 15.120228 -1.8846557
-18.180136 17.928043 -1.3381258
-18.157618 17.918343 -0.4452807
-5.4280977 5.3715506 -2.0462234
-18.049864 17.868057 0.44332603
-6.1923113 6.1320825 -2.0119622
-18.006031 17.837122 1.3282866
-7.2987633 7.2302957 -1.997007
-8.8774481 8.8003139 -1.9798348
-11.504084 11.412086 -1.989639
-15.234099 15.117555 -1.8776833
-17.984228 17.859106 -1.3282866
-17.964464 17.851938 -0.44206947
-5.3970003 5.3781919 -2.0415647
-17.892498 17.836367 0.44098741
-6.1763887 6.1591649 -2.013762
-17.870134 17.826513 1.3228438
-7.2818217 7.2640471 -1.9992968
-20.818949 20.775391 2.5731862
-8.8466759 8.8312483 -1.9798348
-11.475411 11.4634 -1.991589
-15.11077 15.100224 -1.8689677
-17.869524 17.86952 -1.3244139
-17.84691 17.859371 -0.44070816
-5.3863759 5.4052086 -2.0446706
-17.756737 17.82505 0.43917236
-6.1493521 6.1751618 -2.0119622
-17.747208 17.827917 1.3183428
-7.2591906 7.2922039 -2.0000601
-8.811614 8.8578739 -1.9788963
-11.438124 11.506201 -1.9920764
-15.01022 15.104829 -1.8630412
-17.716969 17.841087 -1.3177148
-17.691496 17.827879 -0.43840444
-5.370193 5.4267244 -2.0457058
-17.633938 17.82579 0.43767145
-6.1195369 6.1882753 -2.0092628
-17.616062 17.820166 1.3132139
-7.2502527 7.3342552 -2.0046394
-8.7945261 8.9026299 -1.982025
-11.395101 11.543233 -1.991589
-20.780708 21.058187 4.6858382
-14.928017 15.127347 -1.8593806
-17.595682 17.843096 -1.3133186
-17.587048 17.846796 -0.43735731
-5.3512173 5.4454365 -2.0457058
-17.508547 17.823044 0.43610072
-6.1115532 6.2235041 -2.013762
-17.457211 17.783203 1.3059915
-7.2163553 7.3511128 -2.0023496
-8.7703123 8.9403248 -1.9835892
-20.628691 21.035929 3.6175699
-11.360299 11.588607 -1.9925638
-14.854199 15.158023 -1.8567659
-17.45504 17.824492 -1.307457
-17.44912 17.8309 -0.43547246
-5.3443193 5.4765267 -2.0503645
-17.386181 17.8225 0.43459982
-6.0952325 6.250381 -2.0155613
-17.353207 17.801125 1.3028514
-7.1906524 7.3762565 -2.0023496
-20.504602 21.041208 2.5703971
-8.743185 8.9751329 -1.9845279
-20.505281 21.056606 3.6087954
-11.317009 11.625346 -1.9920764
-14.817872 15.226915 -1.8588576
-17.334232 17.825174 -1.3030608
-17.310127 17.812822 -0.43355268
-5.307693 5.4771132 -2.0436354
-17.234819 17.791157 0.43236592
-6.0693116 6.2674189 -2.0142117
-17.206224 17.774057 1.2964665
-7.1675911 7.4041328 -2.0031128
-8.7172976 9.0112734 -1.9857793
-20.550333 21.250776 3.6297569
-11.290154 11.679054 -1.9945139
-14.795094 15.310065 -1.8626926
-17.209467 17.820927 -1.2983505
-17.186743 17.809824 -0.43201688
-5.283185 5.4900379 -2.0415647
-17.126858 17.803656 0.43121406
-6.0528002 6.2941852 -2.0160115
-17.109472 17.798012 1.2938497
-7.1512265 7.439014 -2.0057843
-8.6844206 9.0402231 -1.9854665
-20.511778 21.359608 3.6360941
-11.260318 11.729847 -1.9964637
-14.747079 15.367367 -1.8633897
-17.078041 17.808811 -1.2931169
-17.077423 17.820623 -0.43083009
-5.2746658 5.5196199 -2.0457058
-16.990017 17.78525 0.42932919
-6.0267544 6.3110466 -2.0146616
-16.976906 17.783949 1.2885114
-7.1279268 7.4667726 -2.0065475
-8.6623564 9.0804882 -1.9876565
-11.230262 11.780577 -1.9984137
-14.67685 15.40144 -1.861298
-16.96343 17.813353 -1.2891394
-16.958601 17.820732 -0.42939901
-5.2540355 5.5365987 -2.0451882
-16.889294 17.803825 0.42835185
-6.0033488 6.3306303 -2.0142117
-16.861137 17.786573 1.2844292
-7.1045208 7.4944577 -2.0073106
-8.6333256 9.1135368 -1.9882823
-11.175423 11.805289 -1.9959762
-14.612044 15.441001 -1.8599035
-16.82979 17.796999 -1.2836965
-16.818003 17.796976 -0.42740944
-5.2413015 5.5619345 -2.0477762
-16.74478 17.775335 0.42625758
-5.9905643 6.3614802 -2.0173612
-16.716806 17.758064 1.2781489
-7.0756259 7.5163527 -2.0065475
-8.6176996 9.1608849 -1.9920367
-11.145028 11.855797 -1.9979262
-14.555326 15.48901 -1.8595549
-16.719713 17.804676 -1.280033
-16.695568 17.79141 -0.42587361
-5.2218561 5.580195 -2.0477762
-16.625256 17.772345 0.4247916
-5.9683218 6.3823528 -2.0173612
-16.615166 17.773993 1.2751133
-7.0547094 7.5467405 -2.0080738
-8.576231 9.1808062 -1.9898466
-11.106281 11.897532 -1.9984137
-19.645538 21.052523 4.5606909
-14.490297 15.52807 -1.8581605
-16.578453 17.778215 -1.273962
-16.55566 17.766191 -0.42388406
-5.1957707 5.5913134 -2.0451882
-16.501867 17.764343 0.42322087
-5.9460082 6.4031458 -2.0173612
-16.4909 17.758743 1.2700891
-7.0363374 7.5799537 -2.0103636
-8.5508509 9.217926 -1.991411
-11.074866 11.943027 -1.999876
-14.441425 15.584398 -1.8588576
-16.455229 17.770029 -1.2692517
-16.459974 17.781372 -0.42294163
-5.1798205 5.6113515 -2.0462234
-16.384558 17.755772 0.42171997
-5.9194565 6.4170985 -2.0155613
-16.379105 17.756077 1.2660068
-7.0085006 7.600359 -2.0096004
-8.522912 9.249136 -1.9920367
-11.045961 11.991369 -2.001826
-14.386968 15.629272 -1.8585091
-16.328602 17.751003 -1.2640181
-16.321058 17.74901 -0.42088223
-5.1624899 5.6299214 -2.046741
-16.270185 17.749569 0.42028886
-5.9073591 6.4467502 -2.0187106
-16.253616 17.743923 1.2610873
-6.9832582 7.6235585 -2.0096004
-8.4988632 9.2846346 -1.9936011
-11.009395 12.035711 -2.0028009
-14.332371 15.673954 -1.8581605
-16.218451 17.749027 -1.2600405
-16.2199 17.76305 -0.41986999
-5.1467085 5.6521931 -2.0482941
-16.152939 17.745625 0.41885778
-5.8874435 6.4702148 -2.0196106
-16.125729 17.728155 1.2559584
-6.9566045 7.6478882 -2.0096004
-8.4743729 9.3230152 -1.9954783
-10.967314 12.074068 -2.0028009
-14.25882 15.703239 -1.85572
-16.09198 17.734531 -1.2550163
-16.082575 17.736603 -0.41791531
-5.1126957 5.6543608 -2.0425999
-16.045305 17.751461 0.41767099
-5.867434 6.493618 -2.0205104
-16.019571 17.735422 1.2525042
-6.9364471 7.6794081 -2.0115087
-8.4404545 9.3510733 -1.9951655
-10.941057 12.129969 -2.0057259
-14.195832 15.749474 -1.8550228
-15.983182 17.738663 -1.2513529
-15.979079 17.746569 -0.41683328
-5.103549 5.6860018 -2.0472586
-15.911115 17.727003 0.41578615
-5.8447332 6.5140586 -2.0205104
-15.900216 17.727304 1.2480034
-6.9121838 7.7091665 -2.0126534
-8.4034882 9.3790045 -1.9945397
-10.909244 12.179915 -2.0076756
-14.143426 15.8019 -1.8553714
-15.860801 17.733116 -1.2468519
-15.851729 17.729191 -0.41512296
-5.0862422 5.7066655 -2.0482941
-15.799479 17.732941 0.41456446
-5.8143368 6.528162 -2.0182607
-15.78112 17.718567 1.2435024
-6.8878441 7.7361784 -2.0134165
-8.3838282 9.4230394 -1.9976684
-10.875081 12.231688 -2.0096257
-14.077594 15.839262 -1.853977
-15.743104 17.725649 -1.2424557
-15.745933 17.735069 -0.4139711
-5.0598898 5.7171521 -2.0457058
-15.6783 17.714857 0.41292396
-5.7952394 6.5503273 -2.0191607
-15.662282 17.709209 1.2390016
-6.8646989 7.7645874 -2.0145614
-8.3564587 9.4552298 -1.998607
-10.826576 12.258752 -2.0081632
-14.016949 15.882327 -1.8532797
-15.630061 17.716352 -1.2381642
-15.617809 17.714926 -0.41222584
-5.038352 5.730998 -2.0446706
-15.5728 17.719912 0.4117721
-5.780057 6.579299 -2.0218601
-15.547653 17.703747 1.2348148
-6.8324351 7.779933 -2.0126534
-8.3260107 9.4873095 -1.9992328
-10.778481 12.290504 -2.0071883
-13.964203 15.928722 -1.8532797
-15.528641 17.725735 -1.2350241
-15.501879 17.707644 -0.41079476
-5.0157752 5.7456398 -2.0436354
-15.447743 17.701839 0.41009665
-5.7570558 6.5994353 -2.0218601
-15.438502 17.70372 1.2310464
-6.8078165 7.8066945 -2.0134165
-8.2876511 9.5103579 -1.9979812
-10.756372 12.352005 -2.0110881
-13.900665 15.968352 -1.8522338
-15.406372 17.710514 -1.2302091
-15.390115 17.704302 -0.40946838
-4.998219 5.7660332 -2.0446706
-15.326928 17.687649 0.40852594
-5.733984 6.6194911 -2.0218601
-15.333466 17.707678 1.2275923
-6.7856655 7.8363481 -2.0149431
-8.259573 9.5452042 -1.9992328
-10.715788 12.392476 -2.0115755
-13.850052 16.022806 -1.852931
-15.290932 17.702213 -1.2259176
-15.27726 17.698877 -0.40810707
-4.9856229 5.7922292 -2.0477762
-15.224661 17.694052 0.40744388
-5.7083015 6.6365113 -2.0209603
-15.211661 17.691429 1.2227774
-6.7633901 7.8659415 -2.0164697
-8.2300663 9.5784731 -2.0001712
-10.667293 12.423782 -2.0106006
-13.778466 16.052914 -1.8508393
-15.165331 17.681196 -1.2207886
-15.151625 17.677698 -0.40639675
-4.9729056 5.8184075 -2.0508821
-15.108253 17.683229 0.40597787
-5.6876302 6.6593618 -2.0218601
-15.098428 17.677994 1.2183812
-6.7397175 7.8939805 -2.0176144
-8.2042713 9.6161613 -2.0020485
-10.623863 12.46094 -2.0106006
-13.724928 16.103949 -1.8511879
-15.05819 17.680811 -1.2171251
-15.060508 17.689785 -0.40552413
-4.9475636 5.8298411 -2.0488117
-14.997766 17.672253 0.4045817
-5.6692991 6.6826429 -2.0232098
-14.981083 17.665085 1.2138803
-6.7032323 7.9069772 -2.0149431
-8.1736164 9.6448202 -2.0023613
-10.60044 12.517313 -2.0140131
-13.663485 16.145672 -1.8504907
-14.947881 17.669651 -1.2129382
-14.927667 17.658253 -0.40360436
-4.9194899 5.8358746 -2.0451882
-14.890893 17.670973 0.40336004
-5.6509614 6.7083526 -2.0250094
-14.871734 17.660744 1.2100074
-6.6769762 7.9291606 -2.0149431
-8.1411743 9.6748028 -2.0026743
-10.549013 12.545126 -2.0125504
-13.599618 16.17869 -1.8490963
-14.834723 17.660553 -1.2087513
-14.826085 17.662766 -0.4025223
-4.8990874 5.853013 -2.0451882
-14.766233 17.647699 0.40164968
-5.6212573 6.7205653 -2.0227599
-14.771556 17.666586 1.2068673
-6.6568117 7.9614582 -2.0172329
-8.1086168 9.7046804 -2.0029871
-10.525517 12.606252 -2.0164504
-13.555821 16.241362 -1.8508393
-14.726936 17.657009 -1.2049831
-14.719525 17.660652 -0.40130064
-4.8922105 5.8864202 -2.0508821
-14.673878 17.662216 0.40081197
-5.597765 6.7401443 -2.0227599
-14.651116 17.647348 1.2020524
-6.6339989 7.9906878 -2.0187593
-8.0734339 9.7314034 -2.0026743
-10.47385 12.633744 -2.0149879
-13.486338 16.273239 -1.8490963
-14.614259 17.646774 -1.2007962
-14.619536 17.665714 -0.4002535
-4.8728614 5.9049525 -2.0513999
-14.557412 17.647003 0.39931107
-5.5779238 6.7641521 -2.0241096
-14.543687 17.642906 1.1982843
-6.601068 8.0077372 -2.0172329
-8.0431843 9.7640972 -2.0036128
-10.437253 12.679426 -2.0164504
-13.42439 16.314058 -1.8483989
-14.511973 17.648319 -1.1974468
-14.504465 17.651743 -0.39878747
-4.8424253 5.9099708 -2.0472586
-14.448845 17.640469 0.39801958
-5.5629187 6.794137 -2.0272589
-14.436475 17.637922 1.1945159
-6.5730772 8.0307293 -2.0172329
-8.0153036 9.7997618 -2.0051773
-10.402981 12.728074 -2.0184002
-13.364836 16.357737 -1.8480502
-14.413654 17.653997 -1.1944113
-14.393464 17.641834 -0.39742622
-4.8193293 5.9238396 -2.0462234
-14.343025 17.636496 0.39679793
-5.5403962 6.8150282 -2.027709
-14.328217 17.630856 1.1906432
-6.5524354 8.0627651 -2.0195224
-7.9847798 9.8322821 -2.0061157
-10.36349 12.770479 -2.0193753
-13.30012 16.39501 -1.8470045
-14.306659 17.648354 -1.1906432
-14.286476 17.636036 -0.39616963
-4.7998338 5.9421301 -2.046741
-14.21981 17.610222 0.39508757
-5.5116792 6.8282595 -2.0259092
-14.222686 17.626366 1.1869795
-6.5328794 8.0962849 -2.0221939
-7.9454532 9.8539419 -2.0048645
-10.331306 12.822031 -2.0218124
-13.237815 16.435127 -1.8463073
-14.204898 17.648394 -1.1872936
-14.188484 17.640604 -0.39515737
-4.7838988 5.9648762 -2.0488117
-14.128237 17.622305 0.39424986
-5.4865932 6.8459358 -2.0254593
-14.121115 17.626022 1.1836301
-6.4984426 8.1113777 -2.0202856
-7.922121 9.8954935 -2.0076802
-10.288961 12.861118 -2.0223
-13.172901 16.471895 -1.8452613
-14.080858 17.619862 -1.18206
-14.081894 17.633776 -0.39390081
-4.7618432 5.9800282 -2.0482941
-14.016818 17.608936 0.39285365
-5.4626617 6.865047 -2.0254593
-13.997331 17.597057 1.1783965
-6.4810858 8.1478415 -2.0237205
-7.8887572 9.9246359 -2.007993
-10.244008 12.896954 -2.0223
-13.117797 16.520903 -1.8456099
-13.978305 17.617271 -1.1786058
-13.964352 17.612309 -0.39233011
-4.7421393 5.9981289 -2.0488117
-13.919312 17.612255 0.39184144
-5.4471192 6.8947792 -2.0286086
-13.908589 17.611322 1.1760937
-6.442872 8.1580877 -2.0206673
-7.8614054 9.9614182 -2.0098703
-10.213681 12.951335 -2.0252249
-13.057577 16.563465 -1.8452613
-13.866055 17.601631 -1.1743144
-13.855789 17.601236 -0.39100373
-4.7152071 6.0070481 -2.0462234
-13.810843 17.60095 0.39051506
-5.4266281 6.9183497 -2.0299582
-13.792801 17.590612 1.1714882
-6.4240451 8.1928892 -2.0237205
-7.8192773 9.9794674 -2.007993
-10.178197 12.999417 -2.0271747
-12.987403 16.59325 -1.8435181
-13.773764 17.610598 -1.1716975
-13.751162 17.594353 -0.38978207
-4.6965866 6.0265169 -2.0472586
-13.706305 17.593845 0.3892934
-5.3988552 6.9326363 -2.0286086
-13.704326 17.603977 1.1691853
-6.3978209 8.2183609 -2.0244837
-7.7819719 10.003581 -2.0073674
-10.137635 13.041133 -2.0281496
-12.922071 16.629042 -1.8424724
-13.668112 17.601776 -1.1679294
-13.660245 17.604328 -0.38894433
-4.6873446 6.0581527 -2.0524352
-13.603205 17.587803 0.38810661
-5.377008 6.9545217 -2.0295084
-13.598829 17.594814 1.1654172
-6.373899 8.2468548 -2.02601
-7.7614923 10.049448 -2.0111217
-10.092048 13.076443 -2.0281496
-12.856165 16.669985 -1.8417752
-13.555365 17.582949 -1.1635331
-13.555993 17.596462 -0.38772267
-4.6651077 6.0752931 -2.0524352
-13.501544 17.58284 0.38695475
-5.3526974 6.9732499 -2.0295084
-13.493552 17.585136 1.161649
-6.3340683 8.2577009 -2.0229571
-7.7246094 10.077826 -2.0111217
-10.053589 13.121044 -2.0296123
-12.796689 16.713175 -1.8416008
-13.456851 17.588097 -1.1606022
-13.455614 17.592842 -0.38660571
-4.6380177 6.083858 -2.0498469
-13.406711 17.592443 0.38608214
-5.3271012 6.9928226 -2.0295084
-13.38367 17.568584 1.1574621
-6.3159122 8.2938166 -2.0263917
-7.6965585 10.114161 -2.0129991
-10.015038 13.170446 -2.0315621
-12.732239 16.749813 -1.8407292
-13.356712 17.584072 -1.1572528
-13.345746 17.576004 -0.3852095
-4.6097555 6.0907693 -2.046741
-13.296401 17.568243 0.38458124
-5.3132901 7.022881 -2.0331075
-13.286123 17.567402 1.154322
-6.288105 8.3173809 -2.0267732
-7.6653605 10.142779 -2.0136247
-9.9760962 13.209921 -2.0325372
-12.671297 16.790972 -1.8403807
-13.262246 17.580433 -1.1541127
-13.25302 17.580963 -0.38430199
-4.591855 6.1091099 -2.0477762
-13.195351 17.561796 0.38342938
-5.2864046 7.0382681 -2.0322077
-13.189948 17.567352 1.1512865
-6.2628479 8.3413258 -2.0275364
-7.6382103 10.180533 -2.0158148
-9.9537363 13.276431 -2.0374119
-12.618585 16.843071 -1.8412522
-13.163679 17.577065 -1.1508678
-13.153234 17.575882 -0.38318503
-4.5763626 6.135191 -2.0508821
-13.092125 17.551645 0.38220772
-5.2606378 7.0551176 -2.0317578
-13.077216 17.544432 1.1467856
-6.2357502 8.3689489 -2.0286815
-7.6020222 10.210047 -2.0161276
-9.8907413 13.288798 -2.0339994
-12.55971 16.887018 -1.8412522
-13.050324 17.559465 -1.1465763
