# .PCD v0.7 - Point Cloud Data file format
VERSION 0.7
FIELDS x y z
SIZE 4 4 4
TYPE F F F
COUNT 1 1 1
WIDTH 1549
HEIGHT 1
VIEWPOINT 0 0 0 1 0 0 0
POINTS 1549
DATA ascii
-0.071777411 8.0632296 -2.1606214
-0.46831346 53.663784 0.93674052
-0.078682423 9.199666 -2.1239879
-0.090096936 10.75433 -2.0905035
-0.1031478 12.847437 -2.0348997
-0.12715775 16.189913 -1.9879328
-0.16678129 22.222486 -1.9442703
-0.23910569 33.413288 -1.7511613
-0.044895887 8.0383091 -2.1538923
-0.28409076 52.505238 0.91649568
-0.048151843 9.1959791 -2.1230881
-0.054386266 10.744754 -2.0885954
-0.060518242 12.841783 -2.0339613
-0.073526658 16.202156 -1.9893954
-0.092992246 22.199009 -1.9421785
-0.12810919 33.361969 -1.7484398
-0.19125196 52.183701 -0.91087598
-0.018268099 8.0519371 -2.1575158
-0.10702109 51.102104 0.89199245
-0.017654711 9.1941395 -2.1226382
-0.018752104 10.744875 -2.0885954
-0.017924558 12.834011 -2.0327096
-0.016957501 16.194374 -1.9884202
-0.019371172 22.187243 -1.9411327
-0.017466964 33.362213 -1.7484398
-0.0089070546 51.04023 -0.89091051
0.009817943 8.0364971 -2.1533747
0.070561111 50.538254 0.88214934
0.014435259 9.1902475 -2.1217382
0.018745508 10.740949 -2.0878322
0.026861481 12.826094 -2.0314584
0.039577816 16.198307 -1.9889079
0.058072347 22.183189 -1.9407841
0.09897013 33.358074 -1.7482306
0.16760145 50.544025 -0.88225406
0.037978038 8.0595961 -2.1595864
0.24737649 50.617691 0.88354558
0.046487976 9.1842957 -2.1203887
0.056256596 10.744744 -2.0885954
0.071658216 12.829872 -2.032084
0.096053846 16.186159 -1.9874454
0.1392974 22.170874 -1.9397382
0.21487808 33.27364 -1.7438341
0.34442967 50.603119 -0.8833012
0.06730552 8.0342894 -2.1528571
0.42426345 50.644512 0.88403422
0.078678258 9.199666 -2.1239879
0.095600359 10.74054 -2.0878322
0.11867873 12.829523 -2.032084
0.15262492 16.193665 -1.9884202
0.21645957 22.146345 -1.9376464
0.33686373 33.276627 -1.7440436
0.52136719 50.629608 -0.8837899
0.095443852 8.0417318 -2.1549275
0.11229892 9.1915216 -2.1221881
0.1330941 10.74014 -2.0878322
0.1634587 12.829031 -2.032084
0.21182486 16.181086 -1.9869579
0.29365304 22.137486 -1.9369491
0.45270136 33.251282 -1.7427876
0.70680767 50.619362 -0.8836503
0.12327894 8.025897 -2.1507864
0.14444631 9.1949701 -2.1230881
0.17058624 10.739611 -2.0878322
0.20814662 12.822457 -2.0311453
0.26842666 16.188187 -1.9879328
0.37086466 22.132341 -1.9366006
0.56771964 33.18959 -1.7396474
0.884 50.644577 -0.88413894
0.15169264 8.0466652 -2.1564806
0.96556234 50.749084 0.88598889
0.17624502 9.1788235 -2.119489
0.20807119 10.73895 -2.0878322
0.25290748 12.821652 -2.0311453
0.3217957 16.171331 -1.985983
0.44820523 22.134895 -1.9369491
0.68217987 33.119511 -1.7360885
1.0522016 50.653355 -0.88434833
0.17824544 8.0403233 -2.1549275
0.58647376 26.247452 0.4582653
0.2068119 9.1840334 -2.1208386
0.24350137 10.73035 -2.0863059
0.29528514 12.814818 -2.0302067
0.37541676 16.170176 -1.985983
0.52178806 22.141254 -1.9376464
0.79306418 33.160999 -1.7383914
1.2203511 50.657589 -0.88448799
0.20481093 8.0358248 -2.1538923
0.67391533 26.261356 0.45854455
0.23751594 9.193037 -2.1230881
0.27898401 10.725557 -2.0855424
0.33808875 12.825617 -2.032084
0.42904142 16.168842 -1.985983
0.59580338 22.161312 -1.9395639
0.82526618 30.303164 -1.5887104
1.3886735 50.665253 -0.88469738
0.23112221 8.0235157 -2.1507864
0.76175773 26.28496 0.45899829
0.26794124 9.1902514 -2.1226382
0.31454757 10.724573 -2.0855424
0.38049841 12.820477 -2.0314584
0.48277208 16.171299 -1.9864705
0.67192113 22.246838 -1.9472336
0.92173344 30.168501 -1.5818021
1.5579951 50.704346 -0.88546532
0.26059306 8.0245447 -2.151304
0.85828185 26.287989 0.45910302
0.30117822 9.1755733 -2.119489
0.35398522 10.727273 -2.0863059
0.4270277 12.805177 -2.0292683
0.5446651 16.163374 -1.9857392
0.75501245 22.290026 -1.9512427
1.034343 30.224806 -1.5849423
1.7539297 50.733963 -0.88609362
0.28839236 8.0177956 -2.1497512
0.95105702 26.312809 0.45959169
0.33313245 9.1725187 -2.1190388
0.3915692 10.729897 -2.087069
0.47237533 12.821374 -2.032084
0.60130811 16.167324 -1.9864705
0.83377701 22.313137 -1.9535089
1.9319398 50.751511 -0.8865124
0.31690952 8.0302525 -2.1533747
1.0436074 26.327311 0.4599058
0.36522844 9.1732473 -2.119489
0.42855331 10.716693 -2.0847793
0.51665306 12.807803 -2.0302067
0.65741277 16.157194 -1.9854957
0.91312951 22.345922 -1.9566463
1.3561906 32.906868 -1.7260401
2.1017056 50.780785 -0.88714069
0.34452593 8.0194473 -2.1507864
1.1320168 26.34968 0.4603596
0.39547622 9.1680918 -2.1185889
0.46595666 10.715132 -2.0847793
0.55894762 12.802073 -2.0295811
0.71168327 16.17079 -1.9874454
0.99183816 22.358524 -1.958041
1.4642333 32.878246 -1.7247839
2.2807577 50.813095 -0.88783884
0.37120897 8.0201893 -2.151304
0.42774686 9.1724958 -2.1199389
1.2324346 26.328999 1.3813554
0.50112253 10.705683 -2.0832527
0.60307074 12.788206 -2.0277038
0.76756471 16.156311 -1.985983
1.0562817 22.152119 -1.9402611
1.5795746 32.884907 -1.725412
2.4611964 50.86874 -0.88895577
0.39968103 8.0284929 -2.1538923
1.3219311 26.460966 0.46245387
0.45927677 9.1612148 -2.1176891
0.53849214 10.703868 -2.0832527
0.6473099 12.778131 -2.0264523
0.82415485 16.157497 -1.9864705
1.1203671 21.889626 -1.9176006
1.3580275 26.352819 -1.3829255
1.372636 26.456383 -0.46241897
0.42729041 8.0193319 -2.1518216
2.7275023 51.02137 0.89185286
0.49146378 9.1634474 -2.1185889
0.57626694 10.709766 -2.0847793
0.69137919 12.76593 -2.0248878
0.87947387 16.134701 -1.9840331
1.1812184 21.601093 -1.8926741
1.8023114 32.749432 -1.7189224
2.8200028 50.918205 -0.89014256
0.4552826 8.0177917 -2.1518216
2.9082778 51.059452 0.8926906
0.52344525 9.1616764 -2.1185889
0.61387497 10.711609 -2.0855424
0.73570633 12.759496 -2.0242622
0.93521857 16.121622 -1.9828143
1.2383231 21.282574 -1.8651329
1.916626 32.742943 -1.7189224
2.9996176 50.939991 -0.89070106
0.4836143 8.0219393 -2.1533747
3.0901251 51.108871 0.89373773
0.55566067 9.1636839 -2.119489
0.65078282 10.701563 -2.0840161
0.78036475 12.758821 -2.024575
0.99062365 16.104391 -1.9811082
1.2950687 20.993748 -1.8402063
2.0279181 32.688213 -1.7164102
3.1811619 50.989079 -0.89174813
0.51013947 7.997066 -2.1471629
3.268523 51.097775 0.89373773
0.58738869 9.1577988 -2.1185889
0.68864119 10.707063 -2.0855424
0.82437795 12.748135 -2.0233238
1.0481248 16.120646 -1.9835457
1.3508306 20.720699 -1.8166744
2.1388824 32.633102 -1.7138981
3.3609576 51.005604 -0.89223683
0.53922081 8.0125837 -2.1518216
3.4490104 51.11797 0.89429617
0.61895967 9.1498604 -2.1172395
0.72654581 10.712429 -2.087069
0.86766642 12.727442 -2.0205078
1.1037079 16.106985 -1.9823269
1.4140075 20.58268 -1.8049954
2.2533238 32.633408 -1.7143167
3.5423164 51.041435 -0.89307451
0.56649899 8.0010185 -2.1492336
3.6297033 51.137539 0.89485466
0.6504823 9.1418114 -2.1158895
0.76336861 10.701995 -2.0855424
0.91364515 12.746009 -2.0239494
1.1597867 16.101055 -1.9820831
1.4872863 20.59749 -1.8067385
2.3654964 32.60144 -1.7130607
3.7242327 51.08062 -0.89398205
0.5948559 8.0047722 -2.1507864
3.8114417 51.168427 0.89562255
0.68325794 9.1511459 -2.1185889
0.80130988 10.707096 -2.087069
0.95827693 12.744713 -2.0242622
1.2149404 16.083052 -1.980377
1.5593218 20.59416 -1.8069128
2.4774725 32.56908 -1.7118045
3.9034181 51.079273 -0.8941915
0.62219292 7.9949422 -2.1487157
3.9959526 51.230568 0.89694893
0.71535152 9.1506472 -2.1190388
0.83745068 10.688576 -2.0840161
1.0021417 12.733412 -2.0230107
1.2720087 16.090588 -1.9818394
1.6275855 20.54291 -1.8029037
2.5949404 32.608021 -1.7143167
4.0855317 51.113174 -0.89502925
0.64931577 7.9830947 -2.1461277
4.1760454 51.232262 0.89722824
0.74776298 9.1539221 -2.1203887
0.87475854 10.685587 -2.0840161
1.0452861 12.714087 -2.0205078
1.3240526 16.070452 -1.9798895
1.6961579 20.499378 -1.7995917
2.7103951 32.618668 -1.7153634
4.2586474 51.143185 -0.89579713
0.67611331 7.9847469 -2.1471629
4.3479576 51.242035 0.89764708
0.7771219 9.1397409 -2.1176891
0.91052467 10.68654 -2.0847793
1.0869341 12.704647 -2.0195692
1.3783588 16.077841 -1.981352
1.7610472 20.457911 -1.7964542
2.8178687 32.601543 -1.7149448
4.4326968 51.18058 -0.89670461
0.70241702 7.9805374 -2.1466453
4.5241728 51.299049 0.89890367
0.80742866 9.1371136 -2.1176891
0.94647485 10.689328 -2.0859239
1.1294115 12.704906 -2.020195
1.4341164 16.068977 -1.9808645
1.8278193 20.44005 -1.7954082
2.9234571 32.564171 -1.7134794
4.6138496 51.192677 -0.89719331
0.73167706 7.9934273 -2.1507864
4.7083154 51.338703 0.89988101
0.83967727 9.1381207 -2.1185889
0.98269963 10.67423 -2.0836341
1.1739382 12.702853 -2.0205078
3.5070195 37.876328 4.6705213
1.491112 16.073755 -1.9820831
1.8963971 20.403788 -1.7927936
3.040813 32.593536 -1.7155728
4.7981243 51.235985 -0.89824045
0.75866288 7.9812074 -2.1481981
2.6800613 28.14237 0.49344936
0.87156385 9.1351347 -2.1185889
2.697439 28.220472 1.4857132
1.0201434 10.672688 -2.0840161
1.2178863 12.694747 -2.019882
3.6414824 37.887569 4.6734462
1.5548255 16.14749 -1.9918326
1.963959 20.359364 -1.7894818
2.7334528 28.233061 -1.4865507
2.7300215 28.095377 -0.49271637
0.78462487 7.9592862 -2.1430218
2.7472234 27.818422 0.48793441
0.90344858 9.1320362 -2.1185889
2.7397985 27.64444 1.4558817
1.05662 10.661247 -2.0824895
1.2625862 12.694348 -2.0205078
3.7764781 37.902279 4.6768584
1.6103894 16.134064 -1.9908577
2.0328393 20.330576 -1.7875642
2.8128386 28.032568 -1.4765022
2.7942247 27.749426 -0.48681742
0.81377137 7.9699521 -2.1466453
2.8076937 27.450584 0.48165151
0.93492496 9.1249495 -2.1176891
2.7931793 27.261675 1.4362035
1.0934201 10.653589 -2.0817263
1.3056792 12.678074 -2.0186305
1.6691511 16.15204 -1.9937826
2.100312 20.289667 -1.784601
2.8611586 27.545803 -1.451381
2.8535273 27.425753 -0.48130247
0.84158885 7.967063 -2.1466453
2.863831 27.11101 0.47585732
0.96436155 9.1140471 -2.1158895
2.8573735 26.959795 1.4208167
1.1322623 10.665325 -2.0847793
1.3468821 12.665818 -2.017379
1.7235429 16.15431 -1.9947575
2.1696346 20.268343 -1.7833809
2.9150069 27.186649 -1.4329586
2.9133055 27.081602 -0.47543845
0.86863399 7.9699888 -2.1481981
2.92242 26.770859 0.47006312
0.99595159 9.1086893 -2.1154397
2.9063761 26.580885 1.4013476
1.1671991 10.657609 -2.0840161
1.3921558 12.670857 -2.0189433
1.7803611 16.152145 -1.9952452
2.2344258 20.239252 -1.7814633
2.9698806 26.815014 -1.4139084
2.9671524 26.747829 -0.46974897
0.89471936 7.9515505 -2.144057
2.9758584 26.44705 0.46454817
1.0272453 9.1150188 -2.1176891
2.9682355 26.296696 1.386903
1.2035096 10.645666 -2.0824895
1.4355031 12.677948 -2.0208206
1.8365986 16.169819 -1.9981698
2.3012316 20.197678 -1.7785
3.0225501 26.487516 -1.3971608
3.0177555 26.363806 -0.46318686
0.92224568 7.9464607 -2.1435394
3.0337598 26.100277 0.45864925
1.060194 9.1073217 -2.1167896
3.0305922 25.994017 1.3715162
1.2406603 10.6414 -2.0824895
1.4798927 12.654943 -2.0180049
1.8986307 16.186638 -2.0010948
2.3686945 20.163797 -1.776234
3.078017 26.123192 -1.3785293
3.0786846 26.050716 -0.45788136
0.95089799 7.9508638 -2.1456099
3.0889332 25.789717 0.45337862
1.0924447 9.1074343 -2.1176891
3.0810587 25.648151 1.3538266
1.2787377 10.644801 -2.0840161
1.5228796 12.639894 -2.0164404
4.1457114 34.358891 4.2493405
1.953927 16.170057 -1.999876
2.4383521 20.149473 -1.7757111
3.1352499 25.832726 -1.3637705
3.1278059 25.696398 -0.45184281
0.97888047 7.9494152 -2.1461277
3.1341443 25.415585 0.44699103
1.1225594 9.0900269 -2.1145399
3.1332994 25.372177 1.3398006
1.3154029 10.636375 -2.0832527
1.5672382 12.63646 -2.0167532
4.2695293 34.375736 4.2532406
1.9971249 16.056763 -1.9867141
2.5067074 20.125023 -1.7743167
3.1810982 25.466871 -1.3450342
3.1785078 25.410076 -0.44699103
1.0061396 7.9421163 -2.1450922
3.1887596 25.170959 0.44287229
1.1531811 9.0901213 -2.1154397
3.1803088 25.034166 1.3225297
1.3505436 10.616139 -2.0801997
1.6098742 12.637075 -2.0176921
4.3779826 34.318066 4.2478786
2.0320015 15.906308 -1.9689212
2.5756714 20.106266 -1.773445
3.2289326 25.170916 -1.3299614
3.2289114 25.101322 -0.44175529
1.0322204 7.93682 -2.1445746
3.2314053 24.812658 0.43676391
1.1849071 9.0860405 -2.1154397
3.2281008 24.719906 1.3065149
1.3852301 10.60771 -2.0794365
1.6552616 12.641171 -2.0192564
4.6293769 35.306381 4.3721852
2.0683863 15.753472 -1.9508847
2.6389515 20.071934 -1.771179
3.2781365 24.866432 -1.3144701
3.2701354 24.739004 -0.43557718
1.0588938 7.9255104 -2.1425042
3.280086 24.517796 0.43177256
1.2181709 9.0934381 -2.118139
3.2803769 24.455109 1.2931169
1.4217252 10.598918 -2.0786731
1.6988542 12.631399 -2.0186305
4.641819 34.467659 4.2703023
2.1037364 15.600577 -1.932848
2.7036729 20.023111 -1.7676928
3.3217833 24.536186 -1.2976178
3.3225636 24.477768 -0.43117917
1.0860295 7.9179368 -2.1414688
3.3300128 24.246672 0.42719999
1.2485759 9.0794764 -2.1158895
3.3240438 24.140781 1.2771021
1.4597876 10.60167 -2.0801997
1.7418526 12.617566 -2.017379
4.756135 34.407986 4.2649398
2.1385889 15.451561 -1.9152987
2.7708108 19.993818 -1.7659496
3.3733346 24.279137 -1.2846385
3.3743358 24.224392 -0.42692077
1.1139293 7.9160109 -2.1419864
3.3772271 23.969564 0.42252275
1.2789031 9.0654154 -2.1136403
3.365278 23.824478 1.2609826
1.4956899 10.588734 -2.0786731
1.7864426 12.61532 -2.0180049
2.1676691 15.269085 -1.8936061
2.8372262 19.960352 -1.7638578
3.4214187 24.01017 -1.2710311
3.4119358 23.88385 -0.42112657
1.1432117 7.9235468 -2.1450922
3.4145658 23.637005 0.41686818
1.3094175 9.0531826 -2.1118405
3.4140658 23.575388 1.248422
1.5343282 10.595105 -2.0809629
1.8290398 12.599234 -2.0164404
2.1992323 15.11213 -1.8750819
2.9043033 19.932583 -1.7622892
3.4633589 23.711515 -1.2558537
3.4561703 23.604685 -0.41641441
1.1703002 7.9156857 -2.144057
3.4610326 23.381632 0.41257489
1.3427275 9.0601225 -2.1145399
3.4608738 23.324276 1.2357568
1.5707294 10.585801 -2.0801997
1.8741742 12.600589 -2.0176921
2.2344031 14.986558 -1.8604575
2.9688494 19.888824 -1.7593257
3.5062015 23.432623 -1.2417231
3.5026617 23.353189 -0.41219094
1.1950264 7.8924518 -2.1388805
3.5069685 23.13413 0.40842122
1.37464 9.0573063 -2.1149898
3.4998355 23.059917 1.2223587
1.6055994 10.566668 -2.0775285
1.9163657 12.582252 -2.0158148
2.2732251 14.89036 -1.8494893
4.5918713 30.078239 4.8191209
3.0358531 19.862583 -1.7579312
3.5486627 23.163591 -1.2281157
3.5446093 23.110186 -0.40810707
1.2246423 7.9015961 -2.1425042
3.5462956 22.88129 0.40416282
1.4040723 9.0488462 -2.11409
3.5419803 22.800861 1.2092748
1.6439855 10.5707 -2.0794365
1.9565632 12.566068 -2.0142503
2.3183026 14.855282 -1.846077
4.6395168 29.69511 4.7603016
3.1030087 19.838087 -1.756711
3.5865183 22.90307 -1.214927
3.5852544 22.842834 -0.40360436
1.2508403 7.897491 -2.1425042
3.5910654 22.647572 0.4002535
1.4347274 9.0381174 -2.1127403
3.575474 22.4984 1.1938879
1.6796494 10.569066 -2.0801997
4.9606252 31.179251 2.7621398
2.0022769 12.570867 -2.0161276
2.3654532 14.817695 -1.8424209
4.7462549 29.698238 4.7634301
3.1678391 19.821785 -1.7561883
3.628859 22.655729 -1.2024711
3.6297927 22.611017 -0.39972994
1.2787074 7.8949847 -2.1430218
3.6339376 22.411842 0.39630923
1.4659576 9.0311289 -2.1122904
3.6155388 22.249214 1.1813273
1.71653 10.563139 -2.0801997
2.0461426 12.563801 -2.0161276
2.4251535 14.858327 -1.8485144
4.856894 29.724382 4.7703133
3.2354 19.800776 -1.7553166
3.6701519 22.412315 -1.1902244
3.6643367 22.327868 -0.39494798
1.3049982 7.8828483 -2.1409512
3.6742275 22.170177 0.39226031
1.4977905 9.0278807 -2.1127403
3.655555 22.009878 1.1692901
1.7527511 10.553209 -2.0794365
2.0964699 12.595554 -2.0223849
5.1843977 31.114151 3.873008
2.4727619 14.824316 -1.8453459
5.0217814 30.073545 4.8291326
3.2989151 19.755953 -1.7523533
3.7140863 22.194502 -1.1793386
3.7015681 22.072365 -0.39065465
1.3312161 7.870626 -2.1388805
3.7078571 21.898933 0.38768774
1.5299482 9.0264397 -2.1136403
3.6949365 21.776445 1.1575668
1.7889189 10.543156 -2.0786731
5.2494831 30.9056 2.7426169
2.139765 12.584264 -2.0217593
5.2623229 30.915825 3.850584
2.523823 14.81168 -1.8448583
5.1134491 29.977942 4.8166175
3.3641765 19.722713 -1.7504359
3.7545159 21.964846 -1.1678246
3.7377362 21.82082 -0.38643116
1.3593376 7.8697391 -2.1399159
3.7372637 21.613935 0.38287091
1.5604522 9.0152826 -2.1122904
3.7334154 21.54694 1.1460528
1.8277192 10.548453 -2.0809629
5.360745 30.906715 2.74436
2.1823306 12.568932 -2.0205078
5.3769989 30.936384 3.855459
2.5724518 14.785178 -1.8426646
3.4319806 19.70496 -1.749913
3.7879033 21.703697 -1.1546359
3.7718501 21.567326 -0.38217279
1.3874727 7.8687501 -2.1409512
3.7737432 21.380203 0.37896156
1.5898757 8.9982672 -2.109591
3.7675645 21.301701 1.1337016
1.8652158 10.545876 -2.0817263
2.2248096 12.553459 -2.0192564
5.4988332 30.995609 3.8652084
2.6243899 14.778063 -1.8429084
5.3454285 30.069876 4.8372669
3.4989953 19.683052 -1.7490414
3.8237071 21.466187 -1.1427034
3.8084664 21.337484 -0.37833327
1.4145876 7.8619585 -2.1404335
3.8111386 21.160257 0.37529656
1.6212783 8.9926624 -2.109591
3.8021662 21.068283 1.1219784
1.9013166 10.535436 -2.0809629
2.2703769 12.555334 -2.0208206
5.6183023 31.038733 3.873008
2.6752484 14.764907 -1.8424209
5.4553027 30.078243 4.8416471
3.5634191 19.647192 -1.7469497
3.8593276 21.236549 -1.1311895
3.8467486 21.125357 -0.37480789
1.4416758 7.8550725 -2.1399159
3.8531871 20.973745 0.37222493
1.6544148 8.9965324 -2.1118405
3.8388104 20.854528 1.1113018
1.9348848 10.511357 -2.0775285
2.3191967 12.574531 -2.0252008
2.7260535 14.751574 -1.8419334
3.6283412 19.615046 -1.7452065
3.8948579 21.014782 -1.1200942
3.8828564 20.909294 -0.37121269
1.4694438 7.8518906 -2.1404335
3.8910251 20.771481 0.36887407
1.6854517 8.9887867 -2.1113906
3.8689244 20.6336 1.1002066
1.9726539 10.510328 -2.0786731
2.3612537 12.556651 -2.0236366
2.7731247 14.732697 -1.8407148
3.693471 19.584639 -1.7436377
3.9336989 20.818546 -1.1103598
3.9172366 20.711607 -0.36793163
1.4940252 7.8393841 -2.1383629
3.9216609 20.558109 0.36531377
1.7123289 8.9678345 -2.1077914
3.8965018 20.406818 1.0887973
2.0089686 10.511443 -2.0801997
2.4054842 12.562333 -2.0258267
2.8253248 14.740968 -1.8429084
3.7553952 19.556631 -1.7422433
3.9630902 20.599451 -1.0993692
3.9560304 20.543375 -0.36517417
1.5207441 7.838181 -2.1393983
3.9513152 20.346725 0.36178839
1.7427996 8.9659328 -2.1086912
3.9229896 20.182045 1.0774928
2.0445626 10.508576 -2.0809629
2.4493945 12.565921 -2.0277038
2.8722954 14.721775 -1.8416896
3.8190763 19.538204 -1.7417203
3.9903142 20.376471 -1.0881693
3.9856644 20.33391 -0.36168367
1.5467303 7.8330946 -2.1393983
3.9807639 20.141256 0.35836771
1.7732811 8.9639273 -2.109591
3.9503648 19.969076 1.0668162
2.0786343 10.497889 -2.0801997
2.4933605 12.569355 -2.0295811
2.9168365 14.690753 -1.8390086
3.8819082 19.515659 -1.7408488
4.0184355 20.165293 -1.0775974
4.0155277 20.132318 -0.35833281
1.576575 7.8330536 -2.1409512
4.0158625 19.934422 0.35494706
1.8057364 8.9554577 -2.1091411
3.9906564 19.773645 1.0571864
2.1159346 10.484426 -2.0790551
2.535104 12.538834 -2.0261395
2.9708624 14.66777 -1.8375461
3.9579983 19.50647 -1.7413718
4.054163 19.962528 -1.0675489
4.0505366 19.90904 -0.35463291
1.6021675 7.8120837 -2.1368101
4.0412254 19.704802 0.35110751
1.8381636 8.9548254 -2.1104908
4.0282989 19.606997 1.049022
2.1535542 10.472754 -2.0782917
2.5647006 12.450132 -2.0133119
3.0236447 14.665089 -1.838521
4.0244479 19.48473 -1.7406744
4.084816 19.742172 -1.0565584
4.0766134 19.685259 -0.35089809
1.629429 7.8064427 -2.1368101
4.0729408 19.496071 0.34765193
1.8709702 8.9480286 -2.1104908
4.0686383 19.44157 1.0409623
2.1913073 10.470938 -2.0794365
2.5915298 12.361837 -2.0004842
3.0773783 14.653907 -1.838521
4.0883451 19.451067 -1.7389314
4.1067891 19.504992 -1.0446258
4.1049962 19.46278 -0.34719819
1.6574696 7.8044868 -2.1378453
4.0981426 19.280266 0.34405673
1.8993531 8.9281015 -2.1073413
4.0982075 19.247534 1.0313325
2.2290685 10.468986 -2.0805814
2.6214824 12.290894 -1.9904724
3.1251972 14.627544 -1.8365711
4.1578884 19.444468 -1.7396286
4.1422248 19.338205 -1.0364614
4.1364069 19.278229 -0.34416145
1.6838884 7.7948771 -2.1368101
4.1611886 19.2463 0.34370768
1.9309211 8.9233217 -2.1077914
4.1649742 19.247501 1.0320652
2.2656014 10.46114 -2.0805814
2.6643672 12.281668 -1.9904724
3.1719987 14.609341 -1.8355962
4.2210755 19.408421 -1.7377112
4.1901422 19.23386 -1.0316465
4.1986146 19.256592 -0.34402186
1.7101406 7.7911372 -2.1373277
1.9613363 8.9206762 -2.1086912
6.3290081 28.786003 1.5446436
2.2977507 10.442064 -2.0782917
2.7055025 12.274694 -1.9907852
3.2195766 14.594866 -1.8351088
4.2510195 19.238682 -1.7237663
4.2560549 19.229609 -1.0321698
6.3711782 28.762318 -0.51421767
1.7326063 7.7703385 -2.1331868
6.4237518 28.785456 0.5148111
1.9913349 8.9160242 -2.1091411
6.4312024 28.77153 1.5450623
2.3346078 10.435898 -2.0786731
2.7449007 12.259871 -1.9898466
3.2722301 14.591289 -1.8360838
4.322957 19.245108 -1.7256837
5.6041918 24.908295 -1.3380213
6.4812107 28.782822 -0.51498562
1.7632093 7.7733564 -2.1357749
6.5318904 28.773415 0.51502055
2.0214078 8.8972645 -2.1064417
6.5428052 28.775032 1.5465276
2.3745918 10.434927 -2.0801997
2.7946396 12.270916 -1.9932882
3.3265815 14.583065 -1.8365711
4.3992295 19.254383 -1.7279496
5.7319765 25.047235 -1.3466043
6.5937982 28.790062 -0.51554406
1.7921207 7.7687244 -2.1362925
6.6633902 28.862291 0.51704502
2.0531251 8.8859997 -2.1055419
6.669281 28.864887 1.5525987
2.4123218 10.432315 -2.0813446
2.8440561 12.279836 -1.9964169
3.3764172 14.555305 -1.8346213
4.4695721 19.252495 -1.7291698
5.8148565 25.00762 -1.3455576
6.7173767 28.866199 -0.51732427
1.818789 7.76054 -2.1357749
6.7608833 28.847824 0.51718462
2.0848041 8.888629 -2.1077914
6.7836976 28.899763 1.5557388
2.4482763 10.421918 -2.0809629
2.8761637 12.233802 -1.9904724
3.4246628 14.544029 -1.8346213
4.5413179 19.256168 -1.730913
5.951426 25.215631 -1.3578042
6.8217716 28.858147 -0.51760346
1.8431748 7.748827 -2.1342218
6.8740373 28.876575 0.51812702
2.1171756 8.8869839 -2.1091411
6.8822665 28.888765 1.5563668
2.481005 10.406103 -2.0794365
2.9078426 12.177574 -1.9829636
3.4726365 14.520404 -1.8331589
4.6018987 19.22744 -1.7296928
6.0840979 25.381159 -1.3678527
6.926755 28.874258 -0.51830161
1.8692995 7.7385921 -2.1331868
6.9800816 28.896387 0.51889497
2.145721 8.8761253 -2.1082413
6.9915266 28.899508 1.5582509
2.5191545 10.405012 -2.0809629
2.9510033 12.179383 -1.9848408
3.5207729 14.508807 -1.8331589
4.66711 19.203514 -1.7289956
5.4904313 22.574022 -1.2175438
7.0417085 28.908188 -0.51934874
1.8958731 7.7361021 -2.1342218
7.0813904 28.873785 0.51892984
2.1753001 8.8629017 -2.1068916
7.0849504 28.866465 1.5577276
2.5531795 10.394694 -2.0805814
2.9793463 12.111461 -1.9754546
3.5709188 14.494502 -1.8329151
4.7226629 19.155045 -1.7260323
6.2969394 25.502035 -1.3766451
7.1337032 28.869143 -0.51906943
1.921935 7.725688 -2.1331868
7.1949701 28.921942 0.52022129
2.2042017 8.8537502 -2.1064417
2.5913508 10.393338 -2.0821078
3.0209196 12.107266 -1.9763933
3.6189685 14.482579 -1.8329151
4.7933636 19.153908 -1.7274269
6.2543545 24.973408 -1.3492211
7.2592359 28.942989 -0.52084965
1.9513229 7.7342577 -2.1373277
7.3100724 28.952877 0.52123356
2.2360508 8.849781 -2.1073413
7.3249683 28.969271 1.5659966
2.6253188 10.382785 -2.0817263
3.0655913 12.106221 -1.9779577
3.6655934 14.454466 -1.8309652
4.8490081 19.107008 -1.7246377
6.3444371 24.963039 -1.3498491
7.3681078 28.948483 -0.52140808
1.9754322 7.7161703 -2.1342218
7.4200339 28.962055 0.52186185
2.2664471 8.8400326 -2.1068916
7.4319954 28.966742 1.5672526
2.6561763 10.352639 -2.0775285
3.1265147 12.168148 -1.9898466
3.7145462 14.435814 -1.8302339
4.913692 19.082247 -1.7239405
5.7602596 22.337587 -1.2089607
5.0175714 19.429522 -0.35026982
1.998957 7.6961384 -2.1305985
7.5356669 28.992102 0.52287412
2.2992513 8.839612 -2.1086912
7.5471578 28.994741 1.5701835
2.6942787 10.350904 -2.0790551
3.168968 12.157162 -1.9898466
3.7649112 14.422761 -1.8302339
4.9762397 19.049559 -1.7225461
5.7967443 22.158903 -1.2003776
7.5938444 28.987255 -0.52304864
2.0253155 7.6872463 -2.1300809
7.645483 28.998495 0.52346748
2.3276098 8.8221102 -2.1064417
7.6483302 28.968218 1.5701835
2.7278905 10.331945 -2.0771468
3.2078536 12.132657 -1.9876565
3.8137054 14.403775 -1.8295028
5.0401583 19.02244 -1.7216746
6.6772017 25.165497 -1.3645031
7.7011523 28.983761 -0.52346748
2.0556297 7.6931939 -2.1337044
7.7523494 28.992878 0.52385145
2.3568735 8.8082867 -2.105092
7.7648935 28.999226 1.5733237
2.7669837 10.333739 -2.0794365
3.2506883 12.123295 -1.9879694
3.8665388 14.39996 -1.8307214
5.1057014 18.988447 -1.7202801
6.7302432 25.012817 -1.3574902
7.8204808 29.024282 -0.52468914
2.0828001 7.6818795 -2.1326692
7.8712921 29.031263 0.52503818
2.3896489 8.8075275 -2.1068916
7.8828263 29.033621 1.5766732
2.8032935 10.317844 -2.0782917
3.293035 12.103673 -1.9867179
3.9126055 14.371053 -1.8287715
5.1698618 18.96282 -1.7195828
6.8102961 24.945591 -1.3551874
7.9270244 29.016096 -0.52503818
2.1080682 7.6689734 -2.1311162
7.993032 29.058132 0.52605045
2.420361 8.7930746 -2.1055419
7.9947057 29.044445 1.5787667
2.838774 10.306104 -2.0779099
3.3399837 12.109245 -1.9895338
3.9663126 14.360443 -1.829259
5.2280478 18.915855 -1.7169681
6.9367604 25.06411 -1.3629332
8.0453205 29.049923 -0.52615511
2.1332715 7.6559849 -2.1295633
8.1054592 29.089252 0.52709758
2.4521258 8.794385 -2.1077914
8.1196661 29.101006 1.5833722
2.8842375 10.330167 -2.0847793
3.3764033 12.084784 -1.9873437
4.0144506 14.349121 -1.8295028
5.2908249 18.885979 -1.7159222
6.9648552 24.844809 -1.3522565
8.1634359 29.081343 -0.52723718
2.1591673 7.6507292 -2.1300809
8.211278 29.076183 0.52737683
2.4812214 8.7801447 -2.1064417
8.217761 29.079683 1.5836862
2.9590766 10.464124 -2.1137822
3.4191082 12.074824 -1.9876565
4.0645041 14.335023 -1.8295028
5.3490787 18.852993 -1.7145277
7.0962772 24.97789 -1.3608396
8.2707739 29.092581 -0.52793533
2.1869247 7.6468596 -2.1311162
8.3120604 29.064173 0.52765608
2.5076413 8.7625017 -2.104192
8.3247108 29.070023 1.5847329
3.0063996 10.491478 -2.1214147
3.446605 12.019747 -1.9804606
4.1103787 14.315741 -1.8287715
5.4110069 18.820803 -1.7133076
7.1829405 24.967655 -1.3615724
8.3778181 29.082747 -0.52828437
2.2117317 7.637711 -2.1305985
8.4385147 29.12141 0.52922678
2.5382109 8.7536955 -2.104192
8.4567375 29.146288 1.5904899
3.0291364 10.43997 -2.113019
3.5067251 12.070242 -1.9907852
4.1564474 14.287961 -1.8270653
5.471149 18.795107 -1.7126104
7.2208743 24.773689 -1.3523613
8.5050354 29.141632 -0.52988994
2.2383809 7.6299434 -2.1305985
8.5564442 29.147421 0.53023905
2.570951 8.7522602 -2.1059918
8.5798359 29.189404 1.5944674
3.0555968 10.395427 -2.1061497
3.5326657 12.002972 -1.981712
4.2062931 14.273367 -1.8270653
5.5316558 18.758696 -1.7110416
7.3265309 24.813463 -1.3559201
8.6152191 29.140528 -0.53041357
2.2594962 7.6035662 -2.1254222
8.6672487 29.148046 0.53079748
2.6003773 8.7394962 -2.105092
8.6857061 29.191418 1.5961422
3.0924237 10.38658 -2.1065314
3.5835752 12.020856 -1.9867179
4.2566557 14.2605 -1.827309
5.5931158 18.725904 -1.7098212
7.3787727 24.672924 -1.3496398
8.7255716 29.157776 -0.53125125
2.2882528 7.6030307 -2.1274927
8.7800045 29.172756 0.53177482
2.6287763 8.7289619 -2.1046422
8.8013744 29.20682 1.5986543
3.1280963 10.373841 -2.1061497
3.6217036 12.003232 -1.9857793
4.3050742 14.250107 -1.8277966
5.6613278 18.715803 -1.7106929
7.4368224 24.569944 -1.3453482
8.8458519 29.188381 -0.53236824
2.3134513 7.5954013 -2.1274927
8.8893557 29.166801 0.53222859
2.6558218 8.7085476 -2.1019428
8.8980198 29.15873 1.5977123
3.1659162 10.374679 -2.1084394
3.6728137 12.020744 -1.9907852
4.3536258 14.231195 -1.827309
5.7181077 18.679783 -1.7091241
7.5500565 24.633583 -1.3502678
8.959425 29.195557 -0.53306627
2.3445029 7.6020484 -2.1316338
9.0147066 29.212023 0.53362477
2.6862066 8.6992235 -2.1019428
9.0392456 29.255342 1.6047252
3.1992116 10.354187 -2.1065314
3.7153382 12.009737 -1.9910982
4.3979931 14.198846 -1.8251154
5.7838731 18.661612 -1.7092985
7.6206026 24.557484 -1.3475463
9.0790615 29.221401 -0.53411347
2.3669963 7.5809093 -2.1280103
9.1339073 29.235731 0.53463703
2.7188799 8.6972332 -2.1037421
9.153244 29.261736 1.6068187
3.2294765 10.324218 -2.1027153
3.7548735 11.989156 -1.9898466
4.446939 14.181512 -1.8248718
5.8465891 18.633705 -1.7086011
7.7200513 24.574556 -1.3499538
9.1966162 29.239126 -0.53502101
2.3928642 7.5707583 -2.1274927
9.2515745 29.253242 0.53554451
2.7504008 8.6914053 -2.1046422
9.2625732 29.252451 1.6080748
3.2589786 10.292293 -2.0985174
3.8044643 12.000453 -1.9939139
4.4952035 14.162121 -1.8243842
5.9049683 18.592295 -1.7066838
7.8045583 24.543657 -1.3497444
9.3095503 29.241138 -0.53564924
2.4198635 7.5641999 -2.1280103
9.3670511 29.262667 0.53631246
2.780122 8.6798973 -2.104192
9.3804693 29.269394 1.6107962
3.2924867 10.273376 -2.0969911
3.8324528 11.943839 -1.9867179
3.6616313 11.404652 1.4707193
4.5452228 14.148233 -1.824628
5.9765429 18.59243 -1.7086011
7.8473592 24.383179 -1.3424175
9.4305706 29.267471 -0.5367313
2.4456596 7.5538683 -2.1274927
9.4783783 29.258329 0.53683603
2.8068001 8.6590166 -2.1014926
9.4881353 29.253569 1.6117383
3.3228788 10.245012 -2.0935564
3.8826537 11.956694 -1.9910982
3.7161438 11.43711 1.4765691
4.592123 14.12473 -1.823653
6.0376954 18.560093 -1.7075553
7.936142 24.367029 -1.3430454
9.5419827 29.26289 -0.53725487
2.4750147 7.5544662 -2.1300809
2.8394406 8.6565723 -2.1032922
3.3543279 10.220297 -2.0908849
3.770824 11.47578 -1.9131937
3.736196 11.363726 1.4687696
4.6395426 14.102957 -1.8229219
6.1049423 18.546473 -1.7082524
8.0048914 24.28986 -1.3403239
2.5013719 7.5457802 -2.1300809
9.7447481 29.379345 0.54029161
2.8696384 8.6466084 -2.1032922
9.7456207 29.347736 1.6206354
3.3906045 10.210388 -2.0912669
3.7547684 11.293841 -1.8850355
3.7758431 11.350614 1.4687696
4.6887469 14.086675 -1.8229219
6.1715293 18.530722 -1.7087754
8.0934277 24.273138 -1.340952
9.8030167 29.366278 -0.54039633
2.5240126 7.5260124 -2.1269751
9.8612165 29.386864 0.54105949
2.902287 8.6439276 -2.105092
9.8708677 29.398563 1.6252409
3.4237263 10.191045 -2.0897403
3.7771688 11.230113 -1.876588
3.7939167 11.273396 1.4604822
4.7397871 14.075866 -1.823653
6.2069182 18.422211 -1.7007573
8.1685266 24.216352 -1.3393819
9.9182587 29.386658 -0.54137367
2.5533698 7.5263038 -2.1295633
2.9290543 8.6287203 -2.1037421
3.4636989 10.192045 -2.0924115
3.8073907 11.196955 -1.8731465
4.7883544 14.065709 -1.8243842
2.5783124 7.517796 -2.1295633
3.8885007 11.331556 0.20911473
2.9566236 8.6110725 -2.1019428
3.8955002 11.339061 0.62834555
3.4904637 10.160076 -2.0882137
3.9132354 11.384219 1.05319
3.8393826 11.163049 -1.869705
3.8776703 11.267958 1.4631635
3.9171209 11.376143 -1.4773003
3.9081967 11.343812 -1.0497037
3.9060934 11.324853 -0.62782216
3.9122052 11.329742 -0.20921946
2.6064398 7.514225 -2.1311162
2.989223 8.6080618 -2.1037421
3.5213952 10.134851 -2.0855424
3.8802755 11.155175 -1.8706435
3.9124091 11.241231 1.4614573
3.9398313 11.313661 -1.4709631
3.9464624 11.326337 -1.0493551
2.6313729 7.5014358 -2.1300809
10.329049 29.429239 0.54441041
3.0199001 8.5994129 -2.104192
10.348064 29.466961 1.6367549
3.5547967 10.116941 -2.0843976
3.917227 11.135971 -1.869705
3.9727113 11.287427 1.469257
6.3113518 17.912071 -1.6615371
8.3521509 23.677635 -1.3158308
10.382391 29.416824 -0.54451507
2.6543148 7.4831004 -2.1274927
10.441284 29.436289 0.54517829
3.0497022 8.5930252 -2.105092
10.464221 29.468304 1.6388483
3.5920641 10.11002 -2.0855424
3.9528086 11.119199 -1.8690792
4.0194364 11.300373 1.4726692
4.9798374 13.992742 -1.823653
6.3584552 17.846767 -1.6575279
8.5037174 23.85487 -1.32724
10.504496 29.435022 -0.54552734
2.6810727 7.4797125 -2.1290457
10.561518 29.448606 0.54608577
3.0783606 8.5786591 -2.104192
10.583226 29.476707 1.6413604
3.6242464 10.094356 -2.0847793
3.9942677 11.112769 -1.8703307
4.0642347 11.301217 1.4746192
5.0252943 13.965933 -1.8224343
6.4128742 17.812462 -1.6563078
8.5720434 23.783703 -1.3249372
10.624833 29.447081 -0.54643482
2.7097931 7.4775748 -2.1311162
10.679935 29.454796 0.54688865
3.1056309 8.5605335 -2.1023927
10.67922 29.420818 1.6403136
3.6601231 10.083491 -2.0851607
4.0438318 11.128465 -1.8753366
5.0706182 13.93898 -1.8212155
6.4559364 17.737543 -1.6514269
8.662528 23.774281 -1.3260885
10.737844 29.43799 -0.54695845
2.7345512 7.4644418 -2.1300809
10.80678 29.483046 0.54811031
3.1341498 8.5459805 -2.1014926
10.831398 29.518362 1.6478502
3.6838043 10.03932 -2.0786731
4.0969534 11.15322 -1.8819069
5.1199327 13.923058 -1.8214594
6.4916658 17.643847 -1.6448032
8.7268305 23.693293 -1.3232625
10.874415 29.492271 -0.54866874
2.7592506 7.4512272 -2.1290457
10.936009 29.516407 0.54943669
3.163964 8.5349874 -2.1014926
10.943407 29.504715 1.6492108
3.7181454 10.024558 -2.0782917
4.254817 11.459219 -1.9360331
5.1657257 13.897661 -1.8204844
6.4677978 17.391384 -1.6233629
8.7920456 23.615898 -1.3206457
10.991271 29.491604 -0.54936683
2.7811787 7.4306951 -2.1259398
3.1998937 8.5403156 -2.1055419
3.7496676 10.002328 -2.0763836
4.1934628 11.174278 -1.8903543
5.2267756 13.912992 -1.8248718
6.5452943 17.413458 -1.6275464
8.8631792 23.555153 -1.3189709
2.8098354 7.4281683 -2.1280103
11.199848 29.592697 0.55229884
3.225539 8.5181608 -2.1028426
11.213515 29.597557 1.658736
3.7880394 9.9983559 -2.0782917
4.4846163 11.824495 -2.0029871
5.285882 13.922499 -1.8285278
6.5013146 17.114855 -1.6017481
8.9602613 23.563272 -1.321169
11.257363 29.573006 -0.55233377
2.8351407 7.4206147 -2.1285279
11.290787 29.536715 0.5519498
3.2544668 8.5092363 -2.1032922
11.300889 29.53223 1.6571659
3.8092444 9.9545698 -2.0718043
4.5238061 11.809558 -2.0029871
5.3391261 13.923429 -1.8309652
6.6736555 17.394548 -1.6299868
9.0218763 23.490547 -1.3187616
11.361822 29.552315 -0.55264795
2.8651993 7.4214869 -2.1316338
11.42696 29.582932 0.55355543
3.2834499 8.496006 -2.1028426
11.456484 29.628593 1.664807
3.8340549 9.9155779 -2.0664616
4.5970926 11.876593 -2.0170662
5.3934298 13.919517 -1.8329151
6.7789888 17.48632 -1.6407939
9.0575686 23.339748 -1.3120626
11.492419 29.583307 -0.55397427
2.8882816 7.4042406 -2.1295633
11.551972 29.598747 0.55460256
3.3145022 8.4881248 -2.1037421
11.573568 29.638807 1.6675284
3.8700747 9.9057903 -2.0672247
4.3277011 11.065728 -1.8819069
5.4492259 13.919088 -1.8353524
9.1448231 23.322863 -1.3128999
11.609453 29.59343 -0.55488181
2.9133997 7.3923168 -2.1290457
11.677184 29.629112 0.55589408
3.3447742 8.4825258 -2.105092
11.704804 29.668831 1.6715059
3.8995855 9.8794365 -2.0645535
4.3701754 11.066015 -1.8844098
5.5121422 13.943399 -1.8409585
9.2904978 23.465107 -1.3226345
11.740688 29.623365 -0.55620819
2.9371815 7.3808198 -2.1285279
11.79904 29.634617 0.55676669
3.3729236 8.4671764 -2.104192
11.817163 29.650059 1.672762
3.9403143 9.8865137 -2.0687513
4.6437483 11.639647 -1.9848408
5.5504704 13.898267 -1.8375461
6.9867792 17.485895 -1.6474178
9.3367414 23.343525 -1.3176101
11.869287 29.645325 -0.55739498
2.964371 7.3741069 -2.1295633
11.916583 29.628502 0.55742991
3.4002748 8.4499292 -2.1028426
11.929548 29.630859 1.6740181
3.9740698 9.8708773 -2.0683696
4.7013302 11.665507 -1.9920367
5.6115794 13.910102 -1.8416896
7.0097399 17.367178 -1.638528
9.4264059 23.331158 -1.3187616
11.983937 29.631525 -0.55791855
2.9973631 7.3816123 -2.1347394
12.059066 29.683065 0.55924493
3.4319532 8.4434233 -2.104192
12.072874 29.702147 1.6802984
4.0070252 9.8533068 -2.0676064
4.6884007 11.517293 -1.9695101
5.6479397 13.867517 -1.838521
7.0334682 17.252197 -1.6299868
9.4443836 23.142786 -1.3099691
12.118423 29.680481 -0.55959398
3.0144963 7.3537588 -2.1295633
12.187033 29.715065 0.56060618
3.4599321 8.4319963 -2.104192
12.206175 29.746948 1.6851133
4.027751 9.8109064 -2.0615005
4.7190571 11.483413 -1.9663814
5.6863499 13.830351 -1.8360838
7.2149935 17.530943 -1.6585737
9.5667286 23.222139 -1.3162495
12.243445 29.704844 -0.56081563
3.0388639 7.3437219 -2.1295633
12.306915 29.726221 0.56158352
3.4893687 8.4240761 -2.105092
12.328281 29.748446 1.6876254
4.0632625 9.8047514 -2.0630269
4.7684679 11.495069 -1.9710745
5.7482858 13.843422 -1.840471
9.6260405 23.147873 -1.3138421
12.373964 29.726534 -0.56203729
3.0674613 7.3401985 -2.1316338
12.427583 29.723667 0.56235141
3.5187469 8.4118471 -2.105092
12.442851 29.73102 1.6890908
4.1020131 9.8013744 -2.0653167
4.8398499 11.553057 -1.9839021
5.7543554 13.722583 -1.8270653
9.7276678 23.163849 -1.3166682
12.493921 29.721876 -0.56277031
3.0915644 7.3258862 -2.1305985
12.552256 29.729845 0.56329387
3.5435407 8.3887424 -2.1023927
12.565224 29.731556 1.6916029
4.1384969 9.7924204 -2.0664616
4.901701 11.587031 -1.9926625
5.8107333 13.722523 -1.8297465
7.2972016 17.224569 -1.6366106
9.8193769 23.155495 -1.3181335
12.623385 29.738821 -0.56392217
3.1224139 7.3274927 -2.1342218
12.702235 29.794378 0.56535327
3.5735683 8.3781128 -2.1028426
12.730055 29.830807 1.6997674
4.171876 9.7761106 -2.0660799
4.8839231 11.433604 -1.9691973
5.8546996 13.693028 -1.8285278
7.4442658 17.402319 -1.655959
9.9072275 23.1376 -1.3190756
12.762558 29.777288 -0.56549287
3.1456842 7.3112245 -2.1326692
12.834631 29.815979 0.56660986
3.6058731 8.3727484 -2.1046422
12.851036 29.839788 1.7026981
4.2044244 9.7578812 -2.0653167
4.9011149 11.363887 -1.9601241
5.9197741 13.712602 -1.83389
7.5239224 17.420128 -1.6601425
10.021227 23.179873 -1.3234718
12.891394 29.804548 -0.56681925
3.1681056 7.2931123 -2.1305985
12.959705 29.833786 0.56776172
3.6320632 8.3571711 -2.1037421
12.993353 29.882658 1.7077224
4.2502055 9.7701511 -2.0710409
4.9742441 11.42908 -1.9742032
5.9493551 13.656499 -1.8290153
7.5273499 17.262262 -1.6475922
10.097235 23.144682 -1.3233671
13.021771 29.819845 -0.56797111
3.1946015 7.2878733 -2.1321514
13.077427 29.819498 0.56835508
3.667479 8.358717 -2.1073413
13.096775 29.835299 1.7076178
4.2842865 9.7552547 -2.0710409
4.775723 10.869094 -1.8803425
6.0265555 13.702884 -1.8380336
7.5241399 17.091825 -1.6338215
10.180381 23.103867 -1.3231578
13.144341 29.816286 -0.56877393
3.2228577 7.2796483 -2.1331868
13.230357 29.870098 0.5702399
3.6894081 8.3256197 -2.1023927
13.273233 29.938639 1.7163056
4.3144383 9.7269249 -2.0683696
4.9317122 11.113324 -1.9257084
6.0638423 13.651677 -1.8341339
7.6684909 17.248009 -1.6514269
10.298292 23.141209 -1.3274493
13.293384 29.857426 -0.57048422
3.2542467 7.2783689 -2.1362925
13.373233 29.896244 0.57167101
3.7222846 8.317378 -2.1037421
13.402128 29.946817 1.7194456
4.3475657 9.7100134 -2.0679879
4.9788713 11.109596 -1.9282113
6.1009045 13.606878 -1.8309652
7.7531204 17.275669 -1.6566564
10.414193 23.183464 -1.3319502
13.425388 29.872858 -0.57167101
3.2759836 7.2622533 -2.1347394
13.509325 29.93375 0.57324171
3.7514479 8.3085423 -2.1046422
13.521081 29.945898 1.7219577
4.3700452 9.6740704 -2.0634086
4.9863849 11.028229 -1.9169482
6.1648145 13.628169 -1.8365711
7.8152928 17.260756 -1.6577022
10.519877 23.212469 -1.3356137
13.56731 29.922882 -0.57348609
3.2984462 7.2478342 -2.1337044
13.62921 29.934294 0.57411432
3.783828 8.306695 -2.1073413
13.640446 29.931229 1.7238418
4.3915157 9.6363029 -2.0584474
5.1131101 11.209327 -1.9513638
6.2172918 13.617402 -1.8380336
7.8965001 17.287298 -1.6627573
10.531183 23.033962 -1.3273447
13.692489 29.920794 -0.57435864
3.3253369 7.2397876 -2.1347394
13.747818 29.917421 0.57470775
3.8103611 8.2881241 -2.1059918
13.786567 29.974165 1.7290756
4.4234834 9.6173487 -2.0576842
5.1472526 11.180641 -1.9494866
6.2813997 13.631677 -1.8429084
7.9876633 17.326574 -1.6692067
10.663401 23.109503 -1.3338344
13.816141 29.914568 -0.57516152
3.3489654 7.2246299 -2.1337044
13.902654 29.978098 0.57680207
3.8384433 8.2730083 -2.1055419
13.92055 29.989256 1.732739
4.4471102 9.5804787 -2.0531049
6.3197408 13.589865 -1.8402272
8.0497646 17.302204 -1.6695553
10.774361 23.137316 -1.3376025
13.976229 29.985786 -0.57746524
3.3790772 7.2233944 -2.1368101
14.040262 30.000021 0.57816333
3.8772166 8.280736 -2.1109407
14.085309 30.068892 1.7401706
4.4663706 9.5346718 -2.0466175
6.3654509 13.564131 -1.8397398
8.1380587 17.333513 -1.6753076
10.890732 23.175488 -1.3419988
14.105503 29.98929 -0.57847744
3.4026167 7.2080636 -2.1357749
14.179917 30.02496 0.57959443
3.9110949 8.2777224 -2.1136403
14.205528 30.052055 1.7420549
4.4945846 9.5083771 -2.0443277
5.1533794 10.892215 -1.9085008
6.4382515 13.59565 -1.847052
8.2121677 17.333807 -1.6780967
10.969002 23.131914 -1.3416847
14.243521 30.01034 -0.57983875
3.4285893 7.1978855 -2.1362925
14.303556 30.014996 0.58036232
3.9315777 8.2464304 -2.1091411
14.324108 30.031124 1.7437295
4.5252147 9.4873123 -2.0431828
5.2066855 10.906248 -1.9141324
6.4942317 13.591002 -1.8494893
8.2743397 17.308632 -1.6784453
11.078996 23.154737 -1.3452435
14.363744 29.992895 -0.58046705
3.4532716 7.1817889 -2.135257
14.465492 30.070488 0.58245659
3.9693797 8.2477684 -2.1131902
14.494667 30.11772 1.7516847
4.555697 9.4618206 -2.0412748
5.3066511 11.011659 -1.9360331
6.5192094 13.521764 -1.843152
8.3437805 17.290751 -1.6796654
11.153358 23.092394 -1.3439875
14.517949 30.045197 -0.58245659
3.4753845 7.1668205 -2.1342218
14.598291 30.090727 0.58378297
3.9907544 8.2222872 -2.1100409
14.62761 30.137764 1.7556622
4.5793324 9.4307642 -2.0378401
5.3405509 10.988669 -1.9350946
6.570961 13.514351 -1.845102
8.3356886 17.128622 -1.6665921
11.306835 23.213297 -1.3531986
14.649909 30.063404 -0.5837481
3.5059197 7.1691408 -2.1383629
14.770065 30.18944 0.58664519
4.0231376 8.219511 -2.1127403
14.781903 30.186975 1.7615237
4.6071258 9.4084768 -2.0363138
5.4047785 11.027661 -1.9451064
6.6583142 13.573312 -1.8563139
8.3424072 16.998938 -1.6566564
11.364385 23.13623 -1.3508958
14.798866 30.101814 -0.58549333
3.5292122 7.1533952 -2.1373277
14.874465 30.135906 0.58661032
4.0518064 8.2054167 -2.1127403
14.876578 30.113699 1.7602677
4.6347246 9.3817749 -2.034024
5.4336109 10.989248 -1.9416648
6.6994872 13.537535 -1.8546078
8.4282179 17.023277 -1.6618856
11.458374 23.123268 -1.3524659
14.931402 30.105501 -0.58657539
3.5498586 7.1323833 -2.1347394
15.017889 30.160778 0.58811122
4.0838981 8.1982021 -2.1145399
15.051085 30.201019 1.7684321
4.66394 9.358511 -2.0324974
5.4922147 11.010872 -1.9488608
6.7440386 13.508739 -1.8538766
8.475131 16.968798 -1.6594453
11.506875 23.018812 -1.3486977
15.073973 30.128313 -0.58804137
3.5747356 7.1199474 -2.1347394
15.184107 30.229687 0.59048474
4.1229925 8.2047911 -2.1199389
15.203071 30.241085 1.773875
4.6948175 9.338665 -2.0317342
5.5155253 10.961635 -1.943542
6.7938271 13.490437 -1.8546078
8.5755444 17.020958 -1.6674635
11.615018 23.033798 -1.3519425
15.22951 30.175478 -0.58999604
3.60393 7.1160445 -2.1373277
15.334732 30.265684 0.59222996
4.1463189 8.1799202 -2.1172395
15.346473 30.262651 1.7782712
4.7256088 9.3187189 -2.0309711
5.5376654 10.910606 -1.9379103
6.8642554 13.512653 -1.860945
8.6249819 16.97138 -1.6655462
11.721616 23.044735 -1.3549781
15.387364 30.2255 -0.59202051
3.6331437 7.1120219 -2.1399159
15.438473 30.208405 0.59216011
4.1695228 8.1549873 -2.1145399
15.472942 30.24979 1.7806787
4.7554293 9.2969217 -2.0298262
5.5694079 10.878905 -1.9357203
6.876987 13.421475 -1.851683
8.6541662 16.882668 -1.6597939
11.809286 23.017895 -1.3558154
15.494613 30.175159 -0.59209037
3.6526334 7.0889955 -2.1368101
15.574973 30.214771 0.59334689
4.2113633 8.1663609 -2.1212883
15.620767 30.290625 1.7861217
4.7878551 9.2802639 -2.0298262
5.6209455 10.885724 -1.9404132
6.9675379 13.482038 -1.8633825
8.7670374 16.956776 -1.6700783
11.737184 22.682076 -1.3384399
3.6773582 7.0762014 -2.1368101
15.765445 30.336847 0.59676754
4.2384229 8.1523495 -2.1212883
15.772478 30.324511 1.7913553
4.8165884 9.2565317 -2.0282996
5.6624889 10.877536 -1.9422905
6.9828544 13.402525 -1.8555828
8.850131 16.971998 -1.6746104
12.014639 23.030834 -1.3613631
15.829222 30.317154 -0.596977
3.7052882 7.0725231 -2.1393983
4.2686582 8.1409597 -2.1221881
15.915354 30.340014 1.7955422
4.8299327 9.2074747 -2.021049
5.7095995 10.875198 -1.9454193
7.0665331 13.448357 -1.8653324
8.8933725 16.917873 -1.67217
12.018708 22.843813 -1.35278
15.990849 30.367882 -0.59907126
3.7290523 7.0578361 -2.1388805
16.10581 30.470018 0.60158443
4.2779217 8.0898323 -2.1127403
16.066004 30.369013 1.8005666
4.8638821 9.1940289 -2.0218122
5.7290425 10.820286 -1.9391619
7.1171494 13.430626 -1.8663074
9.0027704 16.981781 -1.6815828
12.207895 23.008144 -1.3650265
16.113646 30.343664 -0.59969962
3.7572949 7.051599 -2.1409512
16.155642 30.307732 0.59949017
4.3226418 8.1058006 -2.1208386
16.200094 30.36562 1.8037065
4.8950148 9.1752653 -2.0214307
5.7537541 10.775825 -1.9347818
7.1808314 13.437212 -1.8706945
9.000001 16.834286 -1.6700783
12.28814 22.965387 -1.3650265
16.279877 30.400057 -0.60193348
3.7818887 7.0384393 -2.1409512
16.374945 30.462515 0.6036787
4.3490629 8.0872316 -2.1199389
16.360884 30.410898 1.8097775
4.9074817 9.1218128 -2.0134165
5.812871 10.795678 -1.9419776
7.1956778 13.352648 -1.8624074
9.0435762 16.774708 -1.6672894
12.377721 22.939928 -1.3660733
16.399191 30.367682 -0.60242218
3.8036721 7.0201011 -2.1393983
16.519293 30.475498 0.60507494
4.3791261 8.0754251 -2.1208386
16.509253 30.444256 1.815011
4.9505253 9.1253366 -2.0179961
5.8175325 10.714561 -1.9310273
7.266438 13.37756 -1.8692321
9.1401453 16.813053 -1.6742618
12.466306 22.912374 -1.3670152
16.5457 30.397434 -0.6040976
3.8269327 7.0074477 -2.1393983
16.677795 30.525837 0.60716921
4.405879 8.0608597 -2.1208386
16.654177 30.469967 1.8198261
4.9835868 9.1140366 -2.019141
5.8549256 10.698677 -1.931653
7.3393621 13.405624 -1.8765444
9.2446728 16.871763 -1.6831516
12.554697 22.893677 -1.3683761
16.779137 30.584345 -0.60891449
3.8529422 6.9997964 -2.1409512
16.74999 30.41782 0.60612214
4.4222441 8.0274277 -2.1158895
16.785492 30.457127 1.8225476
5.0005145 9.07339 -2.0137982
5.87988 10.660173 -1.9282113
7.316082 13.253057 -1.8587514
9.3265829 16.888103 -1.6878581
12.663402 22.911346 -1.3719349
3.880167 6.9913712 -2.1425042
16.931786 30.495523 0.60884464
4.4530759 8.0170546 -2.1172395
16.963501 30.527536 1.8302932
5.0207152 9.035285 -2.0092189
5.9535365 10.705187 -1.9401004
7.3748474 13.249988 -1.86192
9.4029188 16.88678 -1.6909957
12.754963 22.887941 -1.3731909
16.966921 30.421049 -0.60800695
3.9026594 6.9744134 -2.1414688
17.079151 30.509527 0.61031067
4.4896049 8.0167627 -2.1212883
17.107048 30.534349 1.8342707
5.0579796 9.0279818 -2.0115087
6.0082607 10.715353 -1.9457321
7.4327083 13.24494 -1.8648449
9.5027761 16.926819 -1.6983167
12.789771 22.763186 -1.3683761
17.139666 30.480162 -0.61038047
3.9269826 6.9607468 -2.1414688
17.2288 30.526342 0.61184651
4.5175557 8.0010452 -2.1212883
17.256758 30.550964 1.8388764
5.0962234 9.0222359 -2.0141799
6.0417323 10.687441 -1.9444805
7.5297308 13.308755 -1.8775192
9.5941782 16.950771 -1.704069
12.957755 22.874804 -1.3777965
17.328793 30.566275 -0.61331248
3.9541237 6.952034 -2.1430218
17.355024 30.500784 0.6125446
4.5512438 7.995388 -2.1239879
17.397491 30.563005 1.8430634
5.1150584 8.9822111 -2.0092189
5.3992124 9.4735146 -1.7270367
7.5259776 13.194451 -1.8650886
9.666131 16.939672 -1.7063351
12.971157 22.713232 -1.3707834
17.47965 30.595459 -0.61505771
3.9764397 6.9348392 -2.1419864
17.533655 30.578377 0.61526716
4.5719166 7.9701071 -2.1212883
17.573664 30.623344 1.8503903
5.1541948 8.9779263 -2.0122719
7.5528712 13.140165 -1.860945
9.7281885 16.911007 -1.706858
13.12809 22.812044 -1.3793666
17.630264 30.6105 -0.61659354
4.003283 6.9283047 -2.144057
17.684328 30.593157 0.61680299
4.5870295 7.932168 -2.1154397
17.717119 30.637512 1.8547865
5.1977043 8.9845753 -2.0176144
6.171267 10.658846 -1.950738
7.661397 13.221927 -1.8763006
9.8032026 16.911402 -1.71017
13.18259 22.722885 -1.3767499
17.769827 30.617586 -0.61791992
4.0235548 6.9076095 -2.1419864
17.850103 30.644928 0.61903685
4.6250772 7.9371214 -2.1208386
17.856123 30.630711 1.8581359
5.2409058 8.9867268 -2.0221939
6.2055769 10.636621 -1.9504251
7.6931915 13.175874 -1.8733757
9.8872929 16.92009 -1.7145277
13.229652 22.630766 -1.373819
17.931101 30.648582 -0.61980474
4.0456815 6.8901939 -2.1409512
17.982552 30.613785 0.61973494
4.654139 7.920115 -2.1208386
18.043179 30.692461 1.8658817
5.277216 8.9768419 -2.024102
6.2294974 10.588264 -1.9457321
7.7384086 13.142459 -1.8726445
9.9604568 16.909506 -1.7169681
13.370318 22.680197 -1.3797852
18.081934 30.648098 -0.62113112
4.0716777 6.8793535 -2.1419864
18.162672 30.674719 0.62224811
4.6827478 7.9054985 -2.1212883
18.195 30.704901 1.8704872
5.3045135 8.9516106 -2.0225754
