# .PCD v0.7 - Point Cloud Data file format
VERSION 0.7
FIELDS x y z
SIZE 4 4 4
TYPE F F F
COUNT 1 1 1
WIDTH 1561
HEIGHT 1
VIEWPOINT 0 0 0 1 0 0 0
POINTS 1561
DATA ascii
2.4445195 9.1358442 -2.1833749
7.883709 29.442961 1.5973982
2.8913939 10.798368 -2.1729329
3.6968012 13.787052 -2.2607911
4.5249467 16.852036 -2.1424632
5.3857102 20.043768 -1.8158028
6.6778293 24.818022 -1.3469183
7.9151673 29.375694 -0.5310418
2.1506767 7.9376945 -2.2035854
7.9754267 29.415337 0.53198427
2.479969 9.14042 -2.1865242
8.0011702 29.489906 1.6013757
2.9527354 10.875363 -2.1904874
3.7055206 13.629193 -2.2370131
4.5873909 16.849548 -2.1441696
5.447783 19.996012 -1.8131881
6.761786 24.784927 -1.346395
8.0125313 29.349287 -0.5310418
2.1763194 7.9226894 -2.201515
8.0898714 29.450432 0.5331012
2.5076859 9.1227493 -2.1842747
8.1199589 29.519566 1.6045159
2.9594107 10.751421 -2.1675904
3.7837481 13.736811 -2.2567239
4.6337366 16.799797 -2.1397822
5.5530934 20.105545 -1.824867
6.8731966 24.868248 -1.3521519
8.1362734 29.398226 -0.53243804
2.2077606 7.9340391 -2.2066913
8.2076511 29.475952 0.53407854
2.5614867 9.1927834 -2.2031708
8.2315283 29.521824 1.6061906
2.9908319 10.726418 -2.1645374
3.8545218 13.80533 -2.2701774
4.7121315 16.854256 -2.1488004
5.6382761 20.139763 -1.8297477
6.9561958 24.830639 -1.3514192
8.2555809 29.429335 -0.53352004
2.2362993 7.924036 -2.2061737
8.3267794 29.50486 0.53512567
2.5819016 9.1425285 -2.1932726
8.3388824 29.508286 1.607028
3.0701957 10.857071 -2.1931586
3.9379213 13.90705 -2.2892623
4.7465868 16.751757 -2.1378324
5.7172494 20.150623 -1.8325366
7.0045781 24.655123 -1.3432547
8.3604527 29.40803 -0.5336597
2.2607608 7.9050364 -2.2030678
8.4370728 29.481831 0.53526533
2.6073487 9.1049032 -2.1865242
8.4491739 29.485207 1.6074467
3.0891445 10.780233 -2.1798022
3.9739077 13.849547 -2.2820661
4.8112388 16.745697 -2.1392946
5.8123317 20.216707 -1.8403807
7.1342549 24.782148 -1.3515239
8.4792538 29.415623 -0.53435779
2.2931817 7.9137959 -2.2077267
8.5393677 29.450281 0.5352304
2.6423707 9.1069756 -2.1892235
8.5553942 29.467041 1.6080748
3.1130736 10.722249 -2.1702616
4.0393195 13.894396 -2.2917652
4.8752069 16.74786 -2.141732
5.8499775 20.083441 -1.8300962
7.2520289 24.864466 -1.3573855
8.5835705 29.3916 -0.53446251
2.3109958 7.8723783 -2.1984091
8.6612873 29.485525 0.53641719
2.6576598 9.0416079 -2.1757267
8.6852465 29.528973 1.6130991
3.154912 10.726385 -2.1733146
4.0704989 13.821467 -2.2820661
4.9555402 16.804998 -2.1512377
5.9380951 20.124044 -1.8356742
7.3263345 24.796862 -1.3550828
8.7065296 29.430492 -0.53571904
2.336808 7.8587089 -2.1968563
8.7767115 29.497274 0.53718507
2.6986561 9.0640259 -2.1833749
8.7996674 29.536758 1.6151924
3.1839242 10.687085 -2.1675904
4.1040359 13.757958 -2.2739315
5.0084934 16.768574 -2.1488004
5.9831977 20.019203 -1.8280045
7.4191518 24.792181 -1.3562341
8.8270092 29.459301 -0.5368011
2.3881781 7.9300451 -2.2191145
8.8900023 29.500927 0.53781337
2.750535 9.1217184 -2.1995716
8.9044943 29.530359 1.6164485
3.2631791 10.814993 -2.1958301
4.2023115 13.909955 -2.3014641
5.0537734 16.707287 -2.1431944
6.0882554 20.114517 -1.8386375
7.4882646 24.708794 -1.353094
8.9374132 29.471972 -0.53756905
2.4045761 7.8847027 -2.2087619
9.001193 29.515278 0.53861618
2.7625659 9.0529032 -2.1851747
9.018013 29.533484 1.6183326
3.2854192 10.752842 -2.1855264
4.2495675 13.899721 -2.3020899
5.1213474 16.730299 -2.1483128
7.5988507 24.77739 -1.3582228
2.4295723 7.872993 -2.2077267
9.1059437 29.489407 0.53872091
2.8073792 9.0860291 -2.1955223
9.1163378 29.486557 1.6174953
3.302505 10.681867 -2.1733146
4.2904639 13.860272 -2.2980225
5.1967635 16.767309 -2.1553814
6.2527575 20.162054 -1.8468301
7.6918144 24.771694 -1.3593743
9.1566019 29.452776 -0.53837186
2.4478204 7.8349619 -2.1994443
9.2255259 29.510883 0.53969824
2.8204637 9.0166569 -2.1811254
9.2526274 29.561293 1.6233568
3.3520896 10.709619 -2.1813285
5.277245 16.819145 -2.1643996
6.3081837 20.092579 -1.8424724
7.7836218 24.761843 -1.3603163
9.2719707 29.46069 -0.53910482
2.4652503 7.7950578 -2.1906445
9.3453817 29.531881 0.54067558
2.8489816 8.997467 -2.1788759
9.3726292 29.58213 1.6262877
3.3870735 10.690369 -2.1798022
4.0395041 12.734125 -2.1159329
5.3449411 16.829 -2.1680558
6.3855281 20.093222 -1.8445642
7.8542709 24.685036 -1.3575948
9.3953676 29.492931 -0.54029161
2.4818459 7.7532859 -2.1813271
9.4605894 29.537174 0.54137367
2.8863168 9.0060253 -2.1833749
9.4782801 29.556839 1.6267064
3.43876 10.723346 -2.1889608
3.9389994 12.268552 -2.0408442
5.3477674 16.636374 -2.1456318
6.4470825 20.044258 -1.8421237
7.9477434 24.680279 -1.3588508
9.5093126 29.494211 -0.5409199
2.520205 7.7794943 -2.1911621
9.5809097 29.557234 0.54235101
2.9616277 9.1312122 -2.2162178
9.5922709 29.574638 1.6294278
3.4567759 10.651523 -2.1767492
3.9879084 12.273514 -2.043973
5.4659753 16.802603 -2.1695182
6.546 20.110674 -1.8503164
8.051156 24.705563 -1.3617817
9.6052151 29.456808 -0.54081517
2.5810468 7.8734493 -2.2201498
9.6900921 29.559498 0.5429793
2.9639511 9.0361652 -2.1955223
9.6923132 29.531494 1.6289045
3.4970009 10.648717 -2.1786571
4.0594168 12.354055 -2.0596163
5.532836 16.818329 -2.1739056
6.6011868 20.042288 -1.8461329
8.0949116 24.563015 -1.3553967
9.7236385 29.470579 -0.54168779
2.5749238 7.7676611 -2.1927149
9.7844086 29.498919 0.5424906
2.9347043 8.84266 -2.1509819
9.8236713 29.582775 1.6336147
3.5508537 10.692959 -2.1901057
4.6010718 13.839409 -2.3099115
5.5620484 16.710386 -2.1624498
6.6887493 20.072046 -1.8510137
8.2058802 24.610395 -1.3595836
9.8359413 29.464909 -0.54221135
2.576333 7.6775866 -2.169939
9.9318314 29.597298 0.54493392
3.0282037 9.0189476 -2.1964221
9.9408751 29.589954 1.6359174
3.5718782 10.625906 -2.1790388
4.6334968 13.768157 -2.3008385
5.6463141 16.768003 -2.1724429
6.7836013 20.122206 -1.8578118
8.3464785 24.729654 -1.3678527
9.9828882 29.561119 -0.5446198
2.5875947 7.6228123 -2.1569982
10.040252 29.560696 0.54493392
3.0932167 9.1018887 -2.219367
10.05695 29.592897 1.638011
3.5128803 10.330845 -2.121033
5.7378364 16.835505 -2.1838987
6.8081379 19.96452 -1.8454357
8.424367 24.675795 -1.3664919
10.080837 29.510958 -0.54434055
2.6675112 7.769042 -2.2009974
10.151206 29.565067 0.54563206
2.7536187 8.0152607 -1.9566242
10.175776 29.60294 1.640523
3.6625752 10.648979 -2.1889608
4.7624602 13.839031 -2.3180461
5.7975016 16.82765 -2.1853614
6.8940315 19.987717 -1.8497934
8.4839916 24.583532 -1.3629332
10.200775 29.524729 -0.54524809
2.6932619 7.7601528 -2.2009974
10.266817 29.565342 0.54629523
3.1602166 9.0953503 -2.2229664
10.286913 29.58988 1.6417791
3.7056079 10.659028 -2.1935403
4.8042421 13.803667 -2.3149173
5.8340025 16.743574 -2.177074
6.993721 20.060694 -1.8586832
8.5783024 24.578283 -1.3642938
10.324875 29.549351 -0.54636502
2.6621156 7.5848255 -2.1538923
10.378577 29.553848 0.546749
3.1583514 8.9886599 -2.1995716
10.398094 29.576397 1.6430352
3.7707944 10.725668 -2.20995
4.8274727 13.716009 -2.3030286
5.9320002 16.835442 -2.1916986
7.0636988 20.03616 -1.8586832
8.6706991 24.567024 -1.3653406
10.442622 29.554611 -0.54713297
2.7331569 7.7011075 -2.1896091
10.504422 29.581512 0.54793578
3.1871011 8.9702339 -2.1977718
10.532041 29.62649 1.6478502
3.7733557 10.614399 -2.1897242
4.9561276 13.926119 -2.3411984
5.9687414 16.752926 -2.183655
7.1356077 20.017012 -1.8592062
8.764451 24.559181 -1.3665966
10.559187 29.555637 -0.54783106
2.7782905 7.7424355 -2.2041032
10.626545 29.597359 0.54891312
10.647545 29.623379 1.6497341
3.8395998 10.682456 -2.2065153
4.9739466 13.823232 -2.3268065
6.08639 16.896338 -2.2051041
7.2061176 19.993853 -1.8593806
8.8603001 24.556618 -1.3681668
10.671782 29.544935 -0.5483197
2.8211136 7.7762733 -2.2165263
10.747514 29.608965 0.5498206
10.764537 29.623575 1.6518277
3.7347209 10.277803 -2.1256123
4.9620647 13.64057 -2.2989612
6.1514339 16.891781 -2.2072978
7.2997351 20.034101 -1.8654815
8.936388 24.499266 -1.3667012
10.794061 29.560097 -0.54929703
2.8256233 7.7047119 -2.1989267
10.865965 29.612568 0.55058855
3.2761621 8.9235601 -2.1946225
10.88853 29.642065 1.6549678
3.8274355 10.419505 -2.1576684
5.0089707 13.62131 -2.2986481
6.2021356 16.847851 -2.2043729
7.4033694 20.100105 -1.8740227
9.0570755 24.563501 -1.3720396
10.952569 29.672318 -0.55208939
2.8645895 7.7274065 -2.2082443
10.972055 29.581953 0.55072814
3.3466094 9.0180387 -2.220717
10.98954 29.613285 1.6553864
3.926656 10.575404 -2.1927772
5.0702429 13.640779 -2.3049057
6.2399845 16.778812 -2.1980357
7.4519243 20.016262 -1.8686191
9.1692734 24.60285 -1.3760171
11.032734 29.58712 -0.55118191
2.8088977 7.5007668 -2.1461277
11.097464 29.618431 0.55208939
3.3669217 8.9813442 -2.2144182
11.117134 29.655222 1.6597826
4.0292697 10.74247 -2.2301757
5.1960006 13.838409 -2.3411984
6.3367763 16.867668 -2.2124164
7.5386033 20.045521 -1.8736742
9.2508163 24.572308 -1.3760171
11.149122 29.599026 -0.55208939
2.9335477 7.7552176 -2.2217028
11.213297 29.628233 0.55296206
3.3718407 8.9045219 -2.1982217
11.236158 29.657324 1.6620854
4.0256839 10.620028 -2.2076602
5.1907225 13.686272 -2.3183591
6.3653235 16.765642 -2.2019355
7.6361403 20.091715 -1.8804722
9.3208923 24.498804 -1.3737143
11.28084 29.634678 -0.55348563
2.9647107 7.7516308 -2.2237732
11.370419 29.713932 0.55533558
3.3974893 8.8739042 -2.1937227
11.351921 29.634596 1.6631322
4.0779338 10.640033 -2.214911
5.1658831 13.471645 -2.2851949
6.4537592 16.812626 -2.2111976
7.7254472 20.104511 -1.8843071
9.4056196 24.451422 -1.3729815
11.397993 29.615532 -0.55390447
2.9694121 7.679451 -2.2061737
11.446054 29.586269 0.55372995
3.4433587 8.8959208 -2.202271
11.476322 29.633766 1.665435
4.1254134 10.646984 -2.2194905
5.3587475 13.822825 -2.3480816
6.5318513 16.831423 -2.2168036
7.7767115 20.018488 -1.8789034
9.5357075 24.521029 -1.3788432
11.518058 29.603376 -0.55446297
3.0045738 7.6865082 -2.21135
11.620703 29.713589 0.55690628
3.4617364 8.8469448 -2.1932726
11.656948 29.775623 1.6757975
4.1794486 10.670179 -2.2275043
5.3264828 13.591586 -2.3121016
6.6138005 16.85911 -2.223628
7.7954159 19.850761 -1.8658301
9.616744 24.463608 -1.3775871
11.666014 29.661451 -0.55634785
3.0343046 7.687283 -2.2144558
3.4874728 8.8263559 -2.1910233
11.794548 29.835241 1.6813452
4.1746984 10.560229 -2.2072787
5.4376664 13.740995 -2.3405728
6.6762476 16.853699 -2.2258217
7.9245486 19.994722 -1.8816924
9.6699781 24.373873 -1.3742377
11.802698 29.71924 -0.55816287
3.0468073 7.6407571 -2.2041032
11.896048 29.817675 0.56036186
3.5312634 8.8467073 -2.1991215
11.910466 29.82357 1.6830198
4.2675991 10.685983 -2.2366631
5.3917432 13.487147 -2.3005254
6.7394671 16.841349 -2.2272844
7.9602251 19.881857 -1.8736742
9.4080191 23.47419 -1.3253559
11.931677 29.740967 -0.55934966
3.0604656 7.5978203 -2.1947856
12.025466 29.839033 0.56154865
3.5803435 8.8795099 -2.2103691
12.051867 29.874422 1.6882535
4.2923908 10.640068 -2.2301757
5.5083156 13.640423 -2.3299353
6.8443346 16.931828 -2.2423961
8.0191154 19.828093 -1.8712338
9.8871326 24.422394 -1.380832
12.051949 29.739904 -0.56011754
3.1000719 7.6193013 -2.2041032
12.14916 29.845024 0.56245613
3.6304307 8.9138813 -2.2220664
12.177157 29.883968 1.6911843
4.3043094 10.563208 -2.2172008
5.5611219 13.633914 -2.3321254
6.8636312 16.810427 -2.2294779
8.1673965 19.993641 -1.8895364
9.973073 24.389585 -1.3809367
12.181422 29.760582 -0.56130433
3.1354625 7.6298742 -2.2103145
12.270003 29.843126 0.56322408
3.620748 8.8020334 -2.1973219
12.270879 29.83049 1.6904516
4.3613324 10.597136 -2.2275043
5.5417089 13.451864 -2.3042798
6.9283276 16.801046 -2.2314279
8.245492 19.985273 -1.891454
10.0856 24.42108 -1.3847049
12.296852 29.760679 -0.56207222
3.1361601 7.5564327 -2.1921973
12.371958 29.80966 0.56336373
3.6753237 8.8511705 -2.2126186
12.40942 29.870468 1.6951618
4.4284406 10.654363 -2.242769
4.6738195 11.2392 -1.9278985
6.9817119 16.772482 -2.2306967
8.3282366 19.987631 -1.8944173
10.158838 24.369066 -1.3836582
12.439173 29.809843 -0.56381744
3.1485064 7.5157027 -2.1833978
12.515353 29.86035 0.56514382
3.6926353 8.8059378 -2.2045202
12.544498 29.900648 1.6993487
4.3893061 10.462204 -2.2053704
5.6752119 13.514005 -2.3214879
7.04252 16.7535 -2.2314279
8.3960123 19.963579 -1.8947659
10.249259 24.346344 -1.3843908
12.554032 29.792036 -0.56430608
3.1589181 7.4673023 -2.1725271
12.644461 29.875412 0.56626081
3.7279086 8.8037615 -2.2072196
12.659711 29.882421 1.700814
4.3905735 10.363663 -2.1878161
5.6914988 13.421367 -2.3089728
7.0978594 16.721502 -2.2304528
8.4640856 19.930485 -1.8944173
10.345126 24.336149 -1.3858563
12.668892 29.773806 -0.56479484
3.2077327 7.5095263 -2.1880562
12.764362 29.867872 0.56695884
3.7624497 8.799654 -2.2094693
12.798513 29.918842 1.7054197
4.4854088 10.485456 -2.216819
5.7103257 13.336045 -2.2977097
7.1522717 16.687506 -2.2292342
8.5532408 19.946594 -1.898775
10.444187 24.332928 -1.3877404
12.794855 29.780844 -0.56577212
3.1803701 7.3741107 -2.1518216
12.878058 29.845165 0.56737775
3.7784705 8.7524729 -2.2009211
12.898906 29.864819 1.7048962
4.5328784 10.494967 -2.2221618
5.8125014 13.444765 -2.3199234
7.2601428 16.777214 -2.2445898
8.6465673 19.971464 -1.9040043
10.513173 24.259674 -1.3856469
12.944878 29.8424 -0.56779659
3.214577 7.3824472 -2.1575158
13.006126 29.855026 0.56842482
3.7871964 8.6892109 -2.188324
13.040604 29.905655 1.7098159
4.5710573 10.482678 -2.2229249
5.8641353 13.435258 -2.3218007
7.3297925 16.777235 -2.2480021
8.7186174 19.94664 -1.9045273
13.066625 29.83733 -0.56856453
3.2550967 7.4047832 -2.1673508
13.145676 29.889988 0.56996071
13.16583 29.90748 1.7125373
4.5641131 10.367833 -2.201936
5.979496 13.570168 -2.3487074
7.3907113 16.756996 -2.2487333
8.8082952 19.961657 -1.908885
10.665336 24.14732 -1.3834488
13.183641 29.820795 -0.56912297
3.2386122 7.2980223 -2.1393983
13.274284 29.898746 0.57100785
13.299355 29.927044 1.7163056
4.6034679 10.359013 -2.2034624
6.064558 13.634042 -2.3634121
7.4733858 16.785498 -2.2560456
8.8771067 19.92897 -1.9087107
10.760954 24.135479 -1.3849143
13.333286 29.87686 -0.57107764
3.2869685 7.3378024 -2.1544099
13.404732 29.910625 0.57212478
3.9226265 8.7486544 -2.2135184
13.434795 29.94969 1.7202832
4.6170983 10.292726 -2.1927772
6.1339626 13.661444 -2.3718596
7.5319295 16.75931 -2.2560456
8.9768524 19.965094 -1.9151603
10.894312 24.20705 -1.3911945
13.460499 29.88118 -0.57205498
3.3348458 7.3755722 -2.1689036
13.517308 29.881866 0.57247382
3.9716237 8.7757406 -2.2238662
13.542545 29.909891 1.7207018
4.5574422 10.065509 -2.1477461
7.5969491 16.747377 -2.2579956
9.0308504 19.899162 -1.9118483
11.008488 24.234335 -1.3949627
13.5945 29.899561 -0.57331157
3.3878424 7.4236393 -2.1865032
13.654747 29.907263 0.57387
3.9900858 8.7352371 -2.2171178
13.688383 29.953259 1.7259353
4.6953707 10.274527 -2.1958301
7.6908913 16.79837 -2.268476
9.0902958 19.845783 -1.9097565
11.085529 24.179419 -1.3940207
13.722145 29.902805 -0.5742889
3.3652432 7.306489 -2.1554451
13.789182 29.924805 0.57512665
4.0213709 8.7230244 -2.2175674
13.824637 29.974218 1.7299129
4.6695366 10.124368 -2.1672087
6.1317992 13.282598 -2.3171074
7.7603025 16.794847 -2.2716448
9.1887817 19.877228 -1.9158574
11.184943 24.17321 -1.3959048
13.844938 29.894642 -0.57505679
3.4086437 7.3332381 -2.1668332
13.937409 29.970774 0.57694167
4.0682302 8.7442741 -2.2265656
13.952789 29.976475 1.7328436
4.7288766 10.159621 -2.1782756
6.3049169 13.533288 -2.3646638
7.7945552 16.715483 -2.2645762
9.2648354 19.859484 -1.9172519
11.290388 24.17926 -1.3985215
13.977986 29.90773 -0.57624358
3.4293001 7.3107991 -2.1637273
14.053829 29.947289 0.57743037
4.0689158 8.6665144 -2.2103691
14.081125 29.978203 1.7357744
4.8870111 10.404269 -2.2343736
6.328589 13.46114 -2.3559034
7.8832808 16.752836 -2.273351
9.3604145 19.8829 -1.9226557
11.395147 24.183065 -1.4010336
14.108749 29.914818 -0.57732564
3.4415693 7.2708488 -2.1554451
14.154008 29.889008 0.57725579
4.12501 8.706852 -2.2243161
14.192506 29.943317 1.736612
4.8207059 10.170714 -2.1878161
7.9672589 16.779009 -2.280663
9.464818 19.923885 -1.9298023
11.484645 24.153961 -1.4016618
14.242283 29.926792 -0.57851237
3.411979 7.1437368 -2.1212809
14.312579 29.953089 0.57945484
4.0957007 8.5675707 -2.192373
14.341693 30.000595 1.7426828
4.84517 10.130799 -2.1828551
6.4812627 13.539573 -2.3774912
8.0300732 16.760046 -2.2818818
9.5334425 19.888933 -1.9296281
11.555936 24.086712 -1.4000916
3.4729564 7.2066183 -2.1435394
14.44653 29.977524 0.58085102
4.14186 8.5908051 -2.2018209
14.463691 29.986326 1.7447762
4.9240165 10.204001 -2.2023175
6.4556999 13.372135 -2.351836
8.1002865 16.763712 -2.2860253
9.588068 19.825041 -1.9266648
11.64531 24.068037 -1.4012431
14.489252 29.919134 -0.58025759
3.5010598 7.2037487 -2.1461277
14.572078 29.970072 0.5816887
4.1658573 8.5640259 -2.1986716
14.606725 30.028002 1.7500098
4.8942566 10.056982 -2.174078
6.5040722 13.353069 -2.3524618
8.1865864 16.792435 -2.2938249
9.686944 19.861187 -1.9332887
11.760789 24.091854 -1.4050112
14.60681 29.908657 -0.58099061
3.5168266 7.1724038 -2.1404335
14.694264 29.968266 0.58259618
4.240582 8.6446419 -2.2229664
14.713206 29.980419 1.7502192
4.9916282 10.166722 -2.2015543
6.564868 13.365114 -2.3584063
8.2448521 16.770542 -2.2945561
9.7922754 19.900549 -1.9404355
11.869733 24.111853 -1.4084654
3.5525186 7.1785111 -2.1461277
14.814558 29.922377 0.58280563
4.2685518 8.6178179 -2.2202671
14.867324 30.015776 1.7554528
5.050653 10.192336 -2.2110946
6.5652275 13.237167 -2.34026
9.852746 19.83954 -1.9379952
11.954221 24.050005 -1.4075233
14.899702 29.962725 -0.58409715
3.6025772 7.2161918 -2.161139
14.979794 30.005482 0.5853886
4.2927547 8.5948982 -2.2180173
15.011282 30.042313 1.7600584
6.600255 13.197655 -2.3371313
8.3770952 16.73596 -2.2979686
9.9852962 19.931503 -1.9503711
12.058078 24.058439 -1.4103495
15.038266 29.978458 -0.58542353
3.657759 7.2663236 -2.179774
15.125809 30.03517 0.58699429
4.305192 8.5450544 -2.2090194
15.14663 30.050365 1.7636173
6.7735119 13.42674 -2.3818715
8.4291973 16.694214 -2.2962623
10.036071 19.868048 -1.947408
12.15099 24.034027 -1.4113961
15.164495 29.968601 -0.58626127
3.6629829 7.2138953 -2.1678684
15.255926 30.032104 0.58797157
4.3305817 8.5212879 -2.2067699
15.271342 30.036484 1.7659199
6.8570728 13.475193 -2.3946991
8.4603891 16.611626 -2.2889502
10.100844 19.824015 -1.9465364
12.241158 24.003923 -1.4121288
15.310839 29.99741 -0.58786684
3.6960697 7.2165389 -2.1725271
15.358849 29.975103 0.58790177
4.3958521 8.575489 -2.224766
15.397976 30.025639 1.7684321
5.2435589 10.224799 -2.2336102
6.9067659 13.456453 -2.3956378
8.544631 16.633196 -2.2960186
10.212772 19.871929 -1.954729
12.339496 23.989462 -1.4138037
15.433757 29.979345 -0.58856499
3.712373 7.186429 -2.1673508
15.52214 30.035007 0.59013569
4.4400816 8.5877886 -2.2319643
15.550414 30.063951 1.773875
5.2756133 10.199457 -2.2320838
6.8819556 13.293676 -2.3709211
8.5816336 16.562731 -2.2904127
10.301336 19.873302 -1.9583895
12.459024 24.015387 -1.4178859
15.600978 30.045963 -0.59093845
3.7543907 7.2059808 -2.177186
15.654623 30.033836 0.59118283
4.3889408 8.4167223 -2.1914732
15.679261 30.05554 1.7765967
5.2939239 10.147911 -2.224833
6.9776912 13.364128 -2.387816
8.6366415 16.527393 -2.2896814
10.418649 19.929033 -1.9674537
12.55297 23.991215 -1.4190373
15.776246 30.125967 -0.59359121
3.7040408 7.0491796 -2.1337044
15.798423 30.053358 0.5926488
4.4473181 8.4565449 -2.2058702
15.828724 30.085464 1.7816207
5.2973228 10.068558 -2.2114763
6.9994454 13.292499 -2.3793685
8.6979876 16.504169 -2.2906563
10.47142 19.860825 -1.9643161
12.641305 23.956079 -1.4195606
15.853305 30.017666 -0.59254414
3.772042 7.1181431 -2.158551
15.929466 30.047495 0.59362614
4.5215526 8.5253258 -2.2279153
15.934028 30.043392 1.7822487
5.356359 10.095097 -2.2213984
7.0634084 13.301131 -2.385313
8.7881403 16.535063 -2.2991872
10.561267 19.86285 -1.968151
12.724834 23.911814 -1.4195606
15.958404 29.975513 -0.59275353
3.8068838 7.1236739 -2.1642449
16.051649 30.036829 0.59446383
4.5755229 8.5584059 -2.2405124
16.089661 30.082697 1.7879012
5.423986 10.136924 -2.234755
7.1764612 13.406511 -2.4084654
8.7894945 16.40609 -2.2852941
10.185202 18.995325 -1.8857017
12.8305 23.918762 -1.4224914
16.107391 30.002436 -0.59439409
3.8039155 7.0616884 -2.1492336
16.196251 30.054544 0.59592986
4.5341601 8.4103012 -2.2058702
16.245762 30.121275 1.7935534
5.4212222 10.051491 -2.219872
7.2635598 13.456127 -2.4219186
8.9127617 16.497561 -2.3023558
12.894916 23.838692 -1.420398
16.254856 30.025167 -0.59596479
3.9026434 7.1817946 -2.1901269
16.325882 30.043516 0.5968374
4.5541849 8.3773012 -2.201371
16.356541 30.074909 1.7941815
5.4664736 10.047073 -2.2233064
7.2542629 13.321853 -2.4025209
8.9161615 16.366989 -2.2884629
10.824955 19.854374 -1.9784353
13.038641 23.894712 -1.4265736
16.41898 30.077063 -0.59812891
3.7475944 6.8394551 -2.089705
16.455105 30.018551 0.59753549
4.5455012 8.2887897 -2.1824751
16.497395 30.070795 1.7975309
5.5222836 10.065799 -2.2317021
7.3396983 13.367443 -2.4153483
9.0315428 16.435101 -2.3025997
10.887471 19.804249 -1.9772152
13.114274 23.835052 -1.4257362
16.536816 30.030697 -0.5984081
3.9377353 7.1273198 -2.1818447
16.635246 30.097435 0.60025805
4.5621505 8.250701 -2.1766264
16.642857 30.086428 1.8019271
5.4680557 9.8849773 -2.1958301
7.236104 13.070412 -2.3662279
9.1157923 16.452095 -2.3094242
11.000973 19.846279 -1.9852335
13.202233 23.797865 -1.4262596
16.680376 30.042715 -0.59980428
3.606288 6.4739037 -1.9856598
16.773296 30.098577 0.60144484
4.6089511 8.267067 -2.1851747
16.808104 30.136295 1.8084167
5.5264373 9.9086943 -2.2053704
6.9504776 12.451725 -2.2586012
9.188652 16.447905 -2.313324
11.089618 19.842545 -1.9887197
13.338854 23.847504 -1.4320166
16.822256 30.050617 -0.60113066
3.890909 6.9278479 -2.1290457
16.913513 30.102606 0.60270137
4.5862198 8.159193 -2.1608799
16.950405 30.143591 1.8123943
5.607183 9.9714804 -2.2236881
7.4705625 13.274356 -2.4125326
9.2615938 16.443407 -2.317224
11.178381 19.838427 -1.992206
13.364116 23.698162 -1.425841
16.970303 30.068335 -0.6026665
4.0064459 7.0756063 -2.1787388
17.057922 30.112978 0.6040976
4.7021027 8.2974186 -2.2018209
17.073246 30.115515 1.8142784
5.6739058 10.008209 -2.2362814
7.5217304 13.256786 -2.4140971
9.3228607 16.417881 -2.3181989
11.23182 19.771564 -1.9894168
13.486249 23.720818 -1.4300278
17.100864 30.054108 -0.60357404
3.9621649 6.9407806 -2.1414688
17.204576 30.12619 0.60556358
4.6266322 8.0982132 -2.1532316
17.202057 30.097345 1.8167905
5.706861 9.9849319 -2.2355182
7.6179714 13.317903 -2.4300532
9.3870211 16.397293 -2.319905
11.372046 19.856728 -2.0019674
13.579899 23.692652 -1.4311792
17.249458 30.070545 -0.60510981
4.0894685 7.10607 -2.1968563
17.341566 30.121399 0.60668057
4.7550526 8.2559471 -2.1995716
17.383503 30.182062 1.8253736
5.7318716 9.9479427 -2.2317021
9.4551125 16.383341 -2.3225861
11.439302 19.813457 -2.0016189
13.58957 23.518867 -1.4235381
17.385103 30.07551 -0.60636646
4.0531759 6.9864769 -2.1642449
17.450384 30.079302 0.60699469
4.7100191 8.1154089 -2.1662786
17.516825 30.169563 1.8283045
5.7675505 9.9295702 -2.2320838
7.548667 12.990755 -2.3796813
9.5393229 16.403376 -2.3298981
11.522423 19.797518 -2.0040591
13.805161 23.71014 -1.4378781
17.530245 30.083755 -0.60776258
4.1075225 7.0263658 -2.1808095
17.610802 30.11314 0.60891449
4.7284727 8.0821018 -2.1617796
17.670465 30.190969 1.8333287
5.8123493 9.9307213 -2.2366631
7.2564931 12.388215 -2.2739315
9.6477299 16.457317 -2.342329
11.574902 19.736856 -2.0017929
13.928288 23.730703 -1.442065
17.675671 30.091347 -0.60915881
4.1290798 7.0069923 -2.1792564
17.768612 30.141066 0.61072952
4.8111043 8.1578674 -2.1865242
17.783855 30.142868 1.834166
5.8579502 9.9289732 -2.2408609
7.7275534 13.087429 -2.4072137
9.7101631 16.432087 -2.3435478
11.711663 19.811243 -2.0134718
14.006964 23.675064 -1.4416465
17.829512 30.112049 -0.61083418
4.082478 6.8729496 -2.1419864
17.904367 30.130424 0.61177665
4.8495073 8.1577759 -2.1910233
17.964504 30.20764 1.8419118
5.904613 9.9287148 -2.2454405
7.7913728 13.090932 -2.4128454
9.7349586 16.343513 -2.335748
11.844995 19.878073 -2.0244534
14.079297 23.608871 -1.4405997
17.977551 30.121754 -0.61230028
4.0657592 6.7907 -2.1207633
4.854918 8.1023493 -2.1806755
18.112976 30.216694 1.846308
5.9483218 9.9231968 -2.2488749
29.594391 49.350853 5.0344644
9.8430357 16.394529 -2.347935
11.873281 19.76828 -2.0174811
14.124574 23.497957 -1.4368315
18.113503 30.110226 -0.61334735
4.2022281 6.9633703 -2.1792564
18.221752 30.182739 0.61540675
4.8690691 8.0619984 -2.174377
18.26791 30.23534 1.8513322
5.9565248 9.8586845 -2.2389529
6.9923158 11.563894 -2.1403368
9.9125414 16.380449 -2.3508599
11.951504 19.74205 -2.0190499
14.248949 23.518545 -1.441123
18.284847 30.156254 -0.61558133
4.2275147 6.9503078 -2.179774
18.351954 30.159943 0.61624449
4.9164319 8.076581 -2.182925
18.375427 30.174799 1.8515416
6.0154114 9.8780746 -2.2481117
7.3101988 11.994854 -2.2248113
10.015136 16.420317 -2.3615842
12.074304 19.788656 -2.0281141
14.360097 23.516394 -1.4440539
18.442146 30.177553 -0.6173265
4.2497296 6.9322162 -2.1787388
18.490566 30.150253 0.61736143
4.9109664 8.0045547 -2.1680782
18.551682 30.226223 1.8586593
6.0436921 9.8469772 -2.245822
7.0211816 11.430636 -2.1246932
10.04952 16.348057 -2.3562222
12.19967 19.83803 -2.0375268
14.485014 23.535866 -1.4483454
18.584085 30.172581 -0.61854821
4.2160249 6.8236613 -2.1492336
18.679817 30.2216 0.62015378
4.9624438 8.0254879 -2.178426
18.713821 30.253002 1.8643116
6.0687351 9.8107939 -2.2423875
8.0550442 13.011745 -2.4237959
10.122211 16.338186 -2.3598781
12.311864 19.864769 -2.0446737
14.639727 23.60227 -1.4555678
18.744127 30.195877 -0.62036324
4.2898564 6.8892574 -2.1745977
18.840168 30.244474 0.62196887
5.0203195 8.0560789 -2.1914732
18.851019 30.238337 1.8674518
6.0001235 9.6246119 -2.2046072
7.7239952 12.380208 -2.3111632
10.233846 16.390316 -2.3725526
12.396968 19.847015 -2.0472884
14.704023 23.522236 -1.4537884
3.9411201 6.2802548 -1.9866952
18.972218 30.220863 0.62284154
5.0245743 8.0005484 -2.1811254
18.969183 30.192656 1.8687078
6.0378532 9.6102619 -2.2061336
8.1551571 12.970241 -2.4266117
10.261399 16.307446 -2.3657279
12.426904 19.74123 -2.0408387
14.811599 23.511318 -1.4563005
19.063244 30.236832 -0.62392348
4.3295841 6.8460808 -2.1704566
19.100054 30.189938 0.6235745
4.9857707 7.8775764 -2.1523318
19.154663 30.264593 1.8770815
6.161685 9.7317772 -2.2389529
8.0766764 12.74647 -2.3900061
10.350156 16.321817 -2.37304
12.511744 19.722971 -2.0434535
14.951389 23.550524 -1.4619528
19.171993 30.186949 -0.62420279
4.2901187 6.7315497 -2.1388805
19.274195 30.2428 0.62598288
5.1009126 8.0006714 -2.1905735
19.307453 30.271633 1.8816872
6.2800965 9.8426151 -2.2694824
8.2506876 12.926089 -2.4288018
10.41384 16.302465 -2.3752339
12.644907 19.779894 -2.0539122
15.053071 23.537832 -1.4642555
19.344091 30.224264 -0.62636691
4.3719053 6.8099504 -2.168386
19.431522 30.256096 0.62765831
5.1267042 7.9795356 -2.1896734
19.484268 30.314947 1.8885956
6.2012477 9.6483221 -2.2294126
8.3160658 12.928775 -2.4347463
10.473901 16.271023 -2.3759649
12.741709 19.786432 -2.0589671
15.174087 23.545584 -1.4680237
19.477665 30.200243 -0.62727439
4.3925042 6.7897816 -2.1668332
19.582659 30.258587 0.62912434
5.1757064 7.9943094 -2.1986716
19.58779 30.243399 1.8883861
6.1783223 9.5392828 -2.2091868
8.3922997 12.947741 -2.4438195
10.007781 15.428307 -2.2579956
12.804188 19.731812 -2.0579214
15.224645 23.443892 -1.4649882
19.652685 30.239393 -0.62950832
4.3275604 6.6384649 -2.1233516
19.710001 30.223551 0.62982243
5.2035823 7.9761925 -2.1986716
19.802406 30.342093 1.8988533
6.1761765 9.4634018 -2.1965933
8.3423901 12.772824 -2.4162872
10.60679 16.227417 -2.3803523
12.891528 19.715342 -2.0608847
15.364345 23.479185 -1.4705359
19.801949 30.237516 -0.6309045
4.4684353 6.8025465 -2.1808095
19.898834 30.281578 0.6324752
5.2410297 7.9726353 -2.2027209
19.930143 30.306166 1.9009469
6.3893185 9.715723 -2.2603235
8.1838522 12.435057 -2.3577805
10.71141 16.263239 -2.3910768
13.069893 19.83659 -2.0783157
15.504475 23.513786 -1.4760834
19.977858 30.275036 -0.63313836
4.4591012 6.7369661 -2.1647625
20.079483 30.325319 0.63484877
5.1655154 7.7983265 -2.1595302
20.108629 30.346289 1.9078552
6.3689737 9.6115313 -2.2412426
8.409524 12.681347 -2.4100296
10.75714 16.209206 -2.3886392
13.067422 19.682957 -2.0669856
15.574306 23.441217 -1.4749321
20.121069 30.261726 -0.63432515
4.5050983 6.7551131 -2.175633
20.200762 30.278328 0.63533741
5.2208304 7.822392 -2.1712275
20.214428 30.275917 1.9078552
6.4449992 9.6529198 -2.2561257
8.0290194 12.016281 -2.2889495
10.808135 16.163309 -2.3874207
13.275624 19.845884 -2.0889487
15.693808 23.443144 -1.4784909
20.302273 30.304274 -0.63669872
4.5426598 6.76019 -2.1823623
20.355423 30.280642 0.63687319
5.1458812 7.6521144 -2.1289368
20.429249 30.367567 1.918113
6.3690729 9.4674664 -2.2179639
8.4459953 12.545316 -2.3953247
10.836763 16.084324 -2.3813272
13.432786 19.929947 -2.1027195
15.809055 23.437889 -1.481631
20.4303 30.266373 -0.63739681
4.5348191 6.6979017 -2.1673508
20.535004 30.318682 0.63917691
5.3507376 7.8970699 -2.202271
20.544085 30.309301 1.9189503
6.4252114 9.4793062 -2.2259779
8.5340948 12.581146 -2.4078395
10.82037 15.939643 -2.3654842
13.435119 19.784037 -2.0922606
15.92108 23.42717 -1.4844573
20.592062 30.277544 -0.63914204
4.5527267 6.6740527 -2.1647625
20.647482 30.256721 0.63938636
5.3958526 7.9040942 -2.2094693
20.644489 30.241001 1.9189503
6.4294724 9.414669 -2.2160556
8.5322638 12.484411 -2.3950119
11.018271 16.109865 -2.3964391
13.479351 19.700842 -2.0884259
16.015177 23.389574 -1.4856086
20.714947 30.24209 -0.63984013
4.592411 6.6820006 -2.1725271
20.715984 30.141949 0.63840902
5.3878031 7.8363814 -2.1955223
20.752184 30.172052 1.9191598
6.4522834 9.3776093 -2.2126212
8.5209675 12.379577 -2.3803072
11.080637 16.086317 -2.3983889
13.527678 19.624144 -2.0852883
16.117592 23.372513 -1.4879115
20.824923 30.176184 -0.63997978
4.6266403 6.6842065 -2.1782212
20.859772 30.125355 0.63959581
5.4129071 7.814321 -2.1946225
20.897608 30.168745 1.9233465
6.4285555 9.2770891 -2.1939218
8.5979023 12.398454 -2.3896933
11.129928 16.037758 -2.3969264
13.659713 19.675743 -2.0955727
16.266308 23.412888 -1.4940871
4.6587801 6.6806955 -2.1823623
21.069357 30.213482 0.64294666
5.3005371 7.5981417 -2.1388347
21.103384 30.239744 1.9325577
6.4047017 9.1741085 -2.1748412
8.6921329 12.445989 -2.404398
11.250141 16.096762 -2.4113071
13.70548 19.595284 -2.0920866
16.323242 23.329363 -1.4922029
21.149128 30.204094 -0.64360988
4.6609254 6.6367521 -2.1730449
21.268967 30.27392 0.64580888
5.4289985 7.724679 -2.1797757
21.282322 30.270466 1.9392567
6.412509 9.120698 -2.1672087
8.5741158 12.186159 -2.3599706
11.298265 16.04603 -2.409601
13.866748 19.679247 -2.1062055
16.472477 23.368551 -1.4983785
21.295921 30.188915 -0.64486641
4.7008429 6.6417017 -2.1802919
21.406853 30.245199 0.64678615
5.3647108 7.57686 -2.1433337
21.404026 30.218803 1.9407221
6.4617877 9.1195574 -2.1725514
7.8383164 11.05408 -2.146281
11.450686 16.142494 -2.4300749
13.959582 19.664841 -2.1098664
16.595037 23.360121 -1.5017282
21.461416 30.19915 -0.64668149
4.7116623 6.6079483 -2.1745977
21.519894 30.169786 0.64685601
5.4535704 7.6428046 -2.1676283
21.621391 30.289711 1.950352
6.6156263 9.2679243 -2.2133844
8.6909466 12.166288 -2.3681052
10.774392 15.071737 -2.2748132
13.995623 19.563313 -2.1044626
16.689259 23.319921 -1.5028795
21.625509 30.195072 -0.64828706
4.7302117 6.5827909 -2.1720095
21.746426 30.263378 0.65048611
5.4802141 7.623723 -2.1676283
21.789961 30.301609 1.9560041
6.5784669 9.1448059 -2.1897242
8.8405085 12.280239 -2.3965762
11.503254 15.973162 -2.416913
14.228083 19.742245 -2.1290405
16.842386 23.352545 -1.5089504
21.822048 30.24589 -0.65100968
4.7169037 6.5209394 -2.1564806
21.942797 30.323931 0.65334827
5.5317488 7.6418133 -2.1779761
21.930147 30.284187 1.959563
6.5968027 9.1097794 -2.1862895
8.2496262 11.383862 -2.2266884
11.578308 15.965459 -2.4215441
14.249082 19.641005 -2.1229396
16.893368 23.268812 -1.5069616
21.959831 30.22513 -0.65212661
4.73736 6.5013123 -2.1554451
22.050879 30.25038 0.65341812
5.558392 7.6224551 -2.1779761
22.059261 30.239733 1.9616566
6.626246 9.0835276 -2.1855264
8.6841574 11.89586 -2.332751
11.643339 15.937765 -2.4234941
14.366935 19.658705 -2.1302607
17.02755 23.282244 -1.5116719
4.8446193 6.599978 -2.1937504
22.18709 30.215145 0.6543256
5.5526609 7.5590324 -2.1653788
22.236282 30.271034 1.9684602
6.6486149 9.0476837 -2.1824734
8.3277292 11.324399 -2.2263756
11.644774 15.823483 -2.412282
14.460269 19.642132 -2.1339211
17.121744 23.240356 -1.5128233
22.26709 30.213392 -0.65512842
4.8733697 6.5907941 -2.1963384
22.422709 30.324697 0.65830475
5.5058451 7.4434428 -2.137485
22.440428 30.326485 1.9771481
6.7070198 9.0607147 -2.1912506
8.7120228 11.765039 -2.3186719
11.420617 15.411574 -2.355247
14.624882 19.721163 -2.1480405
17.253464 23.257231 -1.5176382
22.486858 30.289618 -0.65847933
4.879045 6.5529051 -2.1890914
22.578602 30.313595 0.65977079
5.669189 7.6085711 -2.1905735
22.593872 30.312035 1.9813348
6.7487612 9.0541668 -2.1950669
8.9231176 11.962564 -2.3637249
11.908955 15.953833 -2.4444554
14.70569 19.693312 -2.1503065
17.329754 23.190468 -1.5172195
22.635544 30.268604 -0.65973586
4.9018908 6.5358329 -2.1890914
22.696287 30.250586 0.66011983
5.6196747 7.4874287 -2.1613297
22.73313 30.277699 1.9842656
6.7991872 9.0556707 -2.2011726
8.4723749 11.275949 -2.2338843
11.861979 15.775715 -2.4234941
14.786318 19.657784 -2.1520495
17.475466 23.215998 -1.5228719
22.79401 30.259678 -0.66127169
4.9258413 6.5202217 -2.1896091
22.881298 30.276485 0.66242355
5.6516542 7.4755368 -2.1635792
22.959166 30.357452 1.9947329
6.7786527 8.9629841 -2.1843815
9.1113205 12.038587 -2.3912575
12.014043 15.862398 -2.4432368
14.902801 19.662203 -2.158499
17.619131 23.237627 -1.5283147
22.947853 30.243643 -0.66266787
4.9391737 6.4882917 -2.1849504
23.049835 30.279163 0.66423857
5.6245813 7.3860011 -2.1433337
23.1255 30.356567 1.9999664
6.816215 8.9443254 -2.1859078
9.0140295 11.819767 -2.3543391
12.009143 15.74145 -2.4310501
15.019701 19.673412 -2.1654716
17.773315 23.263344 -1.534281
23.121279 30.252333 -0.66462255
4.9794235 6.4940076 -2.1927149
23.240976 30.2992 0.66654229
5.6848369 7.4086213 -2.155931
23.255651 30.307344 2.0020599
6.7983809 8.8566275 -2.1702616
8.8843613 11.565779 -2.3099115
11.967548 15.568277 -2.4110632
15.132011 19.677717 -2.1717467
17.8885 23.245493 -1.5372119
23.282858 30.244326 -0.66622818
4.9855309 6.4551797 -2.185468
23.404894 30.304255 0.66835737
5.6807766 7.3527193 -2.1451333
23.456562 30.349251 2.0102243
6.9013085 8.9260311 -2.1931586
8.9975929 11.633132 -2.3293095
12.023973 15.534781 -2.4120383
15.185963 19.605877 -2.1696551
17.970387 23.192354 -1.5376306
23.486313 30.289297 -0.66902059
5.0211396 6.4569135 -2.1916797
23.589125 30.323383 0.67059129
5.7518854 7.3912878 -2.1622295
23.613878 30.333382 2.0146205
6.8693624 8.82409 -2.173696
9.0854883 11.66243 -2.3415112
12.02565 15.425395 -2.4015574
15.313128 19.628155 -2.1780219
18.115137 23.211355 -1.5430734
23.670668 30.307997 -0.67125446
5.0364327 6.4278207 -2.1880562
23.736753 30.294378 0.67177802
5.751205 7.3374214 -2.1523318
23.791105 30.341923 2.0206914
6.9089308 8.8081198 -2.1759858
9.2062359 11.728496 -2.3615351
12.148071 15.470756 -2.4152069
15.401253 19.599646 -2.1808109
18.24453 23.201328 -1.5468417
23.815886 30.275473 -0.67237139
5.0803804 6.4374995 -2.1973739
23.92197 30.301357 0.67387235
5.7611485 7.2948833 -2.146033
23.964054 30.332886 2.0259252
6.7595091 8.5559568 -2.1195064
9.1846371 11.617262 -2.3455787
12.306926 15.555337 -2.4354372
15.490591 19.572329 -2.1837742
18.355173 23.175074 -1.5493538
23.991289 30.269466 -0.67418647
5.1268606 6.4499726 -2.2077267
5.8690715 7.3784337 -2.1766264
6.9800296 8.771965 -2.1790388
9.0491724 11.364151 -2.3008385
12.393311 15.552649 -2.4417744
15.492998 19.435558 -2.1745358
18.515665 23.210789 -1.5560528
5.1251993 6.4018745 -2.1973739
5.8289948 7.2757778 -2.1523318
7.0032434 8.7383537 -2.1767492
9.0381107 11.269315 -2.2880106
12.431375 15.489165 -2.4386058
15.644316 19.485456 -2.1862147
18.644114 23.205175 -1.5600303
5.1802564 6.4245481 -2.21135
24.502865 30.377604 0.68123722
5.8996358 7.3114982 -2.168978
24.483612 30.332035 2.0428817
7.0423369 8.7245474 -2.1794205
9.3219261 11.54042 -2.3496459
12.373045 15.306745 -2.4166694
15.822487 19.567059 -2.2015541
18.722475 23.136862 -1.559821
5.2087383 6.4139261 -2.2139382
5.950933 7.3226166 -2.178426
7.0653162 8.690773 -2.1771307
9.2910986 11.420465 -2.3318124
12.555493 15.42202 -2.4417744
15.990091 19.633749 -2.2153246
18.906595 23.198317 -1.5684042
5.2188659 6.3807492 -2.2087619
5.9998589 7.3330112 -2.1874242
7.086905 8.6554213 -2.1744595
9.2162638 11.252056 -2.3036542
12.677038 15.46627 -2.4554236
16.098949 19.627119 -2.2209024
19.026501 23.187981 -1.571963
24.904072 30.329531 -0.68500692
5.2522764 6.3783231 -2.2139382
25.04068 30.39842 0.68745029
5.9746103 7.2503605 -2.168978
25.051273 30.389627 2.0640256
7.140543 8.6621723 -2.182092
9.2315998 11.190866 -2.2977097
12.69808 15.38213 -2.4490864
16.165222 19.575157 -2.221077
19.150591 23.173765 -1.5755218
25.124493 30.3811 -0.68814838
5.2597084 6.3421063 -2.2077267
25.195166 30.369303 0.68877673
5.5095387 6.6386266 -1.9917165
7.2033401 8.6764698 -2.192014
12.848152 15.453718 -2.4676106
16.322639 19.625835 -2.2332788
19.279903 23.165127 -1.5794994
5.2941999 6.3385334 -2.2129028
6.0913153 7.2877231 -2.1928227
7.2159543 8.6301851 -2.1866713
9.4071026 11.242805 -2.3218007
12.907118 15.414861 -2.4685855
16.455 19.645119 -2.2419941
19.409405 23.155844 -1.5834768
5.2939105 6.2934022 -2.2035854
6.0815802 7.2246709 -2.1802256
25.651167 30.461725 2.0870535
7.253624 8.6139517 -2.1889608
9.447567 11.211407 -2.3221135
12.959565 15.368198 -2.4683421
16.563305 19.634766 -2.2473979
19.551952 23.161213 -1.5885011
5.3058524 6.2630968 -2.1994443
25.767799 30.405855 0.69568783
6.0311508 7.114212 -2.1532316
25.842581 30.472553 2.0939617
7.288722 8.594574 -2.1904874
9.2348461 10.881654 -2.2604783
12.961737 15.262342 -2.4585924
16.682056 19.636042 -2.2541959
19.645624 23.108036 -1.5895479
5.3326998 6.2504153 -2.201515
5.9888859 7.014565 -2.1293867
7.3250566 8.5765419 -2.1923954
13.022671 15.226058 -2.4600549
16.767332 19.597376 -2.2564621
19.77813 23.099997 -1.5937347
5.3357768 6.2121787 -2.194268
5.9752784 6.951807 -2.1163394
7.3406591 8.5373154 -2.1885793
9.5921497 11.147964 -2.3293095
11.977295 13.910163 -2.2538519
16.886364 19.597588 -2.2632601
19.958929 23.155323 -1.6021085
5.3585086 6.1925817 -2.194268
26.383095 30.489727 0.70378572
6.0543494 6.9942651 -2.1356852
26.377268 30.461498 2.1117561
9.6187096 11.096316 -2.3258679
13.142916 15.156559 -2.4632235
16.975557 19.562605 -2.2660494
20.130096 23.18154 -1.6090168
5.3635945 6.1549039 -2.1875386
6.0850692 6.9779015 -2.137485
26.609535 30.503075 2.1213858
13.359013 15.292171 -2.4932032
17.132385 19.597754 -2.2773795
20.171446 23.066032 -1.6058767
5.3988609 6.1497231 -2.1927149
26.780022 30.50453 0.70853281
6.108098 6.9551578 -2.1370349
26.779116 30.482031 2.12641
7.3807678 8.3983965 -2.1733146
9.6313353 10.951551 -2.3099115
12.613792 14.337782 -2.3447664
17.202003 19.53933 -2.2775538
20.345638 23.093847 -1.6129943
5.4036589 6.1120262 -2.1859856
26.94198 30.463099 0.70985919
6.1270981 6.9254222 -2.1347857
7.3749061 8.3328886 -2.1630108
9.3630381 10.571826 -2.2367003
13.4128 15.133789 -2.4829662
17.366598 19.58799 -2.2902787
20.47649 23.079464 -1.6169719
27.08938 30.511497 -0.71219784
5.4301009 6.0988965 -2.1880562
27.165199 30.500269 0.7129308
6.0721521 6.8152409 -2.1073413
7.2289109 8.1107016 -2.1118741
9.6930885 10.867833 -2.3064699
13.528997 15.157962 -2.4946656
17.45343 19.548069 -2.2927189
20.599516 23.055502 -1.6203214
27.283684 30.515144 -0.71450156
5.4397521 6.0669584 -2.1833978
6.1778965 6.8853812 -2.1356852
7.4551983 8.3060341 -2.1694984
9.4326506 10.501799 -2.2357616
13.589785 15.119505 -2.4961281
17.41366 19.367014 -2.2785997
20.746658 23.057695 -1.6255549
27.467663 30.516659 -0.71666563
5.4583025 6.0450687 -2.1823623
27.546381 30.50761 0.71746844
6.2725401 6.9443932 -2.16043
7.3459115 8.127037 -2.1294286
9.5932875 10.609654 -2.2654841
13.639844 15.07436 -2.4961281
17.712517 19.561613 -2.3087556
20.873955 23.045025 -1.6295325
27.72175 30.583561 -0.72050512
5.4757218 6.024075 -2.1813271
27.77648 30.547379 0.7206797
6.296741 6.9224572 -2.16043
7.4137836 8.147644 -2.1412585
9.606328 10.54981 -2.2598526
13.656285 14.987036 -2.4895473
17.801453 19.529264 -2.3118932
20.965044 22.98382 -1.6303699
5.5045443 6.0134726 -2.184433
27.974852 30.561298 0.72319287
6.289392 6.8684835 -2.1500821
7.4474869 8.1275043 -2.1427851
9.6305733 10.506252 -2.2573495
13.672366 14.905091 -2.4834535
17.948994 19.553619 -2.3221776
21.105991 22.984777 -1.6353941
5.5231457 5.9937668 -2.1839154
28.165384 30.554623 0.72535688
6.3238993 6.8579469 -2.1536813
7.4131632 8.0363836 -2.1252308
9.6805906 10.487084 -2.2604783
31.249256 33.840794 5.6557126
13.790311 14.928728 -2.4953971
18.052307 19.528881 -2.3267097
21.264742 22.996021 -1.6414652
5.5490174 5.9777312 -2.185468
28.418793 30.614412 0.72912669
6.3385196 6.8258333 -2.150532
7.4986963 8.0695639 -2.1412585
9.7472086 10.481914 -2.2670486
31.40774 33.775127 5.6630254
13.697664 14.724984 -2.469317
18.184164 19.534292 -2.3349023
21.384285 22.955919 -1.6441866
5.560617 5.9484448 -2.1818447
28.618231 30.603514 0.73136055
6.3541741 6.7925949 -2.1473827
7.5590153 8.0777407 -2.1504176
31.458439 33.605465 4.0272927
9.6217136 10.274797 -2.2295043
31.490614 33.61631 5.6557126
13.591376 14.503755 -2.4405556
18.329916 19.553549 -2.3448381
21.47521 22.89279 -1.6450239
5.5813456 5.9289994 -2.1818447
28.7826 30.575426 0.73296618
6.2136722 6.5984049 -2.0924947
7.6356359 8.1027451 -2.1641557
9.7668409 10.360703 -2.2551594
31.593758 33.503029 5.6542506
13.896845 14.731521 -2.4866223
18.428152 19.521315 -2.3486729
21.564716 22.835978 -1.6460707
5.6116085 5.9216752 -2.1859856
29.029488 30.622791 0.73652649
6.4042821 6.7534308 -2.1487324
7.6827335 8.0987425 -2.1698802
9.7322245 10.25205 -2.2388902
31.718706 33.401184 5.6557126
14.067133 14.808129 -2.5078275
18.586781 19.552179 -2.3601775
21.762667 22.885025 -1.6550725
31.502016 33.103512 -0.79764479
5.6346073 5.9024658 -2.1865032
29.2439 30.6341 0.73924905
6.4278193 6.7310328 -2.1487324
7.6255555 7.979691 -2.1454566
9.8147964 10.263417 -2.2492149
14.227138 14.872258 -2.5270829
18.665943 19.49869 -2.3615718
21.951399 22.914724 -1.6630275
31.658894 33.036655 -0.79869199
5.6618724 5.8897238 -2.1890914
29.433615 30.607422 0.74120367
6.4767628 6.7327094 -2.1568308
7.6792307 7.9799004 -2.1527071
9.8793297 10.258982 -2.2557852
14.216815 14.752829 -2.5156271
18.826525 19.529533 -2.373251
22.058992 22.866705 -1.665121
31.935076 33.09288 -0.80274087
5.6958351 5.8838029 -2.194268
29.674046 30.653315 0.74469417
6.5153232 6.7279916 -2.1622295
29.743057 30.703182 2.2402933
7.6742501 7.9192066 -2.1435483
9.7428064 10.050289 -2.2169895
13.182021 13.588538 -2.3245361
18.900135 19.46941 -2.3739481
22.145838 22.804884 -1.6659583
5.6991324 5.8482842 -2.1880562
29.903679 30.675573 0.74776578
6.5292468 6.6954398 -2.1590803
29.928144 30.679243 2.2461548
7.718286 7.9119897 -2.1485093
10.040009 10.284785 -2.2764347
14.222571 14.559163 -2.499053
19.017517 19.460772 -2.3805718
22.283941 22.787432 -1.6703546
5.7316914 5.8407626 -2.1927149
30.136656 30.699425 0.75090724
6.5757866 6.69625 -2.1667287
30.138634 30.680012 2.2539005
7.7183423 7.856986 -2.140877
10.042605 10.215875 -2.2689257
14.148021 14.382063 -2.4771163
19.240438 19.551914 -2.3999205
22.402592 22.749348 -1.6732854
30.233435 30.679972 -0.75184965
5.7534032 5.8220921 -2.1932325
30.353285 30.704977 0.75362986
6.5703464 6.6441541 -2.1572804
30.428389 30.770206 2.2679267
7.730536 7.814642 -2.1366794
10.089324 10.191985 -2.2714286
14.244236 14.379131 -2.4851599
19.331013 19.507271 -2.4027095
22.518427 22.707888 -1.6760069
5.758698 5.7869148 -2.1875386
30.567778 30.717556 0.75642222
6.6280909 6.658237 -2.168978
30.597628 30.726065 2.272532
7.7882438 7.8182139 -2.1450748
10.143986 10.179458 -2.2761219
14.148871 14.188439 -2.4602985
19.4764 19.517237 -2.4122965
22.602077 22.641563 -1.6766349
5.780592 5.770514 -2.1885738
30.829107 30.76462 0.76022685
6.6512938 6.6350584 -2.168978
30.846413 30.771118 2.2834179
7.6778932 7.6564856 -2.1076763
10.116494 10.081238 -2.2620428
13.032228 12.97776 -2.258239
19.628565 19.539686 -2.423104
22.751768 22.632963 -1.6818684
5.7938414 5.7434993 -2.1859856
31.013334 30.743862 0.76225132
6.6594133 6.5992522 -2.164479
31.101185 30.80946 2.2943039
7.7561903 7.6807494 -2.1217961
10.186362 10.083775 -2.2701774
13.03286 12.892588 -2.250927
19.770327 19.543892 -2.4321682
22.849432 22.579847 -1.6835433
33.918011 33.494442 -0.83206093
5.8069706 5.7164655 -2.1833978
31.244106 30.74641 0.7651484
6.6557732 6.5474663 -2.1554811
31.285109 30.765278 2.2995377
7.8235455 7.6935501 -2.132863
10.245798 10.068521 -2.2751832
14.43689 14.177196 -2.4844286
19.905249 19.540365 -2.4403608
23.028982 22.591059 -1.6906608
34.040554 33.369892 -0.83206093
5.8489938 5.7177663 -2.1916797
31.461372 30.744772 0.76783609
6.6953139 6.5405359 -2.1608799
7.823668 7.64013 -2.1256123
10.252604 10.005105 -2.2689257
14.38823 14.031081 -2.4676106
20.060358 19.555605 -2.4509938
23.113428 22.516104 -1.6910795
5.8703012 5.6986609 -2.1921973
31.700516 30.762886 0.77104729
6.7292957 6.5279779 -2.164479
7.8967977 7.6578784 -2.1382058
10.334281 10.014618 -2.2792504
14.511271 14.052586 -2.4802852
20.165722 19.521486 -2.4555259
23.203365 22.446404 -1.6919171
5.8665133 5.6553435 -2.1833978
6.7969542 6.5477109 -2.1788759
7.934792 7.6411629 -2.1412585
10.390529 9.9990273 -2.2839434
14.670413 14.10779 -2.499053
20.337162 19.550386 -2.4680762
23.373764 22.453817 -1.6986159
5.8848228 5.6334925 -2.1828799
6.8056855 6.5104756 -2.174377
7.9727697 7.6242714 -2.1443117
10.433935 9.9708862 -2.2858207
14.385063 13.737064 -2.4422619
20.451397 19.523306 -2.4736543
23.486687 22.40517 -1.7011281
5.9100518 5.6182427 -2.1849504
31.68462 30.109665 0.76294941
6.8085909 6.4678874 -2.1680782
8.0434656 7.6383057 -2.1561418
10.431424 9.8990479 -2.2776861
14.369546 13.626669 -2.4315374
20.614859 19.542261 -2.4851589
23.54734 22.306585 -1.6998721
31.8237 30.12575 -0.76490408
5.9296284 5.5975771 -2.1849504
31.836075 30.042789 0.7640664
6.8779016 6.4882154 -2.182925
7.6258702 7.1912837 -2.0374587
10.491785 9.8869686 -2.2833178
14.447891 13.610245 -2.4371433
20.704695 19.490679 -2.4877734
23.683254 22.278986 -1.7040589
31.815605 29.918701 -0.76232111
5.938293 5.568634 -2.1813271
31.789642 29.800282 0.76057589
6.940618 6.5040121 -2.1959722
7.6668677 7.1820641 -2.042038
14.527731 13.594816 -2.4429932
20.904558 19.548468 -2.5039845
23.888346 22.32305 -1.7134794
31.859125 29.761154 -0.76099479
5.9425921 5.5357409 -2.1761506
31.741924 29.558443 0.75708538
6.9450307 6.4650292 -2.1905735
7.840116 7.2956905 -2.0817263
10.51807 9.7808466 -2.2748702
14.569283 13.538611 -2.442018
21.024734 19.530571 -2.5106082
24.000296 22.279041 -1.7162007
31.871929 29.565437 -0.75883067
5.9604602 5.5136538 -2.175633
31.844917 29.447454 0.75708538
6.7242861 6.2158675 -2.11409
8.0198164 7.4108486 -2.1225593
10.495551 9.6918039 -2.2626684
14.620827 13.491716 -2.4427493
21.161615 19.520548 -2.518801
24.101408 22.216793 -1.7178756
5.9554834 5.4705987 -2.1668332
31.80023 29.200855 0.75359488
6.7732177 6.2173977 -2.1226382
8.0152569 7.3549361 -2.1145453
10.586097 9.7071772 -2.2748702
14.752723 13.518377 -2.4568863
21.279575 19.492323 -2.5247276
24.214176 22.164888 -1.7203877
5.9759712 5.451077 -2.1673508
31.7542 28.954947 0.75010449
6.9389019 6.3249931 -2.1676283
7.9900928 7.2806296 -2.1011887
10.542508 9.5996752 -2.2582881
14.770453 13.440082 -2.4520113
21.356335 19.425961 -2.5257733
24.341646 22.125914 -1.7239466
31.811205 28.895275 -0.75013936
5.9906664 5.4262943 -2.1657977
31.85507 28.843933 0.75010449
7.0028377 6.3386559 -2.1806755
8.0474844 7.2816763 -2.1095843
10.5657 9.5535402 -2.2560983
14.902701 13.465632 -2.4661481
21.546738 19.462137 -2.5402412
24.430597 22.051508 -1.7247839
31.837626 28.7171 -0.74839413
5.9693551 5.3691745 -2.151304
31.836597 28.62561 0.74731207
7.0118756 6.3024502 -2.1766264
