# .PCD v0.7 - Point Cloud Data file format
VERSION 0.7
FIELDS x y z
SIZE 4 4 4
TYPE F F F
COUNT 1 1 1
WIDTH 1473
HEIGHT 1
VIEWPOINT 0 0 0 1 0 0 0
POINTS 1473
DATA ascii
-4.8919997 -6.0562315 1.7973589
-6.6107068 -8.1839676 -0.18363422
-4.7328768 -5.8571472 2.0177534
-5.1849918 -6.3983622 -2.2066913
-6.661325 -8.2201815 0.18468137
-5.8855309 -7.2602482 -2.1577303
-11.671715 -14.392816 0.97114617
-6.6134214 -8.152338 -2.0405114
-12.539658 -15.452071 1.7410232
-6.629549 -8.1693029 -1.6663401
-12.132331 -14.944817 2.3635342
-6.6449976 -8.1825018 -1.2942526
-13.054661 -16.069485 3.2791798
-6.6521835 -8.1855145 -0.92280495
-6.090591 -7.4944744 1.8771789
-6.667357 -8.2012548 -0.55392385
-4.9108272 -6.0384636 1.796909
-6.6695199 -8.1980724 -0.18447194
-4.7776814 -5.8705573 2.0281062
-5.2306051 -6.4110713 -2.2170439
-6.6925077 -8.1999779 0.18475117
-5.9120693 -7.2411699 -2.1581805
-11.292327 -13.826046 0.93555766
-6.6404181 -8.1303635 -2.0405114
-11.151229 -13.64842 1.5419594
-6.726778 -8.2302351 -1.6835479
-12.810172 -15.667701 2.4849162
-6.7036824 -8.1961336 -1.3001022
-13.080648 -15.987128 3.2716708
-6.6893849 -8.175746 -0.92419946
-6.0955777 -7.4473405 1.8706915
-6.7060661 -8.1902943 -0.55476117
-4.8972988 -5.9790735 1.7843118
-6.7259798 -8.2087679 -0.18523984
-4.8067174 -5.8643031 2.0317297
-5.2431421 -6.3808322 -2.2129028
-6.7388654 -8.1981945 0.18523984
-5.9571128 -7.2445717 -2.1653788
-11.634883 -14.14439 0.95984149
-6.5739732 -7.9919014 -2.0115087
-11.039288 -13.415565 1.519996
-6.7529559 -8.2036552 -1.6829221
-12.881188 -15.642809 2.4880846
-6.7322497 -8.1726847 -1.3001022
-13.41777 -16.282852 3.3417535
-6.7356219 -8.173872 -0.92663985
-6.1352735 -7.4426808 1.8748893
-6.7447786 -8.1791639 -0.55559856
-4.9206223 -5.9649477 1.7852116
-6.7367749 -8.1636477 -0.18475117
-4.8456044 -5.8698368 2.0394943
-5.2604556 -6.3565402 -2.2108324
-6.7776432 -8.186944 0.18551907
-5.9935513 -7.2372413 -2.1694279
-11.289189 -13.626907 0.92739326
-6.6631994 -8.0429869 -2.0302079
-11.002141 -13.275701 1.5084915
-6.7840738 -8.1830721 -1.6835479
-12.724086 -15.342578 2.4473803
-6.7886219 -8.1827469 -1.3054645
-13.247452 -15.962298 3.2854371
-6.7742944 -8.1625738 -0.92803437
-6.1624684 -7.4227309 1.8752708
-6.8064656 -8.1955185 -0.55832005
-4.9152622 -5.9162574 1.7757636
-6.7780099 -8.1554623 -0.18510023
-4.8006072 -5.7741551 2.0120592
-5.2541642 -6.3040061 -2.1989267
-6.8189855 -8.1785936 0.18586813
-6.0350041 -7.2357302 -2.1752765
-11.863856 -14.219247 0.97051805
-6.6472135 -7.966918 -2.0168512
-10.884999 -13.041426 1.4861796
-6.8455124 -8.1987667 -1.6916825
-12.179471 -14.581995 2.332823
-6.8553271 -8.2046995 -1.3127767
-13.419637 -16.055403 3.3142209
-6.8027439 -8.1388788 -0.92803437
-6.8222203 -8.1563883 -0.55727333
-5.9963398 -7.1664596 2.1572804
-6.8706117 -8.2084236 -0.18684547
-4.8219757 -5.7588425 2.0125771
-5.2748961 -6.2841482 -2.1984091
-6.8706398 -8.1823072 0.18649642
-6.0564651 -7.2101445 -2.1739271
-11.605046 -13.810763 0.94539684
-6.7179251 -7.9947696 -2.0298262
-12.581692 -14.967731 1.7106929
-6.8969741 -8.2020359 -1.6973141
-12.179184 -14.478627 2.3230736
-6.8864818 -8.1837578 -1.3132643
-13.483232 -16.017529 3.3160982
-6.8388114 -8.1242285 -0.92908025
-5.0772824 -6.0294676 1.5321964
-6.8969707 -8.1875172 -0.56104147
-4.9112372 -5.8281527 1.7595671
-6.8966455 -8.1813335 -0.18677565
-4.8731813 -5.7788973 2.0255179
-5.300539 -6.2701235 -2.1999619
-6.9249845 -8.1888123 0.18719451
-6.0803375 -7.1874709 -2.1734772
-11.627378 -13.73968 0.94330335
-6.6849136 -7.8993378 -2.0115087
-11.820271 -13.962667 1.600528
-6.9306693 -8.1839409 -1.6985657
-12.322038 -14.545081 2.3406229
-6.938108 -8.1869287 -1.3176514
-13.482857 -15.904065 3.3023319
-6.8800125 -8.1155033 -0.93082333
-6.9616871 -8.2060366 -0.56397235
-4.9315515 -5.8109736 1.7595671
-6.9588108 -8.1968451 -0.18768318
-4.9008274 -5.7706866 2.0286238
-5.3236485 -6.2530532 -2.2004797
-6.9716787 -8.1859035 0.18768318
-6.131928 -7.1973557 -2.182925
-11.239975 -13.188259 0.90813363
-6.7099013 -7.8729644 -2.0107453
-11.700893 -13.724219 1.5778675
-6.9822655 -8.1867523 -1.7041972
-13.148365 -15.41109 2.4873536
-7.028501 -8.235137 -1.3293509
-12.44291 -14.573933 3.0351417
-6.9186468 -8.1035624 -0.93221778
-5.146028 -6.0252252 1.5402104
-6.9721251 -8.1604261 -0.56250691
-4.9480085 -5.7892785 1.7582175
-7.0133705 -8.2029018 -0.18838128
-4.9410319 -5.7770343 2.036906
-5.3454432 -6.2344322 -2.2004797
-7.0444727 -8.2131252 0.18886994
-6.1671662 -7.1877384 -2.1865242
-11.205291 -13.054979 0.90164393
-6.7833753 -7.9031258 -2.0244837
-11.561828 -13.465621 1.5527666
-7.0622869 -8.2222691 -1.7167121
-13.248652 -15.419302 2.4961281
-7.0339112 -8.1834564 -1.3249637
-12.674015 -14.740105 3.0789435
-6.9962544 -8.1367683 -0.93884164
-5.0684509 -5.8926172 1.5108256
-7.0500679 -8.1935711 -0.56648445
-4.9694567 -5.7734489 1.7586673
-7.034133 -8.1692781 -0.18817185
-4.9687304 -5.7685351 2.0400119
-5.3686128 -6.2195959 -2.201515
-7.0533733 -8.1685305 0.18838128
-6.2075281 -7.186419 -2.192373
-11.238074 -13.005659 0.90080655
-6.8044109 -7.8746452 -2.0229571
-11.545181 -13.356362 1.544574
-7.0662556 -8.1719103 -1.7110804
-13.364646 -15.45035 2.5083151
-7.0921841 -8.1961126 -1.3308133
-12.218615 -14.115514 2.9569244
-7.0376577 -8.1273594 -0.94058478
-5.0982451 -5.8876505 1.5138787
-7.0981236 -8.1943016 -0.56815922
-4.987299 -5.755465 1.7582175
-7.1161966 -8.2093697 -0.18963784
-4.9713798 -5.7330518 2.0332825
-5.3863006 -6.194047 -2.1994443
-7.1264577 -8.1951637 0.18956804
-6.2453675 -7.1794081 -2.196872
-11.608557 -13.340006 0.92676514
-6.8306479 -7.846693 -2.0221939
-11.393869 -13.084066 1.5179044
-7.1247048 -8.1787243 -1.7179635
-16.469633 -18.906128 3.0786636
-7.1364007 -8.1892643 -1.3337382
-12.241857 -14.042994 2.9506674
-7.0581255 -8.0937347 -0.9395389
-5.026866 -5.7624068 1.4864022
-7.1228585 -8.1622095 -0.5677405
-5.0378351 -5.7709131 1.7685652
-7.1553283 -8.1965322 -0.1899171
-5.4117074 -6.1795673 -2.2009974
-7.1696239 -8.1840305 0.1899171
-6.2780595 -7.1637988 -2.1991215
-11.40231 -13.011004 0.90666825
-6.8864689 -7.8552794 -2.0305893
-11.367217 -12.96183 1.5083174
-7.1792645 -8.1835022 -1.7242209
-13.045387 -14.864939 2.4283688
-7.1768465 -8.1749887 -1.3356882
-12.116165 -13.801258 2.9087429
-7.1284065 -8.1169538 -0.94511688
-5.1246967 -5.8333187 1.5092993
-7.225141 -8.2213097 -0.57360214
-5.0553751 -5.7503657 1.7676654
-7.1970992 -8.1865244 -0.19026613
-20.574587 -23.394844 8.34795
-5.4268565 -6.1533952 -2.1984091
-7.2178869 -8.184206 0.19047557
-6.313385 -7.1560926 -2.2031708
-11.770128 -13.336508 0.93220812
-6.9411335 -7.8621001 -2.0386035
-11.372826 -12.87727 1.5030879
-7.2246699 -8.1803789 -1.728601
-11.901201 -13.470801 2.2070539
-7.217062 -8.1660175 -1.3381255
-12.179967 -13.776638 2.912497
-7.183095 -8.1218691 -0.94860309
-5.0711756 -5.7339387 1.4879286
-7.23913 -8.1823463 -0.57255542
-4.9698033 -5.6153669 1.7312233
-7.2521453 -8.1912947 -0.19096424
-16.921192 -19.105759 6.8385172
-5.4574914 -6.1469235 -2.2025502
-7.3128076 -8.2337179 0.19222081
-6.3370318 -7.1325545 -2.2027209
-11.787417 -13.262501 0.92990541
-6.950211 -7.8199644 -2.0336425
-11.382372 -12.802261 1.4987302
-7.2899394 -8.1964388 -1.7373614
-11.86634 -13.337224 2.1919422
-7.2851162 -8.1852608 -1.3454378
-15.046895 -16.900141 3.583914
-7.2179384 -8.1069336 -0.94964898
-5.0767984 -5.7000742 1.4837308
-7.2809324 -8.1719408 -0.57360214
-5.0684676 -5.6867256 1.7586673
-7.2886791 -8.1748848 -0.19117366
-20.868567 -23.397694 8.4007483
-5.4673281 -6.1148725 -2.1978915
-7.3415036 -8.2081413 0.19222081
-6.3709846 -7.1205573 -2.2058702
-11.716426 -13.090309 0.92069423
-7.0088916 -7.8307629 -2.0428011
-11.7021 -13.069712 1.5348126
-7.3132319 -8.1650581 -1.7361099
-11.853213 -13.229191 2.1809738
-7.3454423 -8.1952581 -1.3512874
-15.142715 -16.888699 3.5926745
-7.2940731 -8.1350927 -0.95592415
-5.155652 -5.7480869 1.5009036
-7.3600988 -8.2029657 -0.57757968
-5.1989317 -5.7922683 1.796909
-7.3225126 -8.1553469 -0.19131328
-14.583366 -16.236319 5.8477578
-5.4963956 -6.1043649 -2.2009974
-7.3701091 -8.1824665 0.19222081
-6.410152 -7.1141982 -2.2108188
-11.507979 -12.767455 0.90080655
-7.0388126 -7.809166 -2.0435643
-11.781003 -13.065779 1.5391705
-7.3893218 -8.1922846 -1.7473731
-11.921927 -13.21279 2.1851175
-7.3979445 -8.1960945 -1.3556747
-17.242931 -19.096527 4.0751181
-7.325098 -8.1125383 -0.95627278
-4.9967141 -5.5319138 1.4490036
-7.3940444 -8.1831512 -0.57799834
-5.2870679 -5.8492622 1.8203038
-7.4018993 -8.1860991 -0.19263966
-22.59428 -24.979284 9.0250206
-5.5163717 -6.0837116 -2.2004797
-7.430871 -8.1922369 0.19305852
-6.4401841 -7.0975523 -2.2126186
-11.995457 -13.215239 0.93534833
-7.0726242 -7.7918181 -2.0454724
-11.696621 -12.881497 1.5222622
-7.409905 -8.1576681 -1.745496
-12.000013 -13.206358 2.1909673
-7.4398627 -8.184907 -1.358112
-13.266841 -14.590296 3.1233709
-7.3748183 -8.1105051 -0.9590618
-5.0437355 -5.5449371 1.4570175
-7.425252 -8.1602459 -0.57820767
-5.3336897 -5.8595934 1.8293018
-7.4815903 -8.2163973 -0.19396605
-14.899302 -16.356907 5.9285092
-5.5375743 -6.0644193 -2.2004797
-7.4540291 -8.1603413 0.19291891
-6.4754348 -7.0865388 -2.2162178
-11.940449 -13.062721 0.92749786
-7.0772624 -7.7424483 -2.038985
-11.683704 -12.777362 1.5147668
-7.4783311 -8.1754808 -1.754882
-12.027277 -13.143886 2.1875548
-7.4898338 -8.1823158 -1.3620119
-12.591972 -13.751359 2.9531701
-7.4649792 -8.1523056 -0.96708012
-5.0484724 -5.511374 1.4528197
-7.5400486 -8.2285194 -0.5849067
-5.3448935 -5.8308845 1.8261526
-7.5048203 -8.1843367 -0.19382644
-14.891015 -16.23362 5.9026275
-5.5404019 -6.0251431 -2.1932325
-7.5420337 -8.1990299 0.19445471
-6.5040913 -7.0681939 -2.2175674
-11.96839 -13.001859 0.92613721
-7.1334977 -7.749474 -2.0473807
-11.675599 -12.679338 1.5079685
-7.5442967 -8.1900082 -1.7636423
-12.2937 -13.341228 2.2275281
-7.5533323 -8.1940708 -1.3683491
-12.749702 -13.826407 2.9788256
-7.5366087 -8.1730709 -0.9726581
-12.653895 -13.717696 3.6276608
-7.5633082 -8.1962776 -0.58448797
-5.3572826 -5.8036008 1.8234532
-7.5713291 -8.1992254 -0.19480376
-14.903022 -16.133291 5.8850274
-5.5653386 -6.0100193 -2.1947856
-7.5787621 -8.1814547 0.19466414
-6.5048823 -7.0197182 -2.2094693
-11.967541 -12.910199 0.92257828
-7.1084547 -7.6683731 -2.0324974
-11.794295 -12.718861 1.5175557
-7.6185164 -8.212863 -1.77428
-12.068789 -13.005757 2.1785367
-7.5980935 -8.1851149 -1.371274
-12.776381 -13.758656 2.9738195
-7.6139002 -8.1992722 -0.97893327
-15.348669 -16.522915 4.383646
-7.5973091 -8.1756802 -0.5849067
-7.5944562 -8.1668892 -0.19466414
-12.719765 -13.673738 5.0040078
-5.5770607 -5.9806657 -2.1911621
-7.618187 -8.166647 0.19494337
-6.5306773 -6.9983926 -2.2099192
-12.405043 -13.288824 0.9527238
-7.128479 -7.6363387 -2.0305893
-11.76927 -12.603347 1.5086659
-7.641747 -8.1804438 -1.7730285
-12.158838 -13.011415 2.1865799
-7.6699982 -8.2049475 -1.3790736
-12.816238 -13.705315 2.9719424
-7.6479197 -8.1784639 -0.97963053
-14.896596 -15.924422 4.2386312
-7.6858473 -8.2132778 -0.58951229
-12.783675 -13.656152 4.3186107
-7.6420512 -8.1607656 -0.1951528
-12.593081 -13.44315 4.9356794
-5.5793896 -5.9414463 -2.1839154
-7.6767669 -8.1720715 0.19571128
-6.5510621 -6.9712949 -2.2085695
-12.522489 -13.321113 0.95816678
-7.1416445 -7.5971041 -2.0267732
-11.794082 -12.54187 1.5062256
-7.6174674 -8.0976076 -1.7608266
-11.884487 -12.629166 2.1293013
-7.6210365 -8.0957336 -1.3651805
-12.901917 -13.700762 2.9807026
-7.6245151 -8.0966005 -0.97300667
-12.967813 -13.765924 3.6761262
-7.6432447 -8.1108122 -0.58406937
-12.895425 -13.679512 4.3402057
-7.7390881 -8.2067823 -0.19689806
-12.272732 -13.00985 4.7922935
-5.5908022 -5.9121103 -2.1802919
-7.68326 -8.1219797 0.1951528
-6.5874114 -6.9611235 -2.2126186
-14.018854 -14.808984 1.0687003
-7.1465244 -7.5493164 -2.0206673
-11.885741 -12.551255 1.5123265
-7.6633472 -8.0896101 -1.7648939
-12.192029 -12.865697 2.176343
-7.6683674 -8.0892525 -1.3685929
-16.86433 -17.783728 3.8817654
-7.6815214 -8.100297 -0.97666723
-13.034703 -13.740516 3.681469
-7.675633 -8.0884304 -0.58438331
-18.049498 -19.013557 6.0525331
-12.307423 -12.955729 4.7881522
-5.6207314 -5.9023519 -2.1839154
-7.6881175 -8.0704975 0.19455943
-6.6210809 -6.9479613 -2.2157679
-12.074961 -12.666677 0.91713536
-7.1457391 -7.4959059 -2.0130351
-12.278728 -12.875924 1.5566015
-7.8088002 -8.1857328 -1.7918006
-12.415025 -13.009752 2.2080288
-7.8048444 -8.1758699 -1.3878481
-13.668465 -14.313232 3.134634
-7.7923098 -8.1598883 -0.98712587
-13.224982 -13.84399 3.721539
-12.866725 -13.459558 4.2988148
-7.6953044 -8.0470514 -0.19435
-12.268442 -12.824742 4.7555413
-5.6386261 -5.8799043 -2.1828799
-7.7591567 -8.0883465 0.19564149
-6.6358466 -6.9149661 -2.2126186
-12.087296 -12.591311 0.91472793
-7.2996659 -7.6040463 -2.0489073
-12.417442 -12.930705 1.5684546
-7.8646946 -8.1869183 -1.7980579
-12.677687 -13.192487 2.2465396
-7.8773589 -8.1943703 -1.3956479
-17.029146 -17.708277 3.8911512
-7.8746047 -8.1886482 -0.99392402
-13.32903 -13.855751 3.737185
-7.9050264 -8.2145386 -0.5974673
-18.406147 -19.120138 6.1272168
-12.370768 -12.841665 4.7777996
-5.6631436 -5.8643556 -2.184433
-7.9290547 -8.2079115 0.19920176
-6.6585922 -6.8903575 -2.2121687
-12.476828 -12.9066 0.94079131
-7.3384447 -7.5912223 -2.0523417
-12.515131 -12.941709 1.5750785
-7.8959727 -8.1622524 -1.7986836
-12.741607 -13.166698 2.2497082
-7.9390502 -8.2010555 -1.4014976
-13.84776 -14.299766 3.1527805
-7.9280906 -8.1868715 -0.99706167
-13.213393 -13.639927 3.691391
-7.9280915 -8.18116 -0.59704864
-18.347988 -18.927044 6.0858259
-7.9364467 -8.1840591 -0.19899234
-13.003335 -13.404357 5.0040078
-5.6593351 -5.819623 -2.1751153
-7.9576573 -8.1801844 0.19920176
-6.6839623 -6.8684692 -2.2126186
-13.714354 -14.088017 1.0303905
-7.2786217 -7.4769363 -2.0282996
-12.398988 -12.732366 1.5548583
-7.9547415 -8.1657696 -1.8055668
-12.755623 -13.089445 2.2441022
-7.9731727 -8.1789761 -1.4024725
-13.759679 -14.109914 3.1214936
-7.9482746 -8.150588 -0.99601579
-13.118346 -13.447569 3.6517026
-7.9817104 -8.179162 -0.59893274
-16.774973 -17.18395 5.5441437
-7.9733467 -8.1648922 -0.19920176
-12.70581 -13.006495 4.8720102
-5.6850219 -5.8053536 -2.177186
-8.0141535 -8.1809244 0.19989987
-6.7106233 -6.8478808 -2.2135184
-16.526054 -16.864075 1.2374314
-7.4063787 -7.5552292 -2.0565395
-12.245272 -12.487006 1.5301063
-8.0495949 -8.2056417 -1.8205845
-12.798453 -13.042006 2.2436149
-8.021143 -8.1709261 -1.4058849
-13.670779 -13.926061 3.0908327
-8.0325146 -8.1796589 -1.0029882
-13.064773 -13.299457 3.6238446
-8.0410118 -8.1825914 -0.60123557
-16.971462 -17.264265 5.5891337
-8.0284166 -8.1669273 -0.19989987
-12.751581 -12.967045 4.8730454
-5.6998258 -5.7799716 -2.1751153
-8.0721264 -8.1856289 0.20066777
-6.7401381 -6.8325262 -2.2157679
-13.377843 -13.556482 0.99815142
-7.4340863 -7.5307274 -2.056921
-12.168386 -12.322269 1.5151154
-8.1045227 -8.2070141 -1.8268418
-17.275169 -17.487528 3.0182164
-8.062149 -8.1584034 -1.4083222
-13.622092 -13.779921 3.0689316
-8.061018 -8.1515694 -1.0029882
-13.195773 -13.344003 3.6478865
-8.0652924 -8.1530418 -0.60102618
-17.171177 -17.351946 5.6359239
-8.0990801 -8.1814871 -0.20094702
-12.685302 -12.809894 4.8305988
-5.7216835 -5.7637801 -2.1761506
-8.0752878 -8.1318626 0.20003949
-6.7680683 -6.8131051 -2.2171178
-13.191882 -13.279665 0.98098528
-7.475625 -7.5227447 -2.0615005
-12.189516 -12.262068 1.512675
-8.1414785 -8.1870775 -1.8287191
-17.534906 -17.626963 3.0528274
-8.1591873 -8.1991596 -1.4202654
-13.815413 -13.883095 3.1020958
-8.113307 -8.1502094 -1.0061259
-12.67152 -12.724712 3.49066
-8.1472645 -8.1786098 -0.60500371
-8.1459284 -8.1744146 -0.20143569
-5.747231 -5.7492399 -2.1782212
-8.1559305 -8.1587811 0.20136586
-6.7892447 -6.7892447 -2.2166677
-13.170355 -13.165759 0.97596097
-7.4935064 -7.4882774 -2.0592108
-12.216741 -12.203955 1.5107577
-8.1853542 -8.1767864 -1.8324735
-13.896221 -13.876833 2.4113071
-8.1975718 -8.1832781 -1.4222155
-13.648458 -13.619904 3.0539141
-8.2009506 -8.1809368 -1.0134469
-12.719207 -12.688168 3.4921863
-8.168685 -8.1459064 -0.60458505
-17.261288 -17.207148 5.6269259
-8.1800785 -8.151576 -0.20157529
-16.696108 -16.632118 6.3146672
-5.7703748 -5.7342339 -2.179774
-8.2212477 -8.1669016 0.20227338
-6.8101377 -6.7627587 -2.2157679
-13.392509 -13.299336 0.98914969
-7.547555 -7.492434 -2.0672247
-12.2727 -12.178812 1.512675
-8.22787 -8.162076 -1.8356022
-16.602962 -16.464457 2.8709981
-8.2289066 -8.1574078 -1.4227029
-12.53196 -12.423073 2.7948585
-8.239357 -8.164917 -1.0148414
-14.54871 -14.412235 3.9806576
-8.2254534 -8.1454496 -0.60667849
-17.25477 -17.080982 5.6053305
-8.2639112 -8.1806784 -0.20297149
-16.523228 -16.351091 6.2287397
-5.8068571 -5.73034 -2.1859856
-8.2852898 -8.176115 0.20318091
-6.8311396 -6.7387695 -2.215318
-12.821656 -12.643875 0.94372207
-7.5387111 -7.4315834 -2.0576842
-12.335005 -12.155476 1.5151154
-8.3083582 -8.1874342 -1.8474913
-20.11935 -19.819614 3.4676704
-8.3011742 -8.1746464 -1.4305025
-12.631557 -12.434683 2.8073733
-8.2763262 -8.1444921 -1.0158873
-12.9648 -12.758283 3.5356908
-8.2808952 -8.1461401 -0.60877192
-17.063993 -16.780455 5.5252476
-8.3523083 -8.2106609 -0.20443749
-16.530596 -16.244574 6.2101045
-5.8071208 -5.6887407 -2.1782212
-8.3394833 -8.1666279 0.2037394
-6.8653193 -6.7206697 -2.2180173
-12.487547 -12.220178 0.91566998
-7.5799294 -7.4176359 -2.0615005
-12.390865 -12.121333 1.51651
-8.3764544 -8.1913815 -1.8556259
-13.006928 -12.715114 2.2333777
-8.3381796 -8.1482611 -1.4314774
-14.196816 -13.868611 3.1433947
-8.3431787 -8.1503 -1.0204194
-16.418461 -16.033306 4.4607329
-8.3435545 -8.1449785 -0.61107469
-13.131092 -12.814097 4.2358284
-8.3723221 -8.1673594 -0.20415826
-13.508573 -13.173261 5.0557714
-5.815865 -5.6576581 -2.1740801
-8.3708076 -8.1402531 0.2038092
-6.8901329 -6.6980238 -2.2184672
-13.655949 -13.270562 0.99794209
-7.6240792 -7.4089189 -2.0664616
-12.818959 -12.452838 1.563574
-8.4106636 -8.1675987 -1.8568773
-13.059781 -12.677931 2.2348402
-8.412159 -8.1633434 -1.4392771
-18.748228 -18.187347 4.1370664
-8.4373589 -8.1849432 -1.0284377
-13.635821 -13.223269 3.6921542
-8.3948793 -8.1380463 -0.6127494
-17.329285 -16.793245 5.5711379
-8.4266357 -8.163126 -0.20478654
-13.210303 -12.792736 4.9273968
-5.8230734 -5.6252418 -2.1694212
-8.4624624 -8.1721067 0.20534502
-6.909266 -6.6698718 -2.2171178
-12.412374 -11.982306 0.90415609
-7.6315312 -7.3645358 -2.0615005
-12.25436 -11.821507 1.489666
-8.4618731 -8.1601295 -1.8618832
-19.232191 -18.5399 3.2799919
-8.4749069 -8.1669912 -1.4451268
-17.892408 -17.242331 3.9355788
-8.4859676 -8.1747942 -1.0308782
-17.765966 -17.108519 4.7942672
-8.466403 -8.1502476 -0.61588961
-17.359713 -16.705631 5.56214
-8.4651852 -8.1462336 -0.20506579
-18.729694 -18.017691 6.9637856
-5.8454623 -5.6075559 -2.1704566
-8.4924021 -8.1467667 0.20541482
-6.9341588 -6.6496201 -2.2180173
-12.81457 -12.28444 0.93032408
-7.6444321 -7.3256273 -2.0580659
-12.295551 -11.77866 1.489666
-8.5216961 -8.1634531 -1.8690792
-12.91351 -12.36632 2.1953545
-8.5277548 -8.1635504 -1.4495142
-14.615742 -13.986645 3.2040911
-8.5288496 -8.1588926 -1.0326213
-17.774368 -17.003366 4.781292
-8.5366879 -8.163538 -0.61902976
-17.533342 -16.761086 5.5999317
-8.5514002 -8.171895 -0.20646198
-13.453526 -12.851977 4.9853725
-5.8528361 -5.5774808 -2.1663156
-8.5439548 -8.139143 0.20597331
-6.9375715 -6.6065602 -2.2117188
-13.696401 -13.03835 0.99103373
-7.6729493 -7.3042989 -2.0592108
-12.426915 -11.825725 1.5008219
-8.575901 -8.158164 -1.8747108
-12.947971 -12.312957 2.193892
-8.5648308 -8.1419392 -1.4509765
-17.869154 -16.980923 3.9042921
-8.5876312 -8.1607609 -1.036456
-17.907629 -17.01153 4.801136
-8.6056824 -8.1722002 -0.62196058
-13.343266 -12.666717 4.2475257
-8.6059828 -8.1667709 -0.20709024
-13.442244 -12.751759 4.9646673
-5.8638525 -5.5490479 -2.1632097
-8.6100826 -8.1449976 0.20688082
-6.9690843 -6.5903392 -2.2144182
-12.580713 -11.89283 0.90729618
-7.6769991 -7.2572398 -2.0534863
-12.528939 -11.839747 1.5081429
-8.6344805 -8.1566677 -1.8812811
-19.222908 -18.152798 3.2463558
-8.6422796 -8.1583242 -1.4592637
-17.844997 -16.839806 3.8861454
-8.6769276 -8.1881647 -1.0437772
-19.335016 -18.239523 5.1667261
-8.6312504 -8.13937 -0.62175119
-13.461139 -12.689569 4.2709208
-8.6577206 -8.1586256 -0.20764874
-13.32918 -12.556396 4.9066916
-5.8831868 -5.5285459 -2.1632097
-8.6559496 -8.1313257 0.20729968
-6.9920478 -6.5659699 -2.2144182
-13.964746 -13.109183 1.0038037
-7.7237563 -7.2505536 -2.0592108
-12.58472 -11.80958 1.5098861
-8.6974783 -8.1589108 -1.8887899
-13.126287 -12.309172 2.2094915
-8.7112541 -8.1661224 -1.4660883
-16.851442 -15.791384 3.6577513
-8.7475929 -8.1944485 -1.0486579
-13.653072 -12.789736 3.6364379
-8.7120914 -8.1583385 -0.62551939
-13.670379 -12.796992 4.3231091
-8.7036686 -8.1447506 -0.2080676
-13.478744 -12.60877 4.9455147
-5.9005837 -5.5043106 -2.1621742
-8.7369232 -8.1501665 0.20855626
-7.0049491 -6.5322194 -2.2112689
-13.741605 -12.809775 0.9845441
-7.7229896 -7.1967654 -2.05196
-12.627922 -11.763371 1.5098861
-8.7562351 -8.153904 -1.8950473
-13.186604 -12.279513 2.2124164
-8.7891092 -8.1816492 -1.4743755
-15.000489 -13.958844 3.2453897
-8.7586384 -8.1475792 -1.0465661
-13.636598 -12.680783 3.6196468
-8.7887459 -8.1698666 -0.62886894
-17.665756 -16.416035 5.5675387
-8.8111496 -8.1878262 -0.20995246
-13.241009 -12.3 4.8425045
-5.9211793 -5.4849911 -2.1626918
-8.8489008 -8.1941748 0.21051092
-7.0088205 -6.4879694 -2.2049701
-14.381304 -13.312576 1.0270408
-7.7826462 -7.2017641 -2.0611188
-14.365504 -13.288636 1.7120874
-8.8136511 -8.1501122 -1.9013047
-16.403477 -15.163216 2.7427917
-8.8263617 -8.1590042 -1.4758378
-15.063633 -13.919804 3.2485185
-8.8280039 -8.15481 -1.0514468
-13.617315 -12.574501 3.6028554
-8.8436289 -8.1635237 -0.63075304
-17.791693 -16.42345 5.5900335
-8.8720083 -8.1868534 -0.21072036
-13.834812 -12.761929 5.0433478
-5.9436002 -5.4692516 -2.1642449
-8.84659 -8.1377087 0.20981283
-7.0417733 -6.4752445 -2.2085695
-14.081349 -12.948468 1.0025476
-7.8816452 -7.2450047 -2.0809629
-14.459373 -13.28676 1.718014
-8.8726349 -8.1502399 -1.9081879
-13.052689 -11.985753 2.1758554
-8.8709154 -8.1458015 -1.4787627
-19.795568 -18.171101 4.2559566
-8.8667402 -8.1362686 -1.0528414
-13.595283 -12.470882 3.5860643
-8.8735952 -8.1368513 -0.63096237
-13.137857 -12.047068 4.1152544
-8.8755207 -8.1357698 -0.21016188
-12.985438 -11.898962 4.7193069
-5.960278 -5.4482079 -2.1637273
-8.9000998 -8.1326084 0.21044111
-7.054574 -6.4439707 -2.2058702
-14.268053 -13.028525 1.0125962
-7.9172249 -7.2294207 -2.0840161
-18.046785 -16.473202 2.1377561
-8.920042 -8.1394119 -1.912568
-13.140759 -11.986553 2.1838987
-8.9403677 -8.1522379 -1.4855874
-19.882231 -18.123186 4.2609625
-8.9083967 -8.1202421 -1.0545845
-13.619149 -12.409862 3.581485
-8.9300594 -8.1342793 -0.63305581
-13.516995 -12.308152 4.2205319
-8.9482307 -8.1451178 -0.21120901
-12.985457 -11.815857 4.7042952
-5.9620957 -5.4117875 -2.1575158
-8.9758224 -8.1444912 0.21155807
-7.0813551 -6.423234 -2.2072196
-15.195276 -13.77823 1.0749806
-7.9525952 -7.2109699 -2.0866873
-18.201605 -16.498423 2.1492605
-8.9864597 -8.1427116 -1.9207026
-16.841555 -15.254926 2.790077
-9.0040846 -8.1529598 -1.4914372
-14.957197 -13.538597 3.1953306
-8.9839563 -8.1318817 -1.0601624
-13.639091 -12.34117 3.5753791
-8.9998713 -8.1405735 -0.63598657
-13.354621 -12.0753 4.1566453
-8.9973774 -8.1326065 -0.21169768
-14.422741 -13.031951 5.2084746
-5.9737735 -5.3844767 -2.1549275
-9.0339098 -8.1398821 0.21225616
-7.1037321 -6.398478 -2.2072196
-15.169643 -13.66361 1.0699563
-8.017108 -7.218637 -2.0969911
-18.300549 -16.472107 2.1541414
-9.0588837 -8.1509285 -1.9300886
-13.624092 -12.254278 2.2499521
-9.0620108 -8.1480246 -1.4963119
-15.00201 -13.488922 3.1953306
-9.0774889 -8.1590719 -1.0678321
-13.658721 -12.272495 3.5692732
-9.0846968 -8.1598244 -0.63996416
-13.434395 -12.062458 4.1683431
-9.0659599 -8.1401329 -0.21267503
-14.50182 -13.016312 5.221416
-6.0184436 -5.3867826 -2.1642449
-9.1055536 -8.149888 0.21330331
-7.1045799 -6.3566942 -2.2009211
-15.392914 -13.767688 1.0823077
-8.0686016 -7.2141628 -2.1038601
-16.046482 -14.342174 1.8829125
-9.1329918 -8.1629705 -1.9401004
-17.19665 -15.364782 2.8315127
-9.1363592 -8.1602449 -1.5041116
-15.343708 -13.699597 3.2579045
-9.1475325 -8.1644869 -1.0727129
-13.667118 -12.198372 3.5608776
-9.156414 -8.1695433 -0.64310426
-13.227085 -11.797329 4.0918598
-9.1271534 -8.1377163 -0.21344294
-13.681865 -12.194384 4.9108329
-6.0232806 -5.3552427 -2.1595864
-9.1608505 -8.1419687 0.21393159
-7.1500354 -6.3525658 -2.2081196
-15.446852 -13.719178 1.0827264
-8.1086264 -7.2017069 -2.108058
-18.382448 -16.320702 2.150655
-9.18507 -8.1520205 -1.9451064
-17.294725 -15.344185 2.8388247
-9.2390442 -8.1941605 -1.5162985
-15.219978 -13.493941 3.221612
-9.1864834 -8.144681 -1.0741073
-13.621461 -12.072459 3.5379808
-9.2028151 -8.1534252 -0.64436036
-13.276937 -11.758842 4.0945592
-9.2094049 -8.1535273 -0.21469951
-14.794868 -13.094 5.2938848
-6.0404887 -5.3329058 -2.1590683
-9.2132034 -8.1311121 0.21449009
-7.1677828 -6.3236985 -2.2067699
-15.602498 -13.760292 1.0902628
-8.1499128 -7.1876426 -2.1122558
-18.478161 -16.290697 2.1551871
-9.1867943 -8.0963993 -1.9394747
-17.369036 -15.302091 2.842237
-9.3241987 -8.2117186 -1.5255606
-9.2298126 -8.1257296 -1.0758505
-13.514666 -11.893837 3.4994371
-9.26721 -8.1529131 -0.64687246
-16.592869 -14.592593 5.10144
-9.2768574 -8.1556587 -0.21560703
-14.863701 -13.062679 5.3021669
-6.0503497 -5.3041477 -2.1559627
-9.2595797 -8.1147156 0.21490893
-7.1898136 -6.2986393 -2.2067699
-15.590331 -13.653115 1.0860759
-8.2015362 -7.1824341 -2.1191249
-9.1644592 -8.020051 -1.9288372
-15.471087 -13.534382 2.5239143
-9.3378649 -8.16605 -1.5231231
-15.456585 -13.512168 3.2516472
-9.307539 -8.1338024 -1.0814284
-9.3226871 -8.1441669 -0.64875656
-13.687499 -11.952993 4.1953373
-9.3323832 -8.1468992 -0.21623531
-14.559876 -12.705866 5.1779337
-6.0901546 -5.2996902 -2.1632097
-9.339139 -8.126977 0.2160957
-7.2088137 -6.2709475 -2.2058702
-13.820305 -12.018047 0.95984149
-8.2663326 -7.185812 -2.1290469
-18.723598 -16.270443 2.1701779
-9.360817 -8.1314974 -1.9638785
-15.524234 -13.485498 2.5248892
-9.4022856 -8.1646423 -1.5289729
-15.455917 -13.416697 3.2416353
-9.3719912 -8.1325998 -1.0856119
-13.891588 -12.050257 3.574616
-9.3947229 -8.1465816 -0.65168738
-18.116373 -15.703966 5.5351458
-9.4060974 -8.1535664 -0.21728246
-14.703417 -12.740992 5.2131333
-6.1115389 -5.2809267 -2.1642449
-9.4233389 -8.1397514 0.21735227
-7.236176 -6.248302 -2.2072196
-15.663441 -13.520323 1.0844011
-8.3270311 -7.1877022 -2.1382058
-9.4100838 -8.1168356 -1.9682587
-9.4501896 -8.1456814 -1.5318978
-9.4456043 -8.1388531 -1.0908413
-14.067442 -12.11701 3.6089616
-9.4473209 -8.1345873 -0.6533621
-17.31444 -14.903286 5.2742023
-9.4844227 -8.1607752 -0.21839942
-14.45124 -12.430027 5.1075354
-6.1328678 -5.2620769 -2.1652801
-9.4850874 -8.1354494 0.21812017
-7.2594204 -6.2242751 -2.2076695
-15.452742 -13.244604 1.0666069
-8.3595238 -7.1649799 -2.1401138
-9.4773664 -8.1173506 -1.9763933
-19.323734 -16.544907 3.1235116
-9.5117464 -8.1410398 -1.5372599
-17.298656 -14.80058 3.6058149
-9.5345097 -8.1576443 -1.0978137
-13.939567 -11.922359 3.5654571
-9.5515604 -8.1664562 -0.65859574
-17.390055 -14.863017 5.2814007
-9.5280542 -8.1406069 -0.21874847
-14.401995 -12.300465 5.0749245
-6.1438456 -5.2343721 -2.1626918
-9.5621452 -8.1437807 0.21923712
-7.2781363 -6.1963706 -2.2067699
-15.536118 -13.226951 1.0693284
-8.4099007 -7.1573868 -2.1466014
-9.5553017 -8.1264505 -1.9867179
-19.526558 -16.600786 3.1469104
-9.5885086 -8.1489267 -1.5450597
-19.298407 -16.401018 4.0112929
-9.5872231 -8.1449518 -1.1006026
-14.00205 -11.891416 3.5707996
-9.598278 -8.1485786 -0.65985179
-17.49235 -14.845097 5.2966976
-9.5763435 -8.1270809 -0.21923712
-17.266722 -14.648425 6.0672364
-6.1561809 -5.2079039 -2.1606214
-9.6287928 -8.145606 0.22014466
-7.3031087 -6.1759768 -2.2081196
-21.460598 -18.142035 1.472734
-8.4843187 -7.1698055 -2.1591947
-16.672026 -14.083969 1.909408
-9.5806885 -8.0934448 -1.9864051
-19.599705 -16.551311 3.1498353
-9.6367149 -8.1350117 -1.5484719
-9.6338701 -8.126852 -1.1026944
-15.178884 -12.804464 3.8600662
-9.671052 -8.1553297 -0.66299194
-13.855283 -11.679639 4.18364
-9.6505289 -8.1322613 -0.22028428
-17.308884 -14.580595 6.0641303
-6.1748953 -5.188705 -2.161139
-9.6877909 -8.1376686 0.22084275
-7.3246226 -6.1504464 -2.2081196
-17.094151 -14.353866 1.1698134
-8.5381203 -7.1668768 -2.1668272
-18.864561 -15.829247 2.15449
-9.6103954 -8.0612221 -1.9867179
-36.614738 -30.701643 5.8670344
-9.7106934 -8.1395788 -1.5557842
-18.740456 -15.708398 3.8730049
-9.715745 -8.1409273 -1.1089697
-14.368624 -12.035357 3.6433072
-9.699461 -8.1215219 -0.66299194
-17.700584 -14.815742 5.3290901
-9.7081127 -8.1258841 -0.22098237
-6.2048373 -5.1770177 -2.1652801
-9.7239361 -8.1131849 0.22105218
-7.3419843 -6.1236262 -2.2072196
-16.963135 -14.143191 1.1574621
-8.606822 -7.1734791 -2.1778939
-18.938068 -15.778603 2.1565816
-9.6082392 -8.0052824 -1.9807734
-9.7833977 -8.1454363 -1.5630963
-9.796176 -8.1502905 -1.1148963
-18.818373 -15.656642 4.7583952
-9.7785501 -8.1327353 -0.66655082
-20.324024 -16.897314 6.1020222
-9.8133144 -8.1558523 -0.22272763
-17.271021 -14.348866 6.0165076
-6.1847839 -5.1255975 -2.1523392
-9.758357 -8.0842953 0.22119181
-7.3678169 -6.1016912 -2.2085695
-17.172401 -14.216351 1.1683481
-8.6517324 -7.1624269 -2.1832366
-19.945021 -16.505819 2.2650034
-9.6954832 -8.0208035 -1.9929754
-19.606945 -16.21451 3.1239989
-9.8515511 -8.1441212 -1.5694335
-9.8415794 -8.1329908 -1.1169881
-19.224066 -15.880938 4.84693
-9.8684807 -8.1494217 -0.67073768
-17.755934 -14.657701 5.3155932
-9.8386383 -8.1190033 -0.2226578
-17.30014 -14.271281 6.0092607
-6.2309818 -5.1272979 -2.1621742
-9.8544674 -8.106081 0.22272763
-7.3770289 -6.0660329 -2.2049701
-17.067633 -14.029489 1.1578808
-8.6873007 -7.1409073 -2.1859078
-19.873207 -16.329849 2.2503612
-9.7234221 -7.9869113 -1.9929754
-15.742093 -12.926099 2.501003
-9.929018 -8.1499872 -1.5772332
-9.9007139 -8.1238642 -1.1204742
-15.806332 -12.964996 3.9737883
-9.9308434 -8.142787 -0.67304045
-19.862749 -16.280642 5.9292598
-9.9164152 -8.1251659 -0.22377476
-17.242247 -14.122669 5.9719911
-6.2353768 -5.0945172 -2.1575158
-9.9446535 -8.1222296 0.22412381
-7.4132552 -6.052568 -2.2094693
-19.867641 -16.215206 1.3439875
-8.7471552 -7.1390929 -2.1946852
-17.284063 -14.101566 1.9515913
-9.7405281 -7.9441795 -1.9907852
-15.630182 -12.743128 2.4761415
-9.9974155 -8.1478863 -1.5835704
-9.9551411 -8.1076508 -1.1232632
-17.151516 -13.968513 4.2996898
-10.00877 -8.1484232 -0.67638999
-18.253836 -14.855661 5.4334679
-9.9974585 -8.1334095 -0.22496152
-17.36038 -14.118468 5.9958019
-6.2765141 -5.0898809 -2.1652801
-9.9822645 -8.0950241 0.22433324
-7.4131432 -6.0094757 -2.2031708
-17.388605 -14.091071 1.1729535
-8.7641096 -7.0995708 -2.1923954
-17.183891 -13.915245 1.9345088
-9.7956791 -7.9295559 -1.996104
-15.739372 -12.740948 2.4863784
-10.069006 -8.1479006 -1.590395
-21.069735 -17.043674 4.2922492
-10.051549 -8.1279736 -1.1309329
-16.240709 -13.128015 4.0592709
-10.047892 -8.1192141 -0.67701799
-16.889227 -13.6425 5.0123596
-10.063121 -8.1286211 -0.22579923
-18.966696 -15.315126 6.5320754
-6.2776918 -5.0546141 -2.1595864
-10.080409 -8.1135511 0.22586904
-7.4214544 -5.9712701 -2.1991215
-23.708782 -19.075983 1.5947814
-8.7980175 -7.0763168 -2.1946852
-17.257206 -13.875152 1.9372978
-9.849474 -7.9163523 -2.0014229
-15.902028 -12.776419 2.5046589
-10.117372 -8.1258593 -1.5933199
-10.110932 -8.1177845 -1.1344191
-16.286436 -13.071244 4.0592709
-10.107327 -8.1090899 -0.67911142
-20.144409 -16.156036 5.9616528
-10.128875 -8.1234684 -0.22663696
-19.665146 -15.766024 6.7536244
-6.3073683 -5.0423198 -2.1637273
-10.163489 -8.1250305 0.22712563
-7.441215 -5.9466262 -2.1991215
-17.499037 -13.979311 1.1737909
-8.8395395 -7.0590391 -2.1988828
-9.8864784 -7.8922725 -2.0036128
-16.011028 -12.776857 2.5151396
-10.18461 -8.1244497 -1.5996571
-16.360279 -13.046222 3.3142209
-10.192179 -8.1246643 -1.1403457
-16.074854 -12.81402 3.9959223
-10.177897 -8.1103792 -0.68204224
-16.981697 -13.527223 5.0123596
-10.200971 -8.122941 -0.22761428
-19.109425 -15.211221 6.5444984
-6.3074126 -5.0081615 -2.1580334
-10.19179 -8.0895042 0.22712563
-7.4573469 -5.9169831 -2.1977718
-19.359777 -15.355377 1.295001
-8.8659763 -7.0321269 -2.1996462
-36.747681 -29.136297 4.1029439
-9.9294472 -7.869987 -2.0067415
-15.955951 -12.641997 2.4995403
-10.253368 -8.1208944 -1.6059943
-16.495543 -13.060158 3.3323674
-10.259676 -8.1229811 -1.1448778
-16.125641 -12.762707 3.9974487
-10.256269 -8.1144571 -0.68539172
-17.915337 -14.168995 5.2733026
-10.248086 -8.1021681 -0.22803316
-19.10178 -15.09651 6.5237932
-6.3339591 -4.9932899 -2.161139
-7.4733648 -5.8872967 -2.1964221
-19.256346 -15.164137 1.2845339
-8.8950968 -7.0047798 -2.2007911
-16.848101 -13.262916 1.8759401
-9.963069 -7.8401618 -2.007993
-16.032745 -12.611996 2.5046589
-10.303498 -8.1022329 -1.6094066
-16.562777 -13.019584 3.3367476
-10.353758 -8.1388302 -1.1521989
-16.386208 -12.876163 4.0508752
-10.328509 -8.1131506 -0.68832254
-16.980696 -13.333722 4.9844656
-10.354955 -8.1280813 -0.22977838
-19.101168 -14.988 6.5056758
-6.345264 -4.9663887 -2.1590683
-7.4877295 -5.8563714 -2.1946225
-18.192022 -14.2234 1.2102168
-8.9148521 -6.9700613 -2.1996462
-16.897436 -13.206478 1.8762889
-10.049527 -7.8515506 -2.019882
-15.934304 -12.444765 2.4824786
-10.380223 -8.1040859 -1.6169626
-21.376436 -16.683084 4.2947521
-10.41666 -8.1296072 -1.1560338
-17.502207 -13.654555 4.3149548
-10.413465 -8.1212664 -0.69209075
-17.273037 -13.466071 5.0564499
-10.405346 -8.1090946 -0.23026705
-19.1427 -14.912923 6.5020523
-6.3747649 -4.953692 -2.1632097
-10.367537 -8.053483 0.2291501
-7.4911938 -5.8170524 -2.1896734
-18.263649 -14.176957 1.2116822
-8.9375772 -6.9376965 -2.1992648
-17.286585 -13.413681 1.9142886
-10.067508 -7.8091588 -2.0180049
-15.924307 -12.347713 2.4741914
-10.494741 -8.1346893 -1.6303681
-16.934332 -13.121418 3.3930638
-10.451274 -8.0980768 -1.156731
-17.92227 -13.881914 4.4065433
-10.48281 -8.1166582 -0.69481224
-17.304525 -13.393764 5.0519505
-10.500014 -8.1241198 -0.23173305
-10.503263 -8.1002874 0.23152363
-7.5021939 -5.7837286 -2.186974
-18.528847 -14.284596 1.2261269
-8.9399691 -6.8896775 -2.1939218
-16.588327 -12.779343 1.8320136
-10.100965 -7.7787924 -2.0192564
-15.978329 -12.300525 2.4758978
-10.545099 -8.1149569 -1.6337806
-16.836859 -12.956764 3.3649056
-10.552118 -8.1174297 -1.1647493
-17.95817 -13.80969 4.4034901
-10.58075 -8.1335745 -0.69941777
-17.323359 -13.311911 5.0438523
-10.571293 -8.123374 -0.23271039
-20.463259 -15.719041 6.9140921
-4.1669731 -3.1916564 -1.4064229
-10.568168 -8.094595 0.23236135
-7.5213327 -5.7588186 -2.186974
-8.9421368 -6.8417258 -2.1885793
-37.351868 -28.567995 4.1140995
-10.129843 -7.747653 -2.019882
-16.064758 -12.282438 2.4829662
-10.534099 -8.051012 -1.6279309
-16.841167 -12.866737 3.356771
-10.534471 -8.0454769 -1.1596943
-18.006983 -13.752449 4.4042535
-10.54099 -8.0475388 -0.69502157
-18.366602 -14.016953 5.3340397
-10.586867 -8.0767174 -0.23243116
-20.671618 -15.764662 6.9658561
-4.1683073 -3.1708047 -1.403317
-10.675944 -8.1181784 0.23410659
-7.5398374 -5.7313499 -2.1865242
-8.9897871 -6.831039 -2.1946852
-18.363043 -13.948417 2.0174811
-10.164692 -7.7182188 -2.0214465
-16.192923 -12.291093 2.4961281
-10.649113 -8.0801888 -1.6413364
-21.755512 -16.501371 4.3247876
-10.576966 -8.0225391 -1.1614374
-16.634396 -12.612469 4.057744
-10.584931 -8.0227623 -0.69606829
-18.466677 -13.991591 5.3488865
-18.955282 -14.35138 6.3705721
-4.1916838 -3.1655476 -1.4074581
-10.678682 -8.0615854 0.2335481
-7.5582409 -5.7038236 -2.1860743
-18.364904 -13.85403 1.2056112
-9.0073061 -6.7948895 -2.1931586
-20.543261 -15.491705 2.2510586
-10.191571 -7.6826906 -2.0214465
-16.302311 -12.284675 2.5063653
-10.780315 -8.1206017 -1.6571795
-22.204336 -16.720015 4.4023795
-10.778395 -8.1162033 -1.1804373
-16.475975 -12.40202 4.0085158
-10.807574 -8.1322699 -0.70883828
-18.59016 -13.983269 5.3704815
-4.2181649 -3.1624854 -1.4126344
-7.5547132 -5.6598778 -2.1793258
-18.644115 -13.967892 1.2208933
-9.0451126 -6.7739987 -2.1965933
-18.080376 -13.535696 1.9759949
-10.223072 -7.6506186 -2.0223849
-16.52153 -12.359684 2.5334201
-10.732288 -8.0258579 -1.64548
-22.427341 -16.771692 4.4355435
-10.867297 -8.1238632 -1.1870612
-16.51445 -12.340907 4.0073705
-10.887099 -8.1327438 -0.71218777
-18.673206 -13.943947 5.3803792
-10.877768 -8.1228161 -0.23696879
-18.498308 -13.808317 6.1852579
-4.2369275 -3.1535091 -1.4152226
-10.919389 -8.1272078 0.23759706
-7.5640578 -5.6278157 -2.1766264
-19.17354 -14.260306 1.2522949
-9.0671282 -6.7412119 -2.1962116
-17.008135 -12.640576 1.853977
-10.203991 -7.5836849 -2.0136247
-16.420609 -12.199467 2.5117273
-10.790718 -8.013895 -1.6503549
-10.943587 -8.1215 -1.1922905
-16.648298 -12.355104 4.0298862
-10.94609 -8.1203957 -0.7142812
-18.828915 -13.963202 5.4118724
-10.934971 -8.1062307 -0.23759706
-19.012035 -14.088718 6.340549
-4.2458076 -3.1382928 -1.4147049
-10.947689 -8.0890455 0.23759706
-7.5679827 -5.5897985 -2.1721272
-19.104301 -14.105501 1.2445492
-9.0799561 -6.7041101 -2.1939218
-16.976219 -12.529679 1.8459586
-10.268554 -7.5761647 -2.0211337
-16.541372 -12.199808 2.5236704
-10.855373 -8.0032749 -1.6559607
-20.677021 -15.238845 4.0682349
-11.010367 -8.1116133 -1.196474
-16.675518 -12.285271 4.0260701
-11.016181 -8.1129332 -0.71700269
-19.203962 -14.137698 5.5054522
-11.014739 -8.1059389 -0.23871401
-19.085997 -14.040585 6.3488312
-4.269743 -3.1318521 -1.4188461
-10.975859 -8.0507812 0.23759706
-18.454296 -13.526301 1.1991215
-9.09655 -6.6649837 -2.192014
-17.028463 -12.472079 1.8466558
-10.240466 -7.4976358 -2.0101831
-16.635111 -12.179524 2.5314703
-11.00499 -8.0544338 -1.674485
-17.39172 -12.724153 3.4130876
-11.070778 -8.0966549 -1.1999602
-20.814167 -15.216939 5.0117893
-11.110345 -8.1196384 -0.72118956
-19.107735 -13.959165 5.4631615
-11.101094 -8.10991 -0.23997059
-19.066246 -13.923745 6.3260555
-4.3056374 -3.1351221 -1.4271283
-11.163736 -8.1258259 0.24101773
-4.7997766 -3.4923649 -1.3704019
-18.991543 -13.813358 1.2307324
-9.1181726 -6.6320357 -2.1916323
-17.136351 -12.459433 1.8536284
-10.268173 -7.4630055 -2.0104959
-16.841845 -12.236314 2.5560877
-11.114744 -8.0723734 -1.6866719
-11.144119 -8.0907335 -1.2048409
-16.844038 -12.224438 4.0455327
-11.177418 -8.1089573 -0.72370172
-19.37405 -14.050255 5.5252476
-11.163127 -8.092639 -0.24066868
-19.040499 -13.798228 6.3006911
-4.3259487 -3.1268647 -1.4302342
-11.192033 -8.0868063 0.24101773
-4.7993007 -3.4664598 -1.3668026
-18.890665 -13.639422 1.2211026
-9.1508141 -6.6070633 -2.1939218
-17.182968 -12.401871 1.853977
-10.242902 -7.39013 -2.0004842
-16.894112 -12.184421 2.5575502
-11.121922 -8.0184345 -1.6835033
-11.217552 -8.0844011 -1.2097217
-16.892975 -12.17016 4.0470591
-11.251036 -8.1025724 -0.72663248
-19.85474 -14.293366 5.6480713
-11.239999 -8.088666 -0.24171583
-19.293987 -13.87946 6.3685017
-4.3525333 -3.1230075 -1.4354105
-4.7907825 -3.4349251 -1.3609538
-19.373224 -13.885218 1.2491548
-9.15627 -6.5625005 -2.1897242
-17.195383 -12.319768 1.850665
-10.273451 -7.3577824 -2.0014229
-17.607998 -12.606091 2.6589456
-11.201502 -8.0165291 -1.6913029
-11.316999 -8.0962038 -1.2173914
-16.858702 -12.056302 4.0287414
-11.350743 -8.1143532 -0.73123807
-18.704277 -13.366279 5.3074951
-11.329997 -8.0935516 -0.24304222
-18.826651 -13.443796 6.1987162
-4.3791432 -3.1190021 -1.4405869
-7.6780391 -5.4645705 -2.1757267
-19.476906 -13.856873 1.2527136
-9.1599255 -6.5168419 -2.1851447
-17.259388 -12.27468 1.852931
-10.376351 -7.3768163 -2.0164404
-18.632465 -13.241406 2.8066511
-11.182485 -7.9440432 -1.6842345
-11.390676 -8.0889521 -1.2222722
-16.96312 -12.041702 4.0436244
-11.522333 -8.1763973 -0.74044919
-20.076427 -14.241226 5.6827135
-11.410381 -8.0909643 -0.24415916
-18.911289 -13.404808 6.2111397
-4.3994675 -3.1103892 -1.4436927
-7.6875172 -5.4309888 -2.1730273
-19.76335 -13.957013 1.2679956
-9.1024342 -6.4282012 -2.1660638
-18.548927 -13.094529 1.9864537
-10.387512 -7.3303003 -2.0136247
-18.840786 -13.290713 2.8310251
-11.185811 -7.8878002 -1.6805785
-11.487239 -8.097353 -1.2295932
-17.074062 -12.031038 4.0600343
-11.570399 -8.149929 -0.74170524
-11.487612 -8.0856142 -0.24520631
-4.4197869 -3.1016707 -1.4467984
-4.7945781 -3.3621922 -1.3519558
-19.517567 -13.681582 1.2491548
-9.158577 -6.420054 -2.174078
-10.461574 -7.3279982 -2.0230107
-0.79841143 -0.55905372 0.1196757
-11.528778 -8.06954 -1.7278637
-11.561146 -8.0891848 -1.2344739
-17.115952 -11.971368 4.0600343
-11.615146 -8.1209345 -0.74275196
-19.338385 -13.515743 5.4469647
-11.555107 -8.0729542 -0.24604402
-18.893541 -13.195032 6.1749053
-4.4559498 -3.1038909 -1.4550807
-11.659673 -8.1187859 0.2479987
-4.8174825 -3.3532274 -1.3551052
-9.1841555 -6.3902874 -2.1748412
-23.769293 -16.532404 2.5330944
-10.475738 -7.2835393 -2.0208206
-0.75797659 -0.52680743 0.1133385
-11.674252 -8.1107998 -1.7454128
-21.337791 -14.824637 4.1151657
-11.644949 -8.0874243 -1.2404004
-19.76055 -13.718603 4.6759653
-11.666391 -8.0962849 -0.74421734
-17.848312 -12.381817 5.0150585
-11.624534 -8.0642271 -0.24695155
-4.4921808 -3.1058972 -1.4633629
-19.739628 -13.647993 0.41889265
-4.8381934 -3.3438823 -1.3578045
-19.952032 -13.784551 1.2709265
-9.2015581 -6.354845 -2.173696
-18.048861 -12.460382 1.9188207
-10.572985 -7.2992649 -2.0348997
-0.73031086 -0.50399584 0.1089512
-11.723961 -8.087822 -1.7488252
-21.379654 -14.743329 4.1132884
-11.715758 -8.0761261 -1.2449325
-11.712912 -8.0711517 -0.74547344
-17.85718 -12.300452 5.0060611
-11.74155 -8.0848398 -0.24883641
-20.24325 -13.933619 6.5848746
-4.5311241 -3.1106639 -1.4726803
-7.7648826 -5.3266835 -2.1739271
-19.799068 -13.577022 1.2581565
-9.195056 -6.3054214 -2.1672087
-18.247845 -12.508602 1.9355546
-10.606549 -7.2678943 -2.0364642
-0.73697871 -0.50480902 0.10968242
-11.739017 -8.0378761 -1.7468753
-17.616543 -12.057782 3.3811748
-11.811531 -8.0844955 -1.2522538
-11.859711 -8.1113997 -0.7530098
-20.296968 -13.876822 5.676415
-11.858853 -8.1047344 -0.25072128
-4.5770769 -3.1187603 -1.4840684
-19.19978 -13.077572 0.40548921
-19.734066 -13.43141 1.2510388
-9.2235003 -6.2777038 -2.168735
-18.037718 -12.272229 1.9087107
-10.618786 -7.221941 -2.0339613
-0.74201965 -0.50446552 0.11016989
-11.819544 -8.0325527 -1.7546749
-17.678133 -12.009535 3.3849292
-11.912193 -8.0924778 -1.2599233
-19.965733 -13.558516 4.6912303
-11.940834 -8.1058455 -0.75635934
-18.745657 -12.720412 5.2301121
-11.956576 -8.1104403 -0.25218728
-18.932968 -12.837869 6.129353
-4.645545 -3.1417243 -1.5027034
-20.00737 -13.525649 0.42154542
-7.7485957 -5.2363386 -2.1590803
-19.300875 -13.03822 1.2206839
-9.2518663 -6.2498655 -2.1702616
-18.100258 -12.222575 1.9108025
-10.6865 -7.2135649 -2.0420959
-0.73225743 -0.49409994 0.10846373
-11.85574 -7.9967961 -1.7558937
-17.837872 -12.02727 3.4074559
-11.983317 -8.0798092 -1.2644554
-20.048758 -13.512875 4.699626
-12.018748 -8.0975933 -0.75949949
-18.773779 -12.644018 5.2256131
-12.034579 -8.1021538 -0.25323442
-19.030556 -12.807295 6.1464348
-4.7302675 -3.1750157 -1.5265148
-19.971434 -13.40002 0.41980019
-7.7328405 -5.1864638 -2.1496322
-9.2573204 -6.2065973 -2.1664453
-18.086542 -12.121604 1.9048759
-10.772335 -7.2168984 -2.0536718
-0.71748394 -0.48049486 0.10602634
-12.073281 -8.0823593 -1.7839236
-18.510157 -12.386795 3.5275977
-12.124047 -8.1132803 -1.2763087
-17.324982 -11.589306 4.0516386
-12.096746 -8.0888987 -0.76263964
-19.660267 -13.141538 5.4595618
-12.096043 -8.0823164 -0.25393254
-18.193195 -12.151716 5.8622518
-4.7831244 -3.1863303 -1.5399734
-20.084665 -13.374557 0.42119637
-7.7573848 -5.1637602 -2.1514318
-20.196217 -13.438667 1.2713453
-9.2805624 -6.1753349 -2.1668272
-18.244867 -12.135637 1.9170777
-10.859968 -7.2208157 -2.0655608
-0.72742289 -0.48348171 0.10724504
-12.180786 -8.0928965 -1.7956231
-18.480883 -12.274016 3.5138314
-12.162253 -8.0775194 -1.2773546
-17.414396 -11.561338 4.063087
-12.184818 -8.0863829 -0.76640785
-19.777475 -13.120227 5.4793577
-12.180842 -8.0776215 -0.25511929
-18.283808 -12.120157 5.8777809
-4.8151674 -3.183465 -1.5467027
-17.201714 -11.368309 0.35990354
-7.7704859 -5.1334262 -2.1500821
-20.216337 -13.350476 1.2696704
-9.3151684 -6.151557 -2.1698802
-18.25386 -12.049927 1.9135915
-10.93787 -7.2176757 -2.0755727
-0.73242027 -0.48312563 0.10773251
-12.255364 -8.080925 -1.8024478
-18.619274 -12.272488 3.5319777
-12.253587 -8.076684 -1.2839783
-17.559568 -11.569611 4.0875106
-12.259674 -8.0745602 -0.76933861
-18.750528 -12.344925 5.1828723
-12.259075 -8.0680323 -0.25616643
-18.387335 -12.096602 5.8974509
-4.842402 -3.1772368 -1.551879
-17.274734 -11.330128 0.36060163
-7.7965069 -5.1116133 -2.1523318
-9.3316565 -6.1157765 -2.168735
-19.429096 -12.728579 2.0321233
-10.979524 -7.1902738 -2.0787015
-0.73078048 -0.47839159 0.10724504
-12.376516 -8.0989656 -1.816097
-17.757372 -11.620099 3.3611515
-12.355069 -8.081852 -1.291648
-17.635996 -11.531883 4.0959063
-12.391437 -8.0994663 -0.7758283
-18.687468 -12.210113 5.1536288
-12.346029 -8.0667114 -0.25742301
-18.483955 -12.072539 5.9155684
-4.8987927 -3.1898301 -1.566373
-17.449623 -11.362254 0.36346382
-7.8036151 -5.0793519 -2.1496322
-9.316741 -6.0596166 -2.1603396
-19.733988 -12.830096 2.0593157
-11.029805 -7.171052 -2.0837073
-0.72903395 -0.47380203 0.10675755
-12.431602 -8.0762663 -1.8202407
-17.791197 -11.55374 3.3598998
-12.423313 -8.0647116 -1.2958316
-18.523844 -12.024929 4.2928209
-12.468492 -8.0909472 -0.77896845
-18.685347 -12.120502 5.1419315
-12.50834 -8.1106014 -0.26021537
-18.522743 -12.005842 5.9145331
-4.9207001 -3.1809087 -1.5699965
-17.811653 -11.509654 0.37016556
-7.8180237 -5.0499663 -2.1487324
-9.3070974 -6.0095186 -2.1534703
-19.850082 -12.812125 2.0669856
-11.124485 -7.1774864 -2.0968478
-0.73568797 -0.47448224 0.10748877
-12.501431 -8.0597105 -1.8263341
-17.774967 -11.455183 3.3492625
-12.530376 -8.0752754 -1.3041985
-19.219275 -12.381235 4.4439416
-12.543674 -8.077651 -0.78189927
-18.74065 -12.063641 5.1455302
-12.597112 -8.1058483 -0.26147196
-18.475176 -11.883633 5.8860626
-4.9577909 -3.1804023 -1.5782787
-17.754091 -11.384798 0.36814108
-7.8388839 -5.0247507 -2.1496322
-9.3362827 -5.9822893 -2.1553786
-19.753752 -12.652488 2.0523434
-11.169433 -7.1513953 -2.1006021
-0.72396398 -0.46335056 0.10553886
-12.631492 -8.0812807 -1.8412023
-21.65905 -13.851546 4.0719895
-12.628983 -8.0765743 -1.3115195
-18.580877 -11.878396 4.286715
-12.632383 -8.0725336 -0.78566748
-19.143944 -12.22895 5.2445087
-12.648928 -8.07689 -0.26196063
-20.405489 -13.024778 6.4865232
-4.9819002 -3.1713748 -1.5824198
-17.753233 -11.296994 0.36730337
-7.848155 -4.9921274 -2.1473827
-9.3653927 -5.9549279 -2.1572866
-19.848242 -12.615525 2.0575728
-11.311039 -7.1865158 -2.122503
-0.73060417 -0.46401319 0.10627007
-12.706546 -8.0669327 -1.8480269
-17.814474 -11.305412 3.3417535
-12.747939 -8.0900908 -1.3209324
-21.420618 -13.588691 4.9308863
-12.812286 -8.1246548 -0.79508793
-19.255642 -12.205869 5.2634048
-12.737854 -8.0712185 -0.26321721
-20.431246 -12.941072 6.4803119
-5.0109053 -3.1653154 -1.5881137
-21.177589 -13.372403 0.43718278
-7.8770685 -4.971983 -2.150532
-9.3695183 -5.9117265 -2.1534703
-19.929232 -12.569547 2.0614076
-11.349426 -7.1554141 -2.125006
-0.73221934 -0.46146026 0.10627007
-12.773258 -8.0468664 -1.8536329
-17.910664 -11.278944 3.3523908
-12.826681 -8.0773897 -1.3261617
-21.431366 -13.49083 4.9224906
-12.877759 -8.1032839 -0.7973907
-19.644541 -12.356464 5.3578839
-12.874291 -8.0948305 -0.2654511
-18.837404 -11.839605 5.961638
-5.0579352 -3.1703768 -1.5995017
-18.177351 -11.389373 0.37442392
-7.8910732 -4.9423876 -2.1496322
-9.4000807 -5.8852348 -2.15576
-20.131744 -12.599261 2.0777929
-11.419549 -7.1440434 -2.1334534
-0.73550874 -0.45995402 0.10651381
-12.786119 -7.9927588 -1.8514392
-18.288317 -11.427811 3.4155905
-12.915624 -8.0705795 -1.332437
-21.361769 -13.343133 4.8957772
-12.956793 -8.0900126 -0.80053085
-18.617952 -11.62024 5.0667973
-12.946581 -8.0773621 -0.26635864
-20.75386 -12.943279 6.5538158
