# .PCD v0.7 - Point Cloud Data file format
VERSION 0.7
FIELDS x y z
SIZE 4 4 4
TYPE F F F
COUNT 1 1 1
WIDTH 1486
HEIGHT 1
VIEWPOINT 0 0 0 1 0 0 0
POINTS 1486
DATA ascii
-18.490004 3.953784 -2.3216112
-25.522345 5.4621992 -2.2834804
-34.652668 7.4225626 6.8885865
-34.412964 7.3837814 8.1256819
-19.856113 4.267652 5.4419293
-7.7719245 1.6803485 -2.1305985
-35.612225 7.7061367 0.63600057
-9.0544004 1.9609402 -2.1388347
-35.720348 7.7425871 1.9154962
-10.871346 2.3564255 -2.1622477
-35.398258 7.6792397 3.1689827
-13.655647 2.9649327 -2.2132351
-17.353634 3.7710121 2.1804864
-18.478027 4.018724 -2.3218548
-25.569317 5.5656648 -2.289407
-34.618874 7.5417986 6.8870602
-33.495937 7.3094201 7.9151278
-30.153257 6.5910134 8.2703047
-7.7735591 1.7091271 -2.1326692
-35.577293 7.8286815 0.63586098
-9.0551138 1.9942087 -2.1406343
-35.599483 7.8465919 1.9104719
-10.855387 2.3926692 -2.1607211
-13.637499 3.0108752 -2.2119834
-17.361689 3.8362765 2.1831677
-18.456135 4.0814905 -2.3208799
-36.643402 8.1102209 5.9441972
-25.732594 5.6953506 -2.3057923
-34.373825 7.614193 6.8435555
-33.397926 7.4102502 7.8980312
-30.876858 6.8621988 8.4752893
-7.7618895 1.7349873 -2.1311162
-35.452179 7.930995 0.63411576
-9.0442934 2.0249534 -2.1397343
-35.622551 7.9821663 1.9131935
-10.839305 2.4288304 -2.1591947
-35.752048 8.0177355 3.2055883
-13.634617 3.0601916 -2.2132351
-17.367558 3.9012072 2.1856048
-16.113796 3.6225343 -2.0279062
-25.910824 5.8297491 -2.3235722
-34.025265 7.6616879 6.7794442
-33.421284 7.5379348 7.909729
-30.279867 6.8405256 8.3179264
-7.7482505 1.760359 -2.1290457
-35.747963 8.1282978 0.63990992
-9.0409708 2.0573769 -2.1406343
-10.838417 2.4683959 -2.1607211
-35.657795 8.1274319 3.1996615
-13.589184 3.099859 -2.2076035
-35.866917 8.1882677 4.5172095
-16.089441 3.6761069 -2.0264435
-36.273933 8.2945099 5.8935132
-26.04958 5.9565778 -2.3378656
-34.316006 7.8531065 6.842793
-30.798073 7.0706687 8.4670067
-7.7420583 1.7873949 -2.1290457
-35.325802 8.1620979 0.63285917
-9.028038 2.0876038 -2.1392844
-10.822084 2.5044439 -2.1591947
-35.730137 8.2752285 3.2087257
-13.576357 3.1468296 -2.2072906
-35.807171 8.3062401 4.5133095
-16.04944 3.7259634 -2.0230312
-26.319733 6.1151137 -2.3640122
-34.188946 7.9497237 6.8229489
-28.821304 6.7069244 -1.5508193
-33.75882 7.8621387 8.002409
-28.84243 6.7224541 -0.5169403
-33.324314 7.7732015 9.1689243
-7.7338901 1.8139678 -2.1285279
-9.0150051 2.1177707 -2.1379349
-10.815187 2.5426543 -2.1595764
-13.551829 3.1910319 -2.2051005
-35.917076 8.4639645 4.530859
-18.287222 4.3128014 -2.3069868
-34.613155 8.1630592 5.6325798
-26.530922 6.2618647 -2.3849299
-34.290913 8.0997066 6.8488984
-28.984312 6.8516054 -1.5608677
-33.643936 7.9592872 7.9817133
-30.700356 7.2685695 8.4535484
-7.7369089 1.8431901 -2.1311162
-9.0041409 2.1467478 -2.1370349
-10.804338 2.5799327 -2.1591947
-13.468164 3.2185073 -2.1932113
-18.184013 4.3521667 -2.2957749
-26.617401 6.380446 -2.3946912
-34.48151 8.2655478 6.8924031
-33.518822 8.0471563 7.9583187
-31.602684 7.5987988 8.7092609
-7.7194872 1.8661131 -2.1280103
-34.100918 8.2498751 0.61240494
-8.9946985 2.1777091 -2.136585
-10.799538 2.616672 -2.1599579
-13.466446 3.2678301 -2.1947758
-18.178356 4.4179587 -2.2969937
-26.800171 6.5232606 -2.4131682
-34.425739 8.3793526 6.8870602
-30.764181 7.4994979 7.3104591
-29.99576 7.3232703 8.2734098
-7.6994624 1.8911703 -2.1243868
-8.9851503 2.208626 -2.1361351
-10.782248 2.6543622 -2.1584315
-13.483149 3.324255 -2.1994689
-18.137766 4.4752083 -2.2938249
-26.91263 6.650228 -2.42537
-36.060505 8.9173946 7.2205944
-30.566244 7.5700345 7.269968
-30.896322 7.6575127 8.5291233
-7.6965642 1.9189682 -2.1254222
-34.087578 8.5053024 0.61324263
-8.9694328 2.2396555 -2.1343358
-10.776728 2.6929328 -2.1591947
-13.48296 3.3741808 -2.2013459
-18.086584 4.5329661 -2.2894378
-26.942183 6.7624111 -2.4302506
-34.124969 8.5652704 6.8389764
-30.203224 7.5921302 7.1898856
-30.838076 7.7631493 8.5208406
-7.6932244 1.9481131 -2.1264575
-39.551418 10.015389 0.71216291
-8.9577808 2.2699935 -2.1334357
-10.766786 2.7324135 -2.1591947
-13.470503 3.4235725 -2.2013459
-18.024477 4.5843296 -2.2835879
-27.03426 6.8859167 -2.4407094
-33.990616 8.6641016 6.8183689
-30.523384 7.7859883 -1.6508855
-30.046799 7.6699972 7.1592922
-31.035398 7.928133 8.5829582
-7.6923347 1.9750555 -2.1280103
-39.512344 10.152385 0.71209311
-8.9460287 2.3002779 -2.1325359
-10.761468 2.7690814 -2.1599579
-13.422729 3.4588585 -2.1954014
-18.016052 4.6492076 -2.2845628
-27.015135 6.9765248 -2.4410579
-29.578442 7.6439929 5.9383578
-30.702364 7.9401741 -1.6619809
-34.330151 8.8847675 8.1868687
-31.377806 8.1323853 8.6854506
-7.677917 1.9999454 -2.1259398
-8.9417152 2.3324754 -2.1334357
-10.740338 2.8036513 -2.1576684
-13.410574 3.5056918 -2.1954014
-17.992033 4.710052 -2.2835879
-26.928944 7.0546265 -2.4354801
-33.58522 8.8046579 6.7489147
-33.431892 8.7769251 7.9799142
-31.618273 8.3125896 8.7599897
-7.6559453 2.0227883 -2.1217985
-8.9372883 2.3646688 -2.1343358
-10.726691 2.8401232 -2.1569052
-13.402076 3.5534954 -2.1960273
-17.768274 4.7178102 -2.2572641
-17.657536 4.6917062 -1.5984362
-33.33799 8.8643198 6.70541
-31.032204 8.2570276 -1.6829152
-31.032393 8.2686777 -0.56057131
-32.653046 8.7066088 9.0550432
-7.6581683 2.0520003 -2.1243868
-8.9195671 2.3933263 -2.132086
-34.929123 9.3788357 1.8953992
-10.73188 2.8816221 -2.1599579
-13.376237 3.5966654 -2.1938372
-17.652021 4.7529664 -2.2445898
-17.67568 4.7626448 -1.6015739
-32.832958 8.8528624 6.6100059
-31.90634 8.6269131 8.8562708
-7.6490946 2.0782135 -2.1238692
-8.9036369 2.4224026 -2.1302865
-10.714179 2.9170029 -2.1584315
-13.30833 3.6282673 -2.1847639
-17.616175 4.8093224 -2.2421525
-17.013166 4.647893 -1.5430052
-32.847305 8.9798422 6.6191645
-31.838766 8.7280197 8.8459177
-7.6417937 2.1048996 -2.1238692
-39.012981 10.753285 0.70636874
-8.8951263 2.4534676 -2.1302865
-10.703932 2.9543827 -2.1584315
-13.28797 3.6725957 -2.1835127
-17.897734 4.9533906 -2.2801757
-17.077484 4.7295866 -1.5503262
-29.837841 8.2691498 6.0184975
-33.16713 9.2042923 7.9466205
-33.070084 9.1897936 9.1968756
-7.6269569 2.1294837 -2.1217985
-38.94054 10.879726 0.70574045
-8.8921394 2.4860749 -2.1316364
-10.678429 2.9874971 -2.1553786
-13.292188 3.7237501 -2.1863284
-17.900326 5.0180693 -2.282613
-17.168295 4.8193202 -1.5600878
-29.113232 8.1778793 5.8780622
-29.857115 8.392457 7.160192
-32.931572 9.2690516 9.1668539
-7.6142769 2.1531873 -2.1202457
-8.8763456 2.5134251 -2.1298366
-10.668463 3.0228918 -2.1553786
-13.177147 3.7386928 -2.1694334
-17.847301 5.0671005 -2.277982
-17.359194 4.9350677 -1.5789135
-29.595806 8.4194126 5.9810991
-33.041634 9.4059238 7.9313245
-32.744591 9.3337135 9.1233711
-7.6145239 2.180553 -2.1223164
-8.8717089 2.543921 -2.1307364
-10.654605 3.0571706 -2.1546154
-13.113416 3.7676418 -2.1609859
-17.793259 5.1189456 -2.273351
-17.387812 5.0088701 -1.583097
-33.295521 9.5913706 6.7351761
-33.012344 9.5222759 7.9322238
-7.6101904 2.2095242 -2.1233516
-8.8552904 2.5726993 -2.1289368
-10.648983 3.0978463 -2.15576
-13.095723 3.8145747 -2.1603601
-17.714296 5.1632447 -2.2655511
-17.584433 5.1320524 -1.6026198
-33.160515 9.6968174 7.9763141
-29.300451 8.5735989 8.1802349
-7.6024313 2.2360754 -2.1233516
-8.8401928 2.6034844 -2.1275871
-10.628689 3.1322248 -2.153852
-13.093696 3.8636189 -2.1622374
-17.617201 5.2050753 -2.255558
-31.557541 9.3297958 5.2120838
-17.924685 5.3027267 -1.6353903
-32.092712 9.4941072 6.5054421
-33.365055 9.8768425 -1.8235942
-33.059204 9.7925787 7.9601178
-33.369705 9.8908892 -0.60751826
-29.613321 8.7831068 8.276516
-7.5904832 2.2628195 -2.1223164
-8.8291836 2.6337719 -2.1271372
-10.602089 3.1666625 -2.150799
-13.060522 3.9059241 -2.1591089
-17.532364 5.2466168 -2.2470272
-31.589119 9.4591627 5.2227216
-18.15036 5.4384627 -1.6577022
-31.260344 9.3726034 6.3436365
-33.875751 10.163209 -1.8535303
-33.000694 9.9069576 7.9547195
-29.756395 8.938674 8.3251734
-7.5677419 2.2848363 -2.118175
-8.8232012 2.6672404 -2.128037
-10.59097 3.2036543 -2.150799
-13.054371 3.9537773 -2.1603601
-17.505415 5.3085413 -2.246052
-18.363867 5.5723629 -1.6789683
-32.238106 9.7885389 6.5489469
-32.958454 10.019816 7.952919
-29.716045 9.0454197 8.323103
-7.5708046 2.3146279 -2.1212809
-8.810111 2.6968827 -2.1271372
-10.590986 3.2440546 -2.1530888
-13.032935 3.9970083 -2.1591089
-17.403284 5.3439717 -2.2353277
-18.508091 5.6867604 -1.693959
-31.006495 9.5329189 6.3054743
-7.5663705 2.3421819 -2.1223164
-8.7969198 2.7264678 -2.1262374
-10.575848 3.2798388 -2.1523256
-13.015131 4.041306 -2.158483
-33.1539 10.300898 4.2627463
-17.413902 5.4104896 -2.2389839
-18.800133 5.8483911 -1.7225461
-30.661858 9.5442266 6.2421255
-7.5585623 2.3672602 -2.1223164
-8.7729559 2.750958 -2.1226382
-10.561167 3.3137167 -2.1515625
-13.016735 4.0891809 -2.1609859
-33.021084 10.379829 4.2500715
-17.316326 5.4432049 -2.2287467
-31.191889 9.8108234 5.1789203
-18.845249 5.9310393 -1.7284726
-30.933397 9.7413864 6.3039479
-32.942852 10.393164 9.255887
-7.5469866 2.3911455 -2.1212809
-8.7823601 2.7859278 -2.1271372
-10.535151 3.3439693 -2.1485093
-12.999337 4.131124 -2.1603601
-17.302896 5.5054231 -2.2294779
-31.387089 9.992754 5.2170901
-18.999084 6.052424 -1.7445093
-31.19648 9.9380751 6.3642435
-35.565647 11.336761 -1.9563183
-35.587917 11.357555 -0.65205681
-32.88797 10.502208 9.2507105
-7.5308146 2.41643 -2.1192105
-8.7651606 2.8141847 -2.1253376
-10.526562 3.3837619 -2.1492727
-12.980349 4.1775312 -2.1597345
-32.813614 10.560571 4.232523
-17.296799 5.5700479 -2.231184
-31.163998 10.04168 5.1858029
-19.175055 6.1822858 -1.7626377
-31.462538 10.149991 6.4260654
-35.660702 11.511224 -1.9638547
-32.747032 10.576998 7.9448214
-7.5204973 2.4421046 -2.1186929
-8.7529325 2.8456886 -2.1248875
-10.503485 3.4168398 -2.1469829
-12.958174 4.2203689 -2.158483
-17.281929 5.635253 -2.2319155
-31.692175 10.334113 5.2796636
-19.285946 6.2924414 -1.7748394
-31.397049 10.250013 6.4199595
-36.262009 11.845243 -1.9992337
-32.157921 10.510825 7.81075
-7.5137615 2.4689462 -2.1192105
-8.7304888 2.8704388 -2.1217382
-10.506411 3.4583962 -2.1500359
-12.951612 4.265789 -2.1597345
-17.231098 5.681963 -2.2277718
-19.45306 6.4221807 -1.7922707
-36.465279 12.045615 -2.0126317
-32.12289 10.617408 7.81075
-7.5183659 2.4981115 -2.122834
-8.7259645 2.90274 -2.1230881
-10.472532 3.4857755 -2.1454566
-12.929147 4.3084717 -2.158483
-32.497841 10.835796 4.2061987
-17.207394 5.7408204 -2.2272844
-31.89282 10.646435 5.3253422
-19.763119 6.6011419 -1.8229494
-33.449383 11.172534 6.8550043
-36.888996 12.328568 -2.0383811
-32.706612 10.93713 7.9619174
-37.180008 12.440253 -0.68434376
-28.517401 9.5473204 8.0580721
-7.5000038 2.5225718 -2.1202457
-8.7157784 2.9331818 -2.1230881
-10.452243 3.5216284 -2.14393
-12.913267 4.3558335 -2.158483
-33.005299 11.133168 4.2768831
-17.159035 5.7913284 -2.223628
-24.583401 8.3066769 -2.2702327
-32.958126 11.142888 6.7626529
-37.032757 12.527691 -2.0488482
-31.658463 10.715796 7.7162709
-37.071953 12.548162 -0.68315697
-28.934021 9.7992525 8.1854115
-7.4838371 2.5462472 -2.118175
-8.7012796 2.9638505 -2.1221881
-10.443604 3.5593593 -2.1446934
-12.890506 4.3983316 -2.1572316
-32.374386 11.052669 4.2003493
-17.158358 5.8612399 -2.2263095
-31.367208 10.72105 5.2502542
-24.496235 8.3773775 -2.2650034
-33.290558 11.384915 6.8389764
-37.483898 12.826298 -2.0762722
-28.652548 9.8099585 6.9919286
-37.059769 12.69561 -0.68378526
-28.473936 9.7599115 8.0653191
-7.4744539 2.5736618 -2.118175
-8.6927242 2.9948406 -2.1226382
-10.419352 3.593775 -2.1424036
-12.872432 4.4449039 -2.1569188
-31.945318 11.03085 4.1496515
-17.177195 5.9347119 -2.2314279
-31.292259 10.817563 5.2439971
-24.425417 8.448513 -2.2611687
-28.586939 9.9047031 6.9847302
-37.483822 12.987264 -0.6924417
-31.882172 11.052657 9.041585
-7.4727225 2.6022766 -2.1202457
-8.6706476 3.0228343 -2.1199389
-10.410451 3.6314144 -2.1431668
-12.851243 4.4878564 -2.1559801
-17.145132 5.9907026 -2.2299654
-24.384493 8.5297747 -2.2601228
-40.459961 14.168879 -2.2466781
-29.234446 10.237759 7.1511941
-7.4531178 2.6231947 -2.1171398
-8.6642523 3.0528617 -2.1208386
-10.390946 3.663306 -2.1416404
-12.840014 4.5317631 -2.1566057
-32.687386 11.543113 4.2564092
-17.110199 6.0422382 -2.2280157
-32.208767 11.380419 5.4104433
-24.34856 8.607935 -2.2594254
-30.974373 10.956429 6.3863773
-40.333679 14.274977 -2.2422819
-32.51075 11.506269 7.9619174
-7.446198 2.6485434 -2.1176574
-8.657753 3.0828843 -2.1217382
-10.371343 3.6951082 -2.1401138
-12.824918 4.5743146 -2.1566057
-32.181526 11.484645 4.1954746
-17.040396 6.0845718 -2.2216785
-24.292099 8.6834803 -2.2569852
-31.66995 11.320776 6.537498
-40.207134 14.380401 -2.2378857
-32.239201 11.536962 7.90523
-28.860441 10.339211 8.2143993
-7.4291706 2.6732013 -2.115587
-8.6414375 3.1111088 -2.1203887
-10.359577 3.7337623 -2.1404953
-12.796918 4.6172676 -2.1547287
-32.141239 11.59691 4.1954746
-16.994778 6.1352539 -2.2185097
-32.277164 11.658688 5.4354725
-24.194185 8.743845 -2.2507098
-31.092831 11.24317 6.4268293
-40.139133 14.522236 -2.2370484
-30.980007 11.214602 7.6064954
-27.948679 10.122794 7.9648976
-7.416163 2.6977952 -2.1145515
-8.6244822 3.1407599 -2.1190388
-10.333569 3.7651939 -2.1378241
-12.769588 4.6578479 -2.1528513
-31.941877 11.657468 4.1750007
-16.972178 6.1975017 -2.2185097
-30.846359 11.269853 5.2014465
-24.204687 8.8432884 -2.2545447
-31.414801 11.48375 6.501626
-39.998161 14.62933 -2.2320242
-30.860147 11.293207 7.5866995
-28.11455 10.29959 8.0228729
-7.4157658 2.7270014 -2.1171398
-8.6061525 3.1681514 -2.1172395
-10.331415 3.805316 -2.1401138
-12.755105 4.703074 -2.1531644
-16.792147 6.1982799 -2.1977918
-33.119434 12.231531 5.591907
-24.166195 8.9249582 -2.2538474
-30.737347 11.357893 6.369586
-39.92437 14.760549 -2.230768
-29.358379 10.859992 7.226778
-28.266838 10.467437 8.0767078
-7.3989577 2.7501786 -2.1150692
-8.6005201 3.200212 -2.1185889
-10.30335 3.8358767 -2.1370609
-12.744163 4.7496419 -2.1541028
-31.915512 11.900988 4.1823125
-16.696014 6.2290978 -2.1880424
-24.078894 8.9883623 -2.2486181
-30.252438 11.298887 6.277235
-39.853897 14.892823 -2.2297213
-29.480919 11.022463 7.2663689
-29.493002 11.038708 8.4380188
-7.392931 2.7773466 -2.1161046
-8.5838242 3.2281582 -2.1172395
-10.289898 3.8718166 -2.1370609
-12.727506 4.7940989 -2.1541028
-16.655594 6.2803364 -2.1856048
-31.990833 12.069192 5.4154487
-23.998903 9.0540743 -2.244086
-31.814468 12.008987 6.6100059
-39.738136 15.007865 -2.2261624
-31.761038 12.001495 7.838644
-29.41815 11.127929 8.4276657
-7.3723545 2.7990217 -2.1129987
-8.5907211 3.2650232 -2.1217382
-10.27999 3.9091072 -2.1378241
-12.692233 4.8314667 -2.1509743
-30.777958 11.722189 4.043869
-16.62986 6.337028 -2.1851175
-30.4813 11.615303 5.1664052
-23.922476 9.1207504 -2.2399025
-30.451641 11.616165 6.3352408
-39.681774 15.145063 -2.2259531
-31.584236 12.060839 7.8053517
-29.453276 11.252995 8.4483719
-7.3625398 2.8247392 -2.1129987
-8.5616531 3.2865098 -2.1172395
-10.255287 3.9407427 -2.1355343
-12.668765 4.8706942 -2.1497226
-16.619869 6.396419 -2.1865799
-31.911633 12.288079 5.4160748
-23.860744 9.1927404 -2.2371135
-39.526974 15.236343 -2.2200916
-31.794981 12.26228 7.8674383
-7.3603368 2.8519306 -2.1150692
-8.5446777 3.3142614 -2.1158895
-10.253143 3.9789906 -2.1378241
-12.648004 4.9134569 -2.149097
-31.50416 12.244965 4.1501389
-16.575241 6.4457569 -2.183655
-23.847078 9.2832022 -2.2388568
-39.503326 15.385814 -2.2217662
-7.3480358 2.8781841 -2.1145515
-8.5385008 3.3462014 -2.1172395
-10.231181 4.0136757 -2.1362975
-12.618878 4.9554491 -2.1472197
-30.899517 12.134279 4.0760427
-16.556335 6.5050278 -2.1841426
-35.979919 14.143855 6.1231585
-23.777443 9.3518095 -2.2353704
-39.580475 15.583179 -2.2293026
-32.301125 12.723755 8.0150061
-7.3307595 2.9009731 -2.1124811
-8.5189314 3.3746033 -2.1154397
-10.202507 4.0435781 -2.1332448
-12.597832 4.9980097 -2.146594
-31.212778 12.38953 4.1233277
-16.528694 6.5641975 -2.183655
-35.197201 13.985322 5.9986367
-23.759468 9.4406319 -2.2367649
-39.600067 15.750782 -2.2334895
-7.3116198 2.9229574 -2.1098928
-8.5179548 3.408664 -2.118139
-10.199266 4.0835433 -2.1355343
-12.569306 5.0375457 -2.1447167
-30.985094 12.42452 4.0989542
-16.501993 6.6203799 -2.1831677
-35.661469 14.314132 6.0862403
-23.674597 9.5027294 -2.2318842
-39.515198 15.876993 -2.2318146
-7.310329 2.9520791 -2.1124811
-8.5023928 3.4369137 -2.1172395
-10.16675 4.1117601 -2.1317184
-12.547984 5.0799046 -2.1440909
-16.482464 6.6794338 -2.183655
-23.412331 9.4924784 -2.2102695
-39.463238 16.016335 -2.2320242
-7.2910342 2.9739327 -2.1098928
-8.4795189 3.4621525 -2.1145399
-10.168692 4.1539083 -2.1351528
-12.519205 5.1191888 -2.1422138
-16.455374 6.735424 -2.1831677
-23.305302 9.5439425 -2.2032971
-39.355343 16.132778 -2.2290933
-7.2859683 3.0015709 -2.1114457
-8.46558 3.4909875 -2.11409
-10.130537 4.1796422 -2.1301918
-12.503084 5.1636152 -2.1425269
-16.413418 6.7852359 -2.1807303
-23.257116 9.6191502 -2.2019026
-39.291412 16.266993 -2.2286747
-27.272343 11.302152 -0.51529974
-7.2736626 3.0262434 -2.1109281
-27.830553 11.584738 0.52619004
-8.4587383 3.5227642 -2.1154397
-10.110449 4.2127137 -2.1290469
-12.490453 5.2095089 -2.1434653
-31.065077 12.962956 4.1330771
-16.396959 6.8455472 -2.1817052
-23.256487 9.7140961 -2.2050402
-39.252815 16.411762 -2.2297213
-27.195835 11.381835 -0.51460165
-7.2523685 3.0471253 -2.1078224
-27.723576 11.653924 0.52493346
-8.4463911 3.5522697 -2.1154397
-27.976816 11.766115 1.5905945
-10.10111 4.2502642 -2.1301918
-12.46309 5.2492409 -2.141901
-16.369303 6.9012032 -2.1812177
-23.328913 9.8401232 -2.2151504
-39.151127 16.530035 -2.2272093
-27.043732 11.423714 -0.51243758
-7.2488022 3.0754387 -2.1098928
-27.762098 11.778585 0.52639949
-8.4327707 3.5794985 -2.1149898
-10.082601 4.2839608 -2.1294286
-12.436526 5.2866774 -2.1403368
-16.364594 6.9632215 -2.183655
-23.356747 9.9480419 -2.221077
-39.09977 16.661341 -2.2274184
-26.977938 11.507061 -0.51194888
-7.2314601 3.0964184 -2.1078224
-27.636257 11.839207 0.52479386
-8.4041042 3.6020038 -2.1109407
-10.064729 4.315825 -2.1286652
-12.407104 5.3253822 -2.1384594
-16.327423 7.0148134 -2.1819489
-23.351164 10.042107 -2.2238657
-27.29961 11.745771 -1.5575182
-26.926584 11.596422 -0.51173943
-7.2253814 3.1252048 -2.1093752
-27.220348 11.773658 0.51767325
-8.3932686 3.6320896 -2.1113906
-10.052446 4.354248 -2.1294286
-12.394751 5.3739643 -2.1397109
-0.92338735 0.40035099 0.12357552
-16.288267 7.065444 -2.1799989
-23.334244 10.131492 -2.2256091
-27.150133 11.799577 -1.5514473
-26.86027 11.679174 -0.51125079
-7.2091165 3.1480877 -2.1078224
-27.301624 11.927779 0.52004683
-8.3941841 3.6690741 -2.1149898
-10.019197 4.3814449 -2.1256123
-12.36868 5.4140291 -2.1384594
-0.82372177 0.36073157 0.11041363
-16.258627 7.1234994 -2.1795115
-23.293303 10.215348 -2.2252605
-38.814091 17.030113 -2.2213476
-26.795309 11.767895 -0.51083195
-7.1904602 3.1713715 -2.105752
-27.098808 11.952001 0.51697516
-8.3741941 3.6952059 -2.1131902
-10.010255 4.4213114 -2.1271389
-27.215635 12.02623 2.6031678
-12.355979 5.4625182 -2.1397109
-0.79703957 0.35236731 0.10700129
-16.222769 7.1753964 -2.1780491
-23.246574 10.29175 -2.2242146
-26.768698 11.867835 -0.5111112
-7.1781397 3.1944115 -2.1052344
-8.3559046 3.7220345 -2.1118405
-9.9883661 4.451283 -2.1256123
-12.323365 5.497025 -2.137208
-0.80305564 0.35838351 0.10797625
-16.179497 7.2238879 -2.1756117
-23.226871 10.375284 -2.2256091
-29.765514 13.308524 -1.7087691
-27.364431 12.240693 -0.52325809
-7.166944 3.2194502 -2.1052344
-8.3328514 3.7449307 -2.1091411
-9.9727659 4.4861245 -2.1256123
-12.297862 5.5346179 -2.1359563
-16.148212 7.2742405 -2.1746368
-23.183249 10.453023 -2.2249119
-99.890991 45.102516 -1.9130979
-7.1632676 3.2463872 -2.1073048
-26.977943 12.232059 0.51704502
-8.3161783 3.7723851 -2.1082413
-26.986275 12.247194 1.5531219
-9.9542599 4.5175467 -2.1248491
-12.289259 5.5824142 -2.1378336
-16.111879 7.3256302 -2.1731744
-23.146616 10.53389 -2.2249119
-7.1530776 3.2734241 -2.1078224
-26.933262 12.325323 0.51701009
-8.3100462 3.8046358 -2.1100409
-9.9304962 4.5507288 -2.1233225
-26.965736 12.362958 2.5953238
-12.261535 5.624125 -2.1365821
-16.078995 7.3785157 -2.1721995
-22.961243 10.546425 -2.2106183
-7.1345925 3.2951334 -2.105752
-26.907879 12.433176 0.51739407
-8.2889709 3.8317976 -2.1082413
-26.903385 12.442506 1.553436
-9.907424 4.5820694 -2.1217961
-26.924225 12.457848 2.5954978
-12.234657 5.6635728 -2.1353307
-0.77635813 0.35955024 0.10505138
-16.048241 7.43573 -2.1717119
-22.895367 10.613105 -2.2078292
-7.1090398 3.3134873 -2.1016109
-8.2755451 3.8607085 -2.1082413
-9.894927 4.6182833 -2.1225593
-12.207653 5.7029009 -2.1340792
-0.77869511 0.36393887 0.10553886
-16.022188 7.491704 -2.1717119
-22.869009 10.698027 -2.2088752
-7.0974293 3.338284 -2.1016109
-8.2549658 3.8862498 -2.1064417
-9.8716402 4.6494513 -2.121033
-12.187674 5.7454762 -2.1340792
-0.77741992 0.36665499 0.10553886
-15.988755 7.5441976 -2.1707368
-22.827925 10.776083 -2.2085266
-38.955498 18.405859 -2.2579827
-8.2431097 3.9158776 -2.1068916
-9.8553505 4.6838813 -2.121033
-12.163976 5.7862906 -2.1334534
-0.76179558 0.36254218 0.10358895
-15.940819 7.5897193 -2.1678119
-22.797361 10.859135 -2.2092237
-38.844143 18.519371 -2.2552612
-7.0826626 3.3919222 -2.1041989
-8.2346621 3.9471571 -2.1082413
-9.8212395 4.7097635 -2.1172168
-12.154388 5.8338442 -2.1353307
-0.76768345 0.36863613 0.10456391
-15.899915 7.6384416 -2.1658623
-22.752134 10.935195 -2.2085266
-38.782852 18.65659 -2.2554705
-7.0707793 3.4166248 -2.1041989
-8.2173262 3.9741788 -2.1073413
-9.8082743 4.7457275 -2.11798
-12.12684 5.8727889 -2.1340792
-0.77711076 0.37650684 0.10602634
-15.88387 7.6990948 -2.1673245
-22.685144 11.000633 -2.2057374
-38.68515 18.776157 -2.2535865
-7.067493 3.445519 -2.1067872
-8.1928959 3.9977112 -2.1046422
-9.7916489 4.7799363 -2.11798
-12.092068 5.9081469 -2.1315763
-0.76330775 0.37311485 0.10432017
-15.8569 7.7544899 -2.1673245
-22.664501 11.088509 -2.2074807
-38.561974 18.882973 -2.250237
-7.0623565 3.4735787 -2.1088579
-8.1684008 4.0211215 -2.1019428
-9.7784262 4.8158212 -2.1187432
-12.064282 5.9468269 -2.1303248
-0.749538 0.36963132 0.102614
-15.811932 7.8010106 -2.1648872
-22.632805 11.171082 -2.2081778
-7.051919 3.4990687 -2.1093752
-8.1665325 4.0556755 -2.105092
-9.7510071 4.8446841 -2.1164536
-12.039912 5.9871469 -2.129699
-0.74646592 0.37136108 0.10237025
-15.784604 7.8561573 -2.1648872
-22.60437 11.255353 -2.2092237
-7.0258417 3.5167458 -2.1052344
-8.1784601 4.0972528 -2.1118405
-9.7270155 4.8751736 -2.1149271
-12.018941 6.0291348 -2.129699
-0.7593587 0.38108766 0.10432017
-15.746444 7.9058609 -2.1634247
-22.547142 11.32524 -2.2074807
-7.0376673 3.5534379 -2.1124811
-8.1623688 4.1248975 -2.1113906
-9.7116919 4.9099813 -2.1153085
-11.987246 6.0657005 -2.1278217
-0.75625277 0.3828392 0.10407643
-15.743542 7.9733386 -2.166837
-22.518137 11.40928 -2.2085266
-7.0166125 3.5735984 -2.1098928
-8.1357679 4.1471672 -2.1082413
-9.6944933 4.9438519 -2.1153085
-11.962481 6.1057119 -2.1271961
-0.75491178 0.38547671 0.10407643
-15.705008 8.0228281 -2.1653748
-22.549139 11.524082 -2.2154989
-7.0023766 3.5971887 -2.1093752
-8.1160412 4.1728678 -2.1068916
-9.6684456 4.9731741 -2.1134005
-11.934072 6.1438122 -2.1259446
-0.74297285 0.38265622 0.102614
-15.667726 8.0694103 -2.1639123
-22.519402 11.608195 -2.2165449
-6.9852633 3.6177225 -2.1078224
-8.1160002 4.2069335 -2.1104908
-0.93270195 0.48346657 0.055057433
-9.6484165 5.0033989 -2.1126373
-0.93025929 0.48261276 0.091687836
-11.920645 6.1869936 -2.1271961
-0.75050861 0.38969174 0.10383269
-15.669068 8.1359587 -2.1678119
-0.94826633 0.49532044 0.018674076
-8.1175499 4.2419477 -2.1145399
-0.86374944 0.45155716 0.051079899
-9.6221933 5.0325007 -2.1107292
-0.92865378 0.48569497 0.091687836
-11.935068 6.2448063 -2.1334534
-0.75097102 0.39309883 0.10407643
-0.94610173 0.49545148 -0.13113143
-0.86823004 0.45505783 -0.085761249
-0.87373018 0.45832941 -0.051707931
-0.90835869 0.47669679 -0.017906168
-0.85091567 0.44844708 0.016789215
-0.83432835 0.43989107 -0.21775262
-0.92921841 0.49012846 0.055057433
-0.92686749 0.48909524 0.091687836
-0.90664011 0.47862411 -0.162379
-0.75830179 0.40048385 0.10529512
-0.90917623 0.48036852 -0.12625664
-0.86655635 0.45823702 -0.085761249
-0.88616657 0.46900314 -0.052545305
-0.83944958 0.44446549 -0.016579786
-0.86829406 0.46148548 -0.2634778
-0.84926629 0.45156285 0.016789215
-0.8912065 0.47406235 -0.23304929
-0.90273172 0.48039514 0.053592026
-0.86309826 0.45930392 -0.19004577
-0.85823858 0.45691001 0.085064009
-0.82816559 0.44108525 -0.14861277
-0.75332505 0.40139356 0.10480764
-0.83733922 0.44634643 -0.1165071
-0.83330703 0.4443838 -0.082623646
-0.82461613 0.44011891 -0.048986461
-0.83781481 0.44753948 -0.016579786
-0.84283996 0.4517374 -0.25623086
-0.81596279 0.43751538 0.01616093
-0.84146267 0.45137736 -0.22045203
-0.8095364 0.43443343 0.048149083
-0.84765047 0.45488715 -0.18699282
-0.81099784 0.43540004 0.080531903
-0.81269878 0.43649596 -0.1461098
-0.73967874 0.39744362 0.10310147
-0.8252852 0.44362727 -0.11504468
-0.8542245 0.45937562 0.15361866
-0.83876967 0.45106447 -0.083320886
-0.81955737 0.44110155 -0.048777115
-0.83624756 0.45046106 -0.016579786
-0.86845011 0.46937338 -0.26451308
-0.83202088 0.44987199 0.016509976
-0.81245732 0.43947706 -0.2132536
-0.8185544 0.44296002 0.048777115
-0.83569759 0.45223707 -0.18470311
-0.79545617 0.43063995 0.079137415
-0.8181181 0.44309315 -0.14736128
-0.74875903 0.40569732 0.10456391
-0.83071238 0.45028934 -0.11601962
-0.85261577 0.46235463 0.15361866
-0.85120165 0.46158779 -0.084715381
-0.82152343 0.44586509 -0.048986461
-0.82061249 0.44574156 -0.016300548
-0.84305823 0.45945942 -0.25726613
-0.82342273 0.44894439 0.016370358
-0.80749661 0.44044429 -0.2123538
-0.82050967 0.44772801 0.048986461
-0.80826324 0.44104549 -0.17897885
-0.79045069 0.43150452 0.078788787
-0.82350117 0.4497335 -0.14861277
-0.75256443 0.41116378 0.10529512
-0.81868434 0.44747368 -0.11455719
-0.85099667 0.46532801 0.15361866
-0.83560026 0.45690918 -0.083320886
-0.8287223 0.45352417 -0.04950982
-0.79800522 0.43707606 -0.015881689
-0.82113266 0.45123473 -0.25105447
-0.81308889 0.44699919 0.016195834
-0.81278431 0.44701678 -0.21415339
-0.82419151 0.45347759 0.049300473
-0.7963984 0.4381856 -0.17668915
-0.78195775 0.43041825 0.078091539
-0.82538706 0.45451105 -0.1492385
-0.75807959 0.41761947 0.10627007
-0.83276421 0.45895225 -0.11675084
-0.80439049 0.44349802 0.14548407
-0.80957341 0.44635561 -0.08088053
-0.81664199 0.45062459 -0.048881788
-0.77896988 0.43019158 -0.015532642
-0.81617296 0.45222571 -0.25001919
-0.78004193 0.4323844 0.015567547
-0.7856555 0.43567505 -0.20740487
-0.82085705 0.45538291 0.049195804
-0.78799689 0.43715325 -0.17516267
-0.77696639 0.43121153 0.077742919
-0.80825222 0.44875926 -0.14642268
-0.74794048 0.41544363 0.10505138
-0.81033474 0.45028585 -0.11382597
-0.82010287 0.45590091 0.14861277
-0.80278629 0.44627449 -0.080357596
-0.81331867 0.45250148 -0.048777115
-0.78969306 0.43971804 -0.015776975
-0.80784327 0.45130345 -0.24794866
-0.78725588 0.43998232 0.015742071
-0.78923273 0.44126791 -0.20875457
-0.81236929 0.45420378 0.048777115
-0.80874074 0.45236054 -0.1801237
-0.77545655 0.43392083 0.077742919
-0.80150986 0.44868314 -0.14548407
-0.73782569 0.41320229 0.10383269
-0.80537313 0.45103067 -0.1133385
-0.77033305 0.43158367 0.13985243
-0.79774755 0.44712579 -0.080008969
-0.78734738 0.44165784 -0.047311708
-0.79695004 0.44722727 -0.015951499
-0.81644261 0.45966628 -0.25105447
-0.7910195 0.44553465 0.015846785
-0.7894628 0.44483936 -0.20920448
-0.79519814 0.44807103 0.047835067
-0.78500307 0.44250688 -0.17516267
-0.7774843 0.43844736 0.078091539
-0.79313558 0.44745612 -0.1442326
-0.75028139 0.42345232 0.1057826
-0.803873 0.45369893 -0.1133385
-0.84458327 0.47686958 0.15361866
-0.79452574 0.44878891 -0.079834662
-0.79804915 0.4511466 -0.048044413
-0.78327829 0.44297686 -0.015707165
-0.79979169 0.45379111 -0.24639574
-0.79301584 0.45012957 0.015916595
-0.77951038 0.44264352 -0.20695497
-0.79883909 0.45380369 0.048149083
-0.78182429 0.44413796 -0.17478105
-0.76390052 0.43413219 0.076871365
-0.8002336 0.45496541 -0.14579694
-0.75750071 0.43084499 0.10700129
-0.77640426 0.44177616 -0.10968242
-0.84291351 0.47981483 0.15361866
-0.80334234 0.45747522 -0.08088053
-0.79654866 0.45379061 -0.048044413
-0.77477843 0.44174668 -0.015567547
-0.79644632 0.45575997 -0.2458781
-0.76193434 0.43601075 0.015323212
-0.78979903 0.45213908 -0.21010427
-0.77508068 0.44407251 -0.1736362
-0.75884712 0.43494761 0.076522738
-0.78656518 0.45101714 -0.14360686
-0.76632464 0.43941119 0.10846373
-0.77485746 0.44448361 -0.10968242
-0.84123355 0.48275423 0.15361866
-0.78791744 0.45234084 -0.079486035
-0.77236718 0.44377199 -0.046683677
-0.77323174 0.4444485 -0.015567547
-0.79150391 0.45660669 -0.24484283
-0.77072299 0.44479755 0.015532642
-0.76788461 0.44333836 -0.20470546
-0.79038274 0.45651162 0.047835067
-0.78542626 0.45364884 -0.17630751
-0.77802575 0.44955525 0.078614481
-0.77301449 0.44683993 -0.14141677
-0.75267988 0.4352608 0.10675755
-0.79212427 0.45825499 -0.11236355
-0.77107078 0.44625509 0.14110391
-0.76908946 0.44510841 -0.077742919
-0.77426982 0.44846767 -0.046893019
-0.76813757 0.44527364 -0.015497738
-0.79825521 0.46422243 -0.24743101
-0.77262253 0.44949657 0.015602452
-0.77475363 0.45091736 -0.20695497
-0.79741454 0.46429241 0.048358425
-0.79232115 0.46132678 -0.17821561
-0.78333807 0.45627975 0.079311721
-0.77315676 0.45053008 -0.14172964
-0.73572129 0.42888764 0.10456391
-0.79223448 0.46201745 -0.11260728
-0.78315818 0.45690748 0.14360686
-0.77269387 0.45080242 -0.078265861
-0.78304845 0.45720989 -0.047521055
-0.7890234 0.461068 -0.015951499
-0.80829602 0.47384506 -0.25105447
-0.78484827 0.4602837 0.015881689
-0.78662157 0.46150792 -0.21055418
-0.78889906 0.46302921 0.04793974
-0.79070598 0.46408972 -0.17821561
-0.78345871 0.46002021 0.079486035
-0.78520566 0.46123001 -0.1442326
-0.72908521 0.42843622 0.10383269
-0.78377181 0.46075603 -0.11163233
-0.78485483 0.46157682 -0.079660349
-0.79693896 0.46905828 -0.048463102
-0.78224021 0.46077463 -0.015846785
-0.80497378 0.4756811 -0.25053686
-0.79184389 0.46810845 0.016056214
-0.7933926 0.46921086 -0.21280369
-0.78384 0.4637464 0.047730397
-0.78063267 0.46184886 -0.17630751
-0.77327543 0.45767799 0.078614481
-0.80398804 0.47604537 -0.14798702
-0.72929317 0.43199033 0.10407643
-0.780451 0.46247694 -0.11138859
-0.83432496 0.49459815 0.15361866
-0.8072331 0.47853774 -0.082100704
-0.80388528 0.47693267 -0.048986461
-0.77546871 0.46043956 -0.015742071
-0.78671134 0.46860182 -0.24536048
-0.78333372 0.46677521 0.015916595
-0.78672826 0.46898401 -0.21145399
-0.78221649 0.46647954 0.047730397
-0.77395725 0.46155411 -0.17516267
-0.76653999 0.45731208 0.078091539
-0.78027016 0.46568832 -0.14391972
-0.74141604 0.44267455 0.10602634
-0.78394449 0.46825224 -0.1121198
-0.79529572 0.47522098 -0.081054844
-0.7799319 0.46640971 -0.047625724
-0.7721408 0.46211672 -0.015707165
-0.78507078 0.4713451 -0.24536048
-0.78341383 0.47053629 0.015951499
-0.77673441 0.46670896 -0.20920448
-0.78914249 0.47435194 0.048253756
-0.77234149 0.46425292 -0.17516267
-0.78372091 0.47127929 0.080008969
-0.77525455 0.46637267 -0.14329399
-0.73646468 0.44321251 0.10553886
-0.7942099 0.47815305 -0.11382597
-0.768031 0.46257499 -0.078440167
-0.78000957 0.4701606 -0.047730397
-0.77223545 0.46584195 -0.015742071
-0.7966429 0.48208404 -0.24950157
-0.77834511 0.47119713 0.015881689
-0.77009988 0.46638897 -0.20785476
-0.77560639 0.46972385 0.047521055
-0.78079093 0.47304997 -0.17745239
-0.78207093 0.47401237 0.080008969
-0.76855451 0.46600321 -0.14235538
-0.73151863 0.44372159 0.10505138
-0.78065628 0.47371393 -0.1121198
-0.75959915 0.46111736 -0.077742919
-0.75275952 0.45732522 -0.046160318
-0.77239519 0.46943885 -0.015776975
-0.79165685 0.4828499 -0.2484663
-0.77507132 0.472734 0.015846785
-0.7735396 0.47198525 -0.20920448
-0.78248584 0.4776313 0.048044413
-0.76740611 0.46861026 -0.17478105
-0.7787115 0.47570059 0.079834662
-0.77880502 0.47575775 -0.14454547
-0.73681843 0.45028555 0.10602634
-0.78077477 0.47733557 -0.11236355
-0.78347778 0.47936362 -0.080357596
-0.76657021 0.46920305 -0.047102366
-0.7690466 0.4710876 -0.015742071
-0.78017569 0.47940409 -0.24536048
-0.78363764 0.48172009 0.016056214
-0.76358742 0.46957842 -0.20695497
-0.78591722 0.48349923 0.048358425
-0.76250362 0.46909508 -0.17401782
-0.77543288 0.477236 0.079660349
-0.77209324 0.47536644 -0.14360686
-0.73693234 0.45389584 0.10627007
-0.77403384 0.47693396 -0.11163233
-0.76153105 0.46941352 -0.078265861
-0.74962926 0.46243832 -0.046160318
-0.76569587 0.47271895 -0.015707165
-6.7436934 4.1763783 -2.1254222
-0.76495242 0.47392103 0.015707165
-7.8231745 4.848681 -2.1248875
-0.78422469 0.48623967 0.048358425
-9.2905188 5.7603626 -2.1248491
-0.76698971 0.47573906 0.078963101
-0.76203668 0.4728511 -0.14204252
-0.73197031 0.45437154 0.1057826
-0.80818582 0.5028556 -0.01661469
-6.7208786 4.1947799 -2.122834
-7.8028965 4.8738956 -2.1239879
-0.7892977 0.49320793 0.048777115
-9.2636938 5.7885985 -2.1233225
-0.76701385 0.4794696 0.079137415
-11.380601 7.1169105 -2.1259446
-0.72533113 0.45376542 0.10505138
-14.949276 9.3558617 -2.1653748
-21.441025 13.429079 -2.2134073
-6.7119999 4.2234988 -2.1249044
-7.7891321 4.9031806 -2.1248875
-9.2440777 5.8235569 -2.1237042
-11.35778 7.1606846 -2.1265705
-0.71366739 0.44994241 0.10358895
-14.913171 9.4058657 -2.1648872
-21.3738 13.491079 -2.2113154
-6.7053733 4.2520757 -2.1274927
-7.7776918 4.9358716 -2.1266873
-9.2352943 5.8631554 -2.1263754
-11.339386 7.2045212 -2.1278217
-0.71536416 0.45468482 0.10407643
-14.875242 9.4583359 -2.1643996
-21.340027 13.574155 -2.2127099
-6.6937442 4.2775378 -2.1285279
-7.7653399 4.9661407 -2.128037
-9.211463 5.8932433 -2.1256123
-11.307514 7.2397995 -2.1265705
-0.71711582 0.45932052 0.10456391
-14.858852 9.5209093 -2.166837
-21.285807 13.644263 -2.2120128
-6.6739011 4.2977381 -2.1269751
-7.7577858 4.9995508 -2.1307364
-47.894974 30.878029 2.9864993
-9.1941366 5.9274864 -2.1263754
-11.292131 7.2856545 -2.1284475
-0.71717608 0.46289727 0.10480764
-14.847209 9.5867186 -2.1700058
-21.248089 13.724975 -2.2130587
-6.6653409 4.3252153 -2.1290457
-7.7321153 5.0212936 -2.1284869
-47.756748 31.025442 2.9846153
-9.1832685 5.9659619 -2.1286652
-11.266632 7.3250246 -2.1284475
-0.70557141 0.45890394 0.10334522
-14.806997 9.6341553 -2.1690307
-21.20673 13.803402 -2.2137558
-6.6615205 4.3558559 -2.1326692
-7.7161717 5.0493207 -2.1289368
-9.1673155 6.0012083 -2.1298101
-11.247603 7.3686385 -2.129699
-0.69898438 0.45809972 0.102614
-14.786558 9.6944904 -2.1709807
-21.148422 13.870788 -2.2127099
-6.6446619 4.3780179 -2.1321514
-7.6968718 5.0751514 -2.1284869
-9.1463127 6.0331693 -2.1298101
-11.231705 7.4143844 -2.1315763
-0.70731986 0.46710029 0.10407643
-14.736066 9.7351055 -2.1685433
-21.113173 13.953315 -2.2141044
-6.6284976 4.3989606 -2.1316338
-7.6897392 5.1071162 -2.1311862
-9.1229858 6.0612936 -2.1290469
-11.210346 7.4537778 -2.1322021
-0.70742005 0.47054255 0.10432017
-14.710311 9.7883167 -2.1695182
-21.063469 14.021044 -2.2137558
-6.608284 4.4188499 -2.1300809
-7.6743808 5.1336722 -2.1316364
-9.1213484 6.1062074 -2.1336262
-11.192132 7.4953084 -2.1334534
-0.70750493 0.4739908 0.10456391
-14.68107 9.8392553 -2.1700058
-21.001162 14.085601 -2.2123613
-6.6016064 4.446136 -2.1326692
-7.6612635 5.1636953 -2.1329858
-9.1173267 6.1473975 -2.1374426
-11.159352 7.5299087 -2.1322021
-0.70913678 0.47867882 0.10505138
-14.656506 9.8971081 -2.1714683
-20.951035 14.152936 -2.2120128
-6.5892434 4.4713221 -2.1337044
-7.6399674 5.1882172 -2.132086
-9.0876913 6.1736722 -2.1355343
-11.136266 7.5710378 -2.1328278
-0.69104695 0.46998781 0.102614
-14.618587 9.9459715 -2.1709807
-20.894915 14.221499 -2.2113154
-6.5799742 4.4986577 -2.1357749
-7.6250272 5.2170553 -2.1329858
-9.0774288 6.2131166 -2.1382058
-11.122808 7.6187954 -2.1353307
-0.69922745 0.47912949 0.10407643
-14.567408 9.9857159 -2.1685433
-20.864861 14.307878 -2.2134073
-6.5674129 4.5237904 -2.1368101
-7.6051655 5.2425342 -2.1325359
-9.0459871 6.2380781 -2.135916
-11.102649 7.6620626 -2.1365821
-0.70408517 0.48607856 0.10505138
-14.535728 10.038761 -2.1690307
-20.81151 14.378356 -2.2130587
-6.5404716 4.5389776 -2.1331868
-7.5980229 5.2768307 -2.1356852
-9.041893 6.2819381 -2.1401138
-11.069347 7.6962614 -2.1353307
-0.70564342 0.49080026 0.10553886
-14.503853 10.09171 -2.1695182
-20.751385 14.444081 -2.2120128
-6.5293384 4.5650997 -2.1347394
-7.5763636 5.3010869 -2.1347857
-9.0199108 6.3134599 -2.1401138
-11.048886 7.7393875 -2.1365821
-0.70717746 0.49553862 0.10602634
-14.481545 10.15139 -2.1714683
-20.684526 14.50499 -2.2102695
-6.5196815 4.5923138 -2.1368101
-7.5562224 5.3263764 -2.1343358
-9.0074434 6.3516984 -2.1424036
-11.03149 7.78474 -2.1384594
-0.69895643 0.49342498 0.10505138
-14.446022 10.201879 -2.1714683
-20.647493 14.592205 -2.2120128
-6.5106821 4.6217704 -2.1393983
-7.5487051 5.3606181 -2.137485
-46.948193 33.352016 3.0181103
-8.9825039 6.3835301 -2.1420219
-11.018978 7.8365703 -2.141588
-0.69075894 0.49125978 0.10407643
-14.403853 10.24764 -2.1704934
-20.638632 14.694235 -2.2165449
-6.4913659 4.642221 -2.1383629
-7.5337601 5.3916516 -2.1388347
-46.825642 33.523853 3.0181103
-8.9617624 6.4159889 -2.1424036
-11.001191 7.8818889 -2.1434653
-0.69863474 0.50072658 0.10553886
-14.350062 10.288796 -2.1680558
-20.577499 14.759222 -2.2154989
-6.4719872 4.6625938 -2.1373277
-7.5212173 5.4224758 -2.1406343
-8.9520502 6.4564199 -2.1454566
-10.98002 7.9248648 -2.1447167
-0.71619558 0.51710689 0.10846373
-14.336591 10.355099 -2.1714683
-20.538778 14.84029 -2.2168934
-6.4572344 4.6862931 -2.1378453
-7.502243 5.4486966 -2.1406343
-8.915163 6.4772463 -2.1420219
-10.939507 7.9538507 -2.1422138
-0.71759695 0.5219391 0.1089512
-14.29073 10.398069 -2.1700058
-20.470739 14.900168 -2.2151504
-6.4533138 4.7179241 -2.1419864
-7.4778409 5.4689436 -2.1388347
-8.9099264 6.5210786 -2.1462197
-10.925822 7.9994202 -2.1447167
-0.70945621 0.51962399 0.10797625
-14.275383 10.45948 -2.1729305
-20.453951 14.997459 -2.2189851
-6.4407454 4.7415895 -2.1430218
-7.472826 5.5054145 -2.1428835
-8.8850918 6.5482602 -2.1454566
-10.907372 8.0445442 -2.146594
-0.69485915 0.51266879 0.10602634
-14.229202 10.502175 -2.1714683
-20.407309 15.067571 -2.2193336
-6.4179468 4.7594399 -2.1409512
-7.4598217 5.5361133 -2.1446834
-8.8621798 6.5792351 -2.1454566
-59.703876 44.340008 6.50635
-10.882396 8.0849257 -2.1472197
-14.195642 10.554149 -2.1719556
-20.360987 15.143467 -2.220031
-6.3966517 4.7783456 -2.1393983
-7.443573 5.5644526 -2.1455832
-8.8423033 6.6124816 -2.1462197
-10.860433 8.1275969 -2.1484711
-14.171427 10.613157 -2.1739056
-20.337233 15.241889 -2.2235172
-6.3790951 4.8017588 -2.1393983
-7.4256616 5.5915747 -2.146033
-8.8274155 6.6519356 -2.1485093
-10.833728 8.1697254 -2.149097
-14.150139 10.674516 -2.176343
-20.32843 15.346395 -2.2283978
-6.3622947 4.8239965 -2.1393983
-7.3973551 5.612864 -2.1437836
-46.07497 34.972805 3.0315082
-8.807271 6.6850824 -2.1492727
-10.81458 8.2146645 -2.1509743
-14.110923 10.726303 -2.176343
-20.262049 15.407619 -2.2270036
-6.3623061 4.8590727 -2.1450922
-7.3839102 5.6433845 -2.1455832
-46.050987 35.208626 3.037998
-8.7823219 6.7145901 -2.148891
-10.782701 8.2499638 -2.1503484
-14.070239 10.773084 -2.1758554
-20.167017 15.446754 -2.2224715
-6.3345876 4.8730059 -2.1414688
-7.3703442 5.6738787 -2.1473827
-8.7572756 6.7440076 -2.1485093
-10.763227 8.2947845 -2.1522255
-14.04198 10.829407 -2.1773179
-20.153992 15.548693 -2.2270036
-6.3175387 4.8950882 -2.1414688
-7.3581939 5.7055426 -2.1496322
-8.7445402 6.782958 -2.1511807
-10.734208 8.332305 -2.1522255
-14.019773 10.890532 -2.1797554
-20.07757 15.601834 -2.2245631
-6.2973676 4.9147344 -2.1404335
-7.3320889 5.7263942 -2.1478326
-8.7239046 6.8158593 -2.1519439
-10.701943 8.3672905 -2.1515999
-13.987926 10.944297 -2.1807303
-20.026123 15.67428 -2.2249119
-6.2923231 4.9462371 -2.1445746
-7.3120556 5.7519531 -2.1478326
-8.7062302 6.8511262 -2.1534703
-10.681983 8.4119301 -2.1534772
-13.943401 10.988143 -2.1797554
-19.990063 15.758891 -2.2270036
-33.433956 26.376129 -2.2318146
-6.278048 4.9705696 -2.1456099
-7.2949877 5.7798629 -2.1487324
-8.6853399 6.8839145 -2.1542337
-10.65565 8.4516211 -2.1541028
-13.911176 11.041687 -2.1807303
-19.932169 15.832052 -2.2270036
-33.232216 26.405708 -2.2244878
-6.2567677 4.991137 -2.1445746
-7.2808604 5.8101544 -2.150532
-8.658515 6.9144764 -2.153852
-10.630775 8.4955492 -2.1553543
-13.878754 11.095135 -2.1817052
-19.883009 15.906507 -2.2277007
-33.07909 26.482391 -2.2207196
-6.2378016 5.0117373 -2.144057
-7.2534428 5.8319149 -2.1487324
-8.6419744 6.95081 -2.15576
-10.601053 8.532609 -2.1553543
-13.837996 11.145926 -2.1817052
-19.811846 15.963319 -2.2259576
-32.868282 26.502419 -2.2127645
-6.2217717 5.0346947 -2.1445746
-7.2345543 5.8584275 -2.1491826
-8.6283407 6.989583 -2.1584315
-10.565066 8.5645866 -2.1541028
-13.805172 11.199163 -2.1826801
-19.771473 16.044933 -2.2277007
-32.660839 26.523817 -2.2050188
-6.2071538 5.0588226 -2.1456099
-7.2050004 5.8762531 -2.1464829
-8.6069317 7.0221419 -2.1591947
-10.535107 8.6014137 -2.1541028
-13.764455 11.246032 -2.1824365
-19.749285 16.141592 -2.2315357
-32.249577 26.377178 -2.1834562
-6.1999111 5.0890393 -2.1492336
-7.1899924 5.9038234 -2.1478326
-8.5884352 7.0571289 -2.1607211
-10.51568 8.6438284 -2.1559801
-13.736283 11.299181 -2.1838987
-19.705126 16.220556 -2.2329299
-31.912161 26.278305 -2.1664996
-6.1800222 5.10711 -2.1481981
-7.1723437 5.9313693 -2.1487324
-8.5559082 7.0780616 -2.1584315
-10.485446 8.68048 -2.1559801
-13.696757 11.347061 -2.1838987
-19.789293 16.400232 -2.2486181
-31.05463 25.754599 -2.1143727
-6.15028 5.1187639 -2.144057
-7.1646166 5.965097 -2.1523318
-8.5341682 7.1103964 -2.1591947
-10.456602 8.7152033 -2.1559801
-13.665153 11.397507 -2.1848738
-19.664623 16.413036 -2.2409484
-31.404461 26.220982 -2.1440997
-6.1436367 5.1478157 -2.1476805
-7.1347909 5.9825568 -2.1496322
-8.5060282 7.134872 -2.1580498
-10.432168 8.756731 -2.1572316
-41.772705 35.076309 6.6974521
-13.643528 11.460455 -2.1877987
-19.60111 16.476452 -2.2402511
-31.248545 26.276449 -2.1397035
-6.1306314 5.1752853 -2.1497512
-7.1138654 6.0074239 -2.1496322
-8.4948149 7.1786752 -2.1618662
-10.39397 8.7898064 -2.1559801
-13.597376 11.502881 -2.1868236
-19.57085 16.567945 -2.2433889
-31.063635 26.315924 -2.1336324
-6.1228333 5.2054119 -2.1533747
-7.0917978 6.0334597 -2.1496322
-8.4577436 7.1981039 -2.158813
-10.36924 8.8311577 -2.1572316
-13.549083 11.547492 -2.1858487
-19.525024 16.646498 -2.2447832
-30.922966 26.382715 -2.1302829
-6.1046252 5.2267528 -2.1533747
-7.0632949 6.0518384 -2.1473827
-8.4370394 7.2314148 -2.1599579
-10.335351 8.864727 -2.1566057
-13.523754 11.607647 -2.1882861
-19.391218 16.64966 -2.2360678
-30.794331 26.459259 -2.1277709
-6.0746379 5.2379375 -2.1492336
-7.0495052 6.0828209 -2.1496322
-8.4102602 7.2595382 -2.1595764
-10.307336 8.9033308 -2.1572316
-13.48015 11.652186 -2.1877987
-19.438482 16.808464 -2.2482696
-30.710842 26.574432 -2.1283989
-6.0636091 5.2654443 -2.1518216
-7.0307655 6.1074424 -2.1500821
-8.3893108 7.2927179 -2.1607211
-10.280736 8.9400558 -2.1578572
-13.447425 11.702037 -2.1887736
-19.37368 16.870981 -2.2475724
-30.405687 26.487215 -2.1133261
-6.0475717 5.2867923 -2.1523392
-7.0064707 6.1293817 -2.1491826
-8.3638048 7.3219562 -2.1607211
-10.243522 8.9706821 -2.1566057
-13.415455 11.756752 -2.1902359
-19.116936 16.765106 -2.2245631
-30.143282 26.453558 -2.1018124
-6.0368514 5.3165846 -2.1554451
-6.9824963 6.1537313 -2.1487324
-8.3266048 7.3434715 -2.1580498
-10.213536 9.0107794 -2.1572316
-13.375247 11.808475 -2.1907237
-19.121061 16.893099 -2.2322328
-30.162834 26.667048 -2.1099765
-6.0100994 5.3322649 -2.1528571
-33.009396 29.296806 0.77038413
-6.9657235 6.1844583 -2.150532
-33.013359 29.310627 2.3136683
-8.3009205 7.3724918 -2.1580498
-33.071602 29.382986 3.8704121
-10.186347 9.0534029 -2.158483
-33.058937 29.392389 5.4314733
-13.411093 11.923676 -2.2033978
-18.984573 16.890875 -2.2231686
-30.063599 26.766861 -2.1095579
-32.847706 29.25596 -0.76780123
-5.9895029 5.3495903 -2.1518216
-32.941883 29.432758 0.77108222
-6.9422708 6.204926 -2.1496322
-8.2749653 7.3986688 -2.1576684
-10.162157 9.0924015 -2.1597345
-33.257114 29.766636 5.4802213
-13.35225 11.950873 -2.2002294
-18.833473 16.868662 -2.2120128
-29.781321 26.693111 -2.0959506
-5.9731665 5.3707147 -2.1523392
-6.9245534 6.2305207 -2.150532
-8.2503843 7.4260693 -2.1576684
-10.13195 9.1260509 -2.1597345
-13.295707 11.984118 -2.1977918
-18.691608 16.853642 -2.2019026
-29.832027 26.917496 -2.1057897
-5.9472227 5.3850498 -2.1497512
-6.8940988 6.2468009 -2.1478326
-8.2360468 7.465373 -2.1607211
-10.097108 9.1587057 -2.1591089
-13.255262 12.031791 -2.1980357
-18.612019 16.90003 -2.1994624
-29.539812 26.841484 -2.0917637
-5.9398074 5.4161911 -2.1538923
-6.8780098 6.276082 -2.1496322
-8.2026873 7.4874587 -2.158813
-10.07091 9.1992245 -2.1603601
-13.198533 12.06459 -2.1955984
-18.547026 16.95952 -2.198765
-29.666964 27.146669 -2.1074646
-5.909483 5.4264379 -2.1497512
-6.8574929 6.301373 -2.1500821
-8.1736116 7.5133872 -2.1580498
-10.047458 9.2423487 -2.1622374
-13.146115 12.101179 -2.193892
-18.499437 17.034958 -2.2001595
-29.507397 27.190514 -2.1028588
-5.8975968 5.4535909 -2.1523392
-6.8411775 6.330564 -2.1518817
-8.1516581 7.5458741 -2.1591947
-10.012239 9.2746782 -2.1616118
-14.905592 13.812393 2.4951532
-13.113981 12.156443 -2.1955984
-14.906058 13.822498 3.2197344
-18.448629 17.107552 -2.2012053
-14.904305 13.82571 3.9516544
-29.301031 27.190105 -2.0949039
-5.8870068 5.4820428 -2.1554451
-6.8090587 6.3451066 -2.1487324
-14.802252 13.798491 1.060536
-8.1267042 7.5756216 -2.1595764
-14.781243 13.78373 1.7682157
-9.9855804 9.3149614 -2.162863
-14.822455 13.831837 2.4893034
-13.067113 12.198081 -2.1948669
-14.830288 13.848831 3.2137899
-18.420837 17.201761 -2.2050402
-28.987047 27.087671 -2.0792031
-5.8654652 5.5022616 -2.1549275
-14.482774 13.590717 0.34667459
-6.7885985 6.3726883 -2.1496322
-8.108901 7.6147642 -2.1622477
-9.9484911 9.3487949 -2.1622374
-13.02666 12.24997 -2.1955984
-18.372173 17.282818 -2.2067833
-28.870129 27.177299 -2.0779471
-14.961738 14.094294 -0.35878655
-5.8434148 5.5200491 -2.1538923
-14.436702 13.64256 0.34670952
-6.7634797 6.3936687 -2.1487324
-8.0722866 7.6335812 -2.1595764
-9.924407 9.3916082 -2.1641147
-12.939134 12.253057 -2.1880424
-18.265451 17.302994 -2.2012053
-28.867844 27.365856 -2.084646
-14.941463 14.173959 -0.35948467
-5.8241115 5.5404119 -2.1538923
-14.426653 13.728716 0.34761703
-6.7467666 6.4226136 -2.150532
-8.0413275 7.6576486 -2.1584315
-9.9258862 9.4589014 -2.1716235
-14.703098 14.016249 2.4941783
-12.893414 12.295405 -2.1875548
-14.687723 14.011389 3.2150414
-18.227856 17.394585 -2.2043431
-28.668135 27.367155 -2.0771098
-14.349658 13.708044 -0.34639537
-5.8009753 5.5590491 -2.1528571
-14.531684 13.92565 0.35131696
-6.7271204 6.4488201 -2.1514318
-8.0160379 7.6897907 -2.1591947
-14.358212 13.778653 1.7410232
-9.9282007 9.5307856 -2.1797581
-12.856143 12.345838 -2.1885297
-14.634453 14.05847 3.214103
-18.221615 17.510565 -2.2109668
-14.651576 14.084757 3.9505095
-28.527328 27.433285 -2.0741789
-14.313252 13.769137 -0.34667459
-5.7912674 5.588654 -2.1564806
-14.516516 14.013535 0.35218954
-6.7062421 6.4761434 -2.1523318
-7.9947953 7.7231812 -2.1607211
-14.302867 13.821764 1.7401515
-9.9388981 9.6079445 -2.1894569
-14.579588 14.099028 2.4902785
-12.832947 12.409958 -2.1919422
-14.579612 14.10397 3.2128513
-18.140335 17.554667 -2.2085266
-14.610786 14.14401 3.9527996
-14.796778 14.329062 -1.0794816
-14.265101 13.819017 -0.34667459
-5.7727022 5.6078281 -2.1564806
-14.477135 14.068564 0.35236409
-6.6819344 6.4956288 -2.1514318
-7.973362 7.7537565 -2.1618662
-14.258381 13.870506 1.7403258
-9.9055672 9.6394739 -2.1891441
-12.821594 12.481525 -2.1970608
-14.300068 13.93051 -1.7466011
-14.64478 14.276273 -1.0718405
-14.226355 13.873226 -0.34684911
-5.7499285 5.622889 -2.1549275
-14.448985 14.134676 0.35281786
-6.6603584 6.5177498 -2.1514318
-14.440722 14.136465 1.0590705
