# .PCD v0.7 - Point Cloud Data file format
VERSION 0.7
FIELDS x y z
SIZE 4 4 4
TYPE F F F
COUNT 1 1 1
WIDTH 1498
HEIGHT 1
VIEWPOINT 0 0 0 1 0 0 0
POINTS 1498
DATA ascii
-5.242116 7.7776117 -2.1653788
-6.278048 9.3181095 -2.1839998
-7.7907081 11.571969 -2.2094805
-28.472883 42.308285 6.2616472
-11.495897 17.088364 -2.5287893
-13.847753 20.592098 -2.1710496
-19.182419 28.546448 -1.8024505
-26.393955 39.293156 10.928123
-26.538132 39.537601 12.759262
-4.4996891 6.7215524 -2.1673508
-5.2127695 7.7926216 -2.164479
-6.2520337 9.3497581 -2.1862895
-7.7524638 11.602376 -2.2101064
-28.29637 42.364494 6.2553101
-11.478066 17.19112 -2.5380511
-26.635719 39.893291 7.5973969
-13.795701 20.670135 -2.1741872
-19.071581 28.596611 -1.8014038
-26.541866 39.827938 12.824485
-4.4783349 6.7404375 -2.168386
-5.1901355 7.814734 -2.1658287
-6.2171855 9.3682547 -2.1855264
-7.7073975 11.618143 -2.2082293
-11.382602 17.171181 -2.5295203
-26.806181 40.453686 7.6862521
-13.840087 20.894239 -2.1926641
-18.970022 28.64971 -1.8007758
-4.4548965 6.7536383 -2.1678684
-5.1649685 7.8360596 -2.1667287
-27.58017 41.843399 2.6264279
-6.1785259 9.3773441 -2.1828551
-7.674396 11.656528 -2.2104194
-11.406607 17.338503 -2.5482883
-25.423359 38.644531 7.3264527
-13.759779 20.92337 -2.1909211
-23.879997 36.326168 8.4501677
-18.93133 28.809221 -1.8066373
-26.067123 39.683384 10.961414
-28.416298 43.276115 13.872184
-4.4238892 6.7578321 -2.1642449
-5.1389565 7.8531437 -2.1667287
-6.1489792 9.4037809 -2.1839998
-7.6356959 11.681914 -2.2104194
-11.376189 17.417782 -2.5543816
-13.713877 21.012989 -2.1952789
-26.088873 39.974487 9.2786608
-18.798595 28.814968 -1.8030787
-27.397989 42.012405 11.57958
-25.602978 39.289879 12.565665
-4.4067173 6.7805657 -2.1668332
-5.1093874 7.8677654 -2.1658287
-6.1209669 9.4290628 -2.1851447
-7.5862737 11.695237 -2.2079163
-11.362823 17.530682 -2.5651062
-13.663194 21.095848 -2.1989393
-25.949184 40.065308 9.2786608
-18.732624 28.934067 -1.8064281
-26.101404 40.362057 12.879354
-4.382884 6.7982941 -2.1673508
-5.077672 7.8789997 -2.1640291
-6.0853009 9.4497852 -2.1847632
-7.5487056 11.731268 -2.2094805
-11.314442 17.590277 -2.5680311
-25.09206 39.024956 7.3483534
-13.587322 21.140059 -2.1985908
-18.587584 28.94203 -1.8026597
-26.288132 40.947941 11.234056
-4.3632889 6.8200617 -2.1694212
-5.0508571 7.9008427 -2.1649289
-6.0522799 9.4709673 -2.1847632
-7.5013275 11.747558 -2.2076035
-11.279796 17.67848 -2.5748556
-13.593795 21.313347 -2.2116642
-18.544416 29.097689 -1.8083122
-25.104395 39.436367 12.526325
-4.3373866 6.8319883 -2.168386
-5.0284648 7.9266543 -2.1671786
-6.0139284 9.4837456 -2.1828551
-7.4697881 11.788692 -2.2104194
-25.195459 39.778351 5.7814822
-11.110768 17.548351 -2.5502381
-13.513982 21.352253 -2.2107925
-18.511061 29.270271 -1.815011
-25.710035 40.669266 11.108083
-25.104826 39.742626 12.595689
-4.3093915 6.8405504 -2.1663156
-5.0018048 7.9458065 -2.1676283
-5.9818301 9.5063429 -2.1832366
-7.4212346 11.802987 -2.2082293
-25.22757 40.138336 5.8209682
-11.183558 17.800501 -2.5811927
-25.416887 40.470898 7.5692387
-13.356718 21.267687 -2.1971962
-23.457422 37.365353 8.5757198
-18.419384 29.351629 -1.8160578
-24.803841 39.571384 12.513902
-4.2865129 6.8571892 -2.1668332
-4.9688778 7.9549527 -2.1653788
-5.9527717 9.5338259 -2.1847632
-7.379992 11.828818 -2.2082293
-11.121359 17.839428 -2.5811927
-13.349844 21.4224 -2.2083521
-18.449846 29.629372 -1.8292466
-24.632921 39.605225 12.497337
-4.2656064 6.8770332 -2.168386
-4.9400549 7.970592 -2.1649289
-5.9194531 9.5545483 -2.1847632
-7.3365736 11.851149 -2.2076035
-11.128983 17.991255 -2.5975235
-13.324227 21.548519 -2.2165449
-18.398787 29.778551 -1.8344802
-22.143202 35.866898 -0.73575854
-25.541536 41.387577 13.031539
-4.2446117 6.8968186 -2.169939
-4.9162836 7.9944291 -2.1667287
-5.879899 9.5651159 -2.1824734
-7.2941294 11.875002 -2.2072906
-24.008162 39.101112 5.6337762
-11.043273 17.992769 -2.5921612
-13.194753 21.506586 -2.2074807
-23.896231 38.96455 8.8848305
-18.278034 29.815344 -1.8328053
-24.732426 40.359631 10.928123
-21.951027 35.834839 -0.73352468
-25.477625 41.608276 13.07295
-4.2154751 6.9033499 -2.1673508
-4.8853006 8.0065517 -2.1653788
-5.8444276 9.5822325 -2.1817102
-7.2526302 11.900393 -2.2072906
-11.011378 18.082071 -2.5994735
-13.23148 21.736317 -2.2263062
-23.004869 37.806633 8.6024332
-18.27557 30.046188 -1.8430634
-4.1853476 6.9081087 -2.1642449
-4.8593421 8.0268879 -2.1662786
-5.8129783 9.6059322 -2.1824734
-7.204916 11.915493 -2.2054133
-10.977957 18.16967 -2.6065416
-23.456718 38.838642 7.1862874
-13.247203 21.934158 -2.2418201
-18.199463 30.157684 -1.8459941
-23.395151 38.782574 10.456625
-21.78499 36.127632 -0.73638684
-25.597408 42.466797 13.286218
-4.1641951 6.9276419 -2.1657977
-21.715841 36.141247 0.73596799
-4.8302922 8.0421305 -2.1658287
-21.714979 36.154064 2.2102523
-5.7834563 9.6328964 -2.1839998
-7.1592169 11.933793 -2.2041619
-10.872617 18.138077 -2.5965486
-13.176706 21.990517 -2.2428658
-18.114594 30.255304 -1.8480874
-23.123541 38.636589 10.395438
-25.383034 42.428776 13.247911
-4.1429577 6.9471121 -2.1673508
-4.8015995 8.0547581 -2.1649289
-5.7528076 9.6580877 -2.1851447
-23.829021 40.021187 4.0750537
-7.1216211 11.960865 -2.2047877
-23.588591 39.63311 5.6630254
-10.855042 18.245684 -2.6067855
-13.123274 22.075771 -2.246875
-18.034575 30.349545 -1.8501809
-4.1218638 6.9641385 -2.168386
-4.7714715 8.0681133 -2.1640291
-5.7177529 9.67204 -2.1839998
-21.34461 36.120514 3.6706512
-7.0798297 11.98565 -2.2047877
-10.826604 18.343292 -2.6153164
-23.461983 39.751156 7.3108091
-13.104672 22.21183 -2.2562878
-17.960987 30.467363 -1.8535303
-24.322277 41.274532 11.060393
-24.705368 41.94141 13.042927
-4.0926366 6.9701557 -2.1657977
-4.7476468 8.0889349 -2.1653788
-5.6770015 9.6800871 -2.1813285
-7.0420384 12.012471 -2.2054133
-10.7627 18.373959 -2.6145852
-13.023027 22.250565 -2.2555907
-17.869934 30.544003 -1.8545771
-24.387287 41.733833 12.951823
-4.0646386 6.9753432 -2.1632097
-4.7193842 8.1054573 -2.1653788
-21.320923 36.633003 2.2213476
-5.6498094 9.7073421 -2.1832366
-21.056171 36.192638 3.6633301
-6.9941092 12.026732 -2.203536
-10.757345 18.512678 -2.6289656
-12.985199 22.355646 -2.2618659
-17.845423 30.747839 -1.8631603
-24.615442 42.463837 13.151631
-4.0421968 6.9928346 -2.1642449
-4.6910639 8.1218805 -2.1653788
-5.6168699 9.7287064 -2.1836183
-6.9422174 12.03396 -2.2004075
-22.990316 39.868599 5.6508384
-10.66688 18.505404 -2.6226285
-12.923999 22.430183 -2.2648292
-17.737976 30.809946 -1.8631603
-25.566803 44.462032 13.742774
-4.0225692 7.0152807 -2.1668332
-4.6568694 8.1280613 -2.1626794
-5.5838537 9.7499561 -2.1839998
-6.9001651 12.058123 -2.2004075
-10.622913 18.578711 -2.6277468
-12.879254 22.543144 -2.2714529
-17.681833 30.961863 -1.8686032
-23.619492 41.375793 10.999207
-3.997786 7.0316553 -2.1673508
-4.6313558 8.1493521 -2.1640291
-5.5442052 9.7635269 -2.1824734
-6.8578758 12.086767 -2.2010331
-10.512954 18.536249 -2.6165349
-12.852551 22.679829 -2.2806914
-23.271914 41.082775 9.1779127
-17.582005 31.050798 -1.8700686
-3.9703679 7.0405202 -2.1657977
-14.453501 25.640366 0.51376396
-4.6052837 8.1730614 -2.1658287
-5.5091248 9.7811108 -2.182092
-6.8117647 12.103746 -2.1997817
-10.477378 18.624739 -2.6238472
-12.80454 22.780136 -2.2862694
-23.078369 41.074749 9.1580687
-17.506767 31.171185 -1.8736275
-3.9422839 7.045218 -2.1632097
-14.317638 25.597399 0.51194888
-4.58006 8.1916904 -2.1667287
-14.25382 25.493746 1.5307221
-5.4757028 9.7976112 -2.1817102
-6.7658134 12.115919 -2.1979043
-10.461996 18.742582 -2.6355467
-12.719228 22.805071 -2.2845263
-22.968788 41.199074 9.1687546
-17.436365 31.28838 -1.8771862
-3.9235859 7.0666981 -2.1657977
-14.3365 25.831827 0.51568371
-4.5547581 8.2102423 -2.1676283
-5.4450841 9.81915 -2.1824734
-6.7198515 12.127924 -2.1960273
-10.318631 18.638311 -2.6158037
-12.666681 22.888966 -2.2887099
-22.845354 41.299061 9.1740971
-17.317041 31.318068 -1.8755115
-14.125388 25.566996 -0.50985461
-3.9016917 7.0854268 -2.1673508
-4.5223155 8.2192602 -2.1658287
-5.4126701 9.8415365 -2.1832366
-6.681284 12.15823 -2.1972787
-10.38345 18.910864 -2.6489525
-12.647103 23.043076 -2.2996914
-14.097997 25.707878 -1.5365838
-13.963022 25.482872 -0.50720185
-3.8778594 7.1006999 -2.1678684
-4.4945321 8.2367058 -2.1662786
-5.3801608 9.8638191 -2.1839998
-6.6369147 12.178007 -2.1966531
-10.308826 18.931305 -2.6467586
-12.598981 23.146578 -2.3056178
-22.65218 41.633442 9.2130213
-13.987175 25.718338 -1.534281
-13.833888 25.457657 -0.50573581
-3.8521309 7.112493 -2.1673508
-4.4722433 8.2643423 -2.1694279
-5.340095 9.8721771 -2.1817102
-14.054284 25.992846 2.5852134
-6.5962405 12.204577 -2.1972787
-10.291733 19.057999 -2.6594329
-23.708632 43.921444 7.9052606
-12.540815 23.232496 -2.3098013
-13.95231 25.868959 -1.540352
-13.744946 25.505789 -0.50573581
-3.825454 7.1224923 -2.1663156
-4.4396806 8.273036 -2.1676283
-13.66133 25.467581 1.5146027
-5.305604 9.8907566 -2.1817102
-6.547996 12.217084 -2.1954014
-10.217645 19.079811 -2.6574831
-13.962309 26.083309 4.6858382
-12.468099 23.291941 -2.3113701
-17.026913 31.835068 -1.8920496
-13.650168 25.543034 -0.50552642
-3.7996581 7.1340976 -2.1657977
-13.559286 25.469126 0.50364155
-4.4116921 8.2902021 -2.1680782
-5.2710443 9.9092178 -2.1817102
-6.501605 12.232888 -2.1941502
-10.191019 19.190748 -2.6679637
-12.40821 23.375795 -2.3153794
-16.906332 31.876659 -1.8910029
-13.545948 25.562252 -0.50496793
-3.7738316 7.1456079 -2.1652801
-4.3772721 8.2952099 -2.1653788
-5.238256 9.9310284 -2.1824734
-6.4616299 12.260749 -2.1950886
-13.778187 26.154793 3.6297569
-10.061996 19.108522 -2.6516335
-12.351597 23.466566 -2.3200858
-16.835854 32.013264 -1.8956085
-13.531827 25.741552 -0.50762069
-3.7542412 7.1690068 -2.168386
-4.3515449 8.3131332 -2.1662786
-13.390944 25.592752 1.5137653
-5.1999159 9.9422951 -2.1809468
-6.4163566 12.273358 -2.1935244
-10.088646 19.314215 -2.6755197
-12.271445 23.513073 -2.3204343
-16.733305 32.076 -1.8960272
-13.488097 25.877296 -0.50936592
-3.7259963 7.1728449 -2.1657977
-4.3269911 8.3369207 -2.1685281
-5.1596828 9.9455452 -2.1778939
-6.3716602 12.292172 -2.1928985
-10.04308 19.391619 -2.6813695
-12.206235 23.578407 -2.3228748
-16.639593 32.169689 -1.8981206
-3.6991644 7.1823726 -2.1647625
-4.2966428 8.3460274 -2.1671786
-5.1231408 9.9600019 -2.1771307
-6.3317628 12.314992 -2.1932113
-10.034046 19.532528 -2.6962376
-12.149324 23.670507 -2.3277557
-16.576578 32.309994 -1.903145
-3.6731939 7.1935205 -2.1642449
-4.2642546 8.3582458 -2.1662786
-5.0919123 9.9848194 -2.1786571
-6.2829995 12.331075 -2.1919601
-9.8669291 19.381653 -2.6704013
-12.068437 23.71632 -2.3281043
-16.474344 32.402576 -1.9050289
-26.792309 52.742031 -1.0325891
-3.652426 7.2149167 -2.1668332
-4.2306533 8.3643866 -2.1640291
-5.0552535 9.9990292 -2.1778939
-6.2372422 12.347644 -2.1910214
-9.872551 19.561296 -2.6903877
-11.999032 23.784986 -2.3307188
-16.366524 32.470589 -1.9056571
-26.505493 52.631638 -1.02861
-3.6272171 7.227623 -2.1668332
-4.2092929 8.3947802 -2.1680782
-5.0194421 10.014858 -2.1775124
-6.1994123 12.379937 -2.1928985
-9.795332 19.577885 -2.6879506
-11.965846 23.926516 -2.3404803
-16.276299 32.573971 -1.9083785
-3.6011066 7.2385097 -2.1663156
-4.1782312 8.4059315 -2.1671786
-4.9800825 10.023529 -2.1756043
-6.154407 12.397962 -2.1922729
-9.7181072 19.594177 -2.685513
-11.830047 23.862818 -2.3301959
-16.190853 32.687862 -1.9117279
-3.570689 7.2406411 -2.1632097
-4.1462774 8.4152222 -2.1658287
-4.9476681 10.046135 -2.1767492
-6.1076002 12.41228 -2.1910214
-9.8037739 19.932676 -2.7274361
-11.784455 23.980858 -2.3376913
-16.125954 32.844578 -1.9175897
-3.5500543 7.2593822 -2.1652801
-4.1132174 8.4184189 -2.1631293
-4.9151859 10.064252 -2.1771307
-6.0577459 12.414712 -2.1878927
-9.6558151 19.797365 -2.7045248
-11.726692 24.064581 -2.3420491
-16.050177 32.966106 -1.9215672
-3.5268064 7.2728524 -2.1657977
-4.0844259 8.4302597 -2.1626794
-4.8817863 10.080495 -2.1771307
-6.0268645 12.456071 -2.1916471
-9.6384926 19.938179 -2.7191489
-11.706735 24.238131 -2.354948
-15.999805 33.141457 -1.9286848
-3.5076532 7.3014026 -2.1704566
-4.0532894 8.4409523 -2.1617796
-4.8456578 10.100088 -2.1775124
-5.9803195 12.476295 -2.1913342
-9.61516 20.068373 -2.732311
-11.665075 24.368702 -2.3636637
-15.866173 33.174648 -1.9272194
-3.4763305 7.3013945 -2.1668332
-4.0298562 8.47159 -2.1658287
-4.8078408 10.111624 -2.1763675
-5.9333386 12.489958 -2.1900828
-9.5721769 20.168043 -2.7410855
-11.603847 24.459677 -2.3685443
-15.799882 33.334515 -1.9332905
-3.4508245 7.3134837 -2.1668332
-3.9977691 8.4803162 -2.164479
-4.7708435 10.124792 -2.1756043
-5.8888659 12.508805 -2.18977
-9.5101719 20.219296 -2.7435229
-11.526877 24.518061 -2.3702874
-15.705509 33.436459 -1.9360118
-3.4244576 7.3237338 -2.1663156
-3.9681444 8.4942188 -2.164479
-4.7387929 10.1485 -2.1771307
-5.840158 12.518542 -2.1878927
-9.3925676 20.151611 -2.7298737
-11.471519 24.623163 -2.3765628
-15.624088 33.567131 -1.940408
-3.3988702 7.3356438 -2.1663156
-3.9319186 8.4938717 -2.1608799
-4.7049899 10.168542 -2.1778939
-5.799737 12.546026 -2.1891441
-9.3504725 20.245548 -2.7381606
-11.395513 24.684767 -2.3786545
-15.538617 33.690384 -1.9443855
-3.3764687 7.3544846 -2.168386
-3.9022434 8.5075455 -2.1608799
-4.6661954 10.177764 -2.1763675
-5.7600174 12.575176 -2.1907084
-9.3706141 20.47662 -2.764972
-11.322531 24.753386 -2.3814435
-15.452472 33.813442 -1.9483631
-3.3499744 7.3644686 -2.1678684
-3.877362 8.5317593 -2.1635792
-4.6273894 10.186842 -2.1748412
-5.7136407 12.589808 -2.18977
-9.1006975 20.071684 -2.705987
-11.254155 24.83268 -2.3852785
-15.357405 33.918125 -1.9512939
-3.3186924 7.3637877 -2.1642449
-3.8483591 8.547019 -2.1640291
-4.5934162 10.206512 -2.1756043
-5.6680412 12.606071 -2.1891441
-9.05336 20.15403 -2.7128117
-11.172306 24.882715 -2.3863242
-15.286318 34.077225 -1.9573649
-3.2937567 7.37709 -2.1647625
-3.8184988 8.560401 -2.1640291
-4.5641537 10.23683 -2.1786571
-5.6215892 12.620367 -2.1882055
-9.1330681 20.522846 -2.7581472
-11.082945 24.916103 -2.3858011
-15.194859 34.192429 -1.9609238
-3.2718914 7.397378 -2.1673508
-3.7822943 8.5594158 -2.16043
-4.5283952 10.252699 -2.1786571
-5.5759087 12.636297 -2.1875796
-9.0889978 20.607506 -2.7654593
-11.030443 25.033041 -2.3932967
-11.537917 26.209484 -1.5007859
-12.749818 28.976183 -0.55257809
-3.2457898 7.4046497 -2.1663156
-3.7531095 8.5701265 -2.1599801
-4.491219 10.260467 -2.1771307
-5.5363517 12.660147 -2.1885185
-9.0174255 20.630259 -2.7644844
-11.059013 25.3251 -2.4177003
-12.597784 28.876394 -1.6510949
-12.599314 28.893656 -0.55020458
-3.220449 7.4135995 -2.1657977
-33.665325 77.535927 1.4754614
-3.7277706 8.5896769 -2.1617796
-4.4532647 10.266295 -2.1752226
-5.4943352 12.678438 -2.1885185
-8.9690218 20.716257 -2.7717967
-10.96342 25.347094 -2.4161315
-12.471845 28.848343 -1.6471174
-12.473013 28.878712 -0.54908764
-3.19173 7.4218025 -2.1647625
-3.6962268 8.5990553 -2.1608799
-4.414835 10.280745 -2.1748412
-5.4408174 12.682155 -2.1857026
-8.9389048 20.845957 -2.7849586
-10.899189 25.441984 -2.421535
-11.383717 26.598661 -1.5162776
-12.328081 28.819122 -0.54713297
-3.1665587 7.4346771 -2.1652801
-3.6677346 8.6197176 -2.1626794
-4.3819923 10.30332 -2.1763675
-5.3849301 12.673796 -2.1810095
-8.8911333 20.946192 -2.7939768
-10.871017 25.622934 -2.4351313
-12.22612 28.844906 -1.6418837
-12.180271 28.764673 -0.54524809
-3.1390877 7.4421248 -2.1642449
-3.6285446 8.6109171 -2.1572804
-4.3536234 10.336646 -2.1801836
-5.3345313 12.677949 -2.1785066
-8.8241119 20.991741 -2.7959268
-10.778428 25.653378 -2.4344342
-11.390996 27.137886 -1.5424455
-12.109166 28.877094 -0.54657447
-3.1153224 7.4583855 -2.1657977
-3.5999637 8.6271296 -2.1581805
-4.3107109 10.335473 -2.1767492
-5.2834034 12.680083 -2.1756909
-8.7813025 21.095722 -2.8056762
-10.693401 25.701885 -2.4354801
-12.048977 28.988573 -1.6452333
-12.02517 28.959814 -0.54734236
-3.0892704 7.469214 -2.1657977
-3.5713174 8.6432438 -2.1590803
-4.2693634 10.337755 -2.174078
-5.236846 12.692971 -2.1747522
-8.7061024 21.122572 -2.8051889
-10.624863 25.790638 -2.4403608
-12.035896 29.244701 -1.6573752
-12.022867 29.242043 -0.55188
-3.0573199 7.4656506 -2.1616566
-3.5425987 8.6592665 -2.1599801
-4.2362213 10.359864 -2.1756043
-5.1835456 12.689228 -2.1709976
-8.643507 21.169706 -2.8076262
-10.527251 25.809118 -2.4386177
-12.013621 29.482597 -1.6684704
-11.97108 29.392874 -0.55397427
-3.0361788 7.4846988 -2.1642449
-3.5124018 8.6673536 -2.1590803
-4.2018456 10.373854 -2.1756043
-5.1251397 12.666062 -2.1641147
-8.5874043 21.233217 -2.8122571
-10.477439 25.932558 -2.4469848
-11.996528 29.722296 -1.679775
-11.964822 29.658653 -0.55823267
-3.0127802 7.498311 -2.1652801
-3.4821908 8.6753368 -2.1581805
-4.1703424 10.395021 -2.1771307
-5.0853167 12.688488 -2.1650534
-8.5324116 21.31098 -2.8185942
-10.429761 26.076267 -2.4570947
-11.97648 29.958504 -1.6908703
-11.929445 29.871094 -0.56144392
-2.9852791 7.5093026 -2.1652801
-3.4504452 8.683816 -2.1572804
-4.1351142 10.417534 -2.1786571
-5.032948 12.692351 -2.1625502
-8.4755287 21.384922 -2.8244441
-10.397356 26.260712 -2.4710395
-14.054216 35.533115 -2.002583
-2.9597576 7.5214748 -2.1657977
-31.597555 80.338448 1.5068756
-3.4193091 8.6982183 -2.1577303
-4.0922656 10.415459 -2.1752226
-4.9806767 12.689615 -2.1591089
-8.3767967 21.3641 -2.8176193
-10.333256 26.367332 -2.4776635
-13.992704 35.741905 -2.011585
-2.9292755 7.5209594 -2.1626918
-3.3924565 8.719182 -2.1599801
-4.0601511 10.44066 -2.1775124
-4.9334869 12.69956 -2.1578572
-8.3309031 21.467232 -2.827369
-10.287259 26.522129 -2.4888194
-13.912605 35.905994 -2.0180748
-2.9037018 7.5329423 -2.1632097
-3.3578005 8.7200575 -2.1572804
-4.0215678 10.44927 -2.1763675
-4.8834529 12.701955 -2.1553543
-8.2801208 21.559185 -2.8356562
-10.214602 26.609961 -2.4937
-13.801494 35.991634 -2.0201681
-2.8780754 7.5448375 -2.1637273
-3.3252575 8.726265 -2.155931
-3.9836686 10.459577 -2.1756043
-4.8376827 12.715231 -2.1547287
-8.2118616 21.606516 -2.8380935
-10.164109 26.757206 -2.5041587
-13.708361 36.125492 -2.0249829
-2.8544521 7.562067 -2.1657977
-3.2934036 8.7341709 -2.1550312
-3.9485204 10.477092 -2.1763675
-4.7793512 12.695064 -2.1484711
-8.1322031 21.623899 -2.8366311
-10.045417 26.725382 -2.4978836
-13.601841 36.225475 -2.0279138
-2.8246603 7.5629354 -2.1632097
-3.2697051 8.7638731 -2.1595302
-3.905067 10.472415 -2.1725514
-4.7260413 12.687607 -2.1444039
-8.0829725 21.722855 -2.8458931
-10.053455 27.03293 -2.5233331
-13.515639 36.381325 -2.0339849
-2.7962325 7.5673127 -2.1616566
-3.2363961 8.7679195 -2.1577303
-3.869844 10.489667 -2.1733146
-4.6810441 12.702171 -2.1440909
-8.0626488 21.901829 -2.8656361
-9.9741726 27.108992 -2.527168
-13.4368 36.559505 -2.0413117
-22.637238 61.625813 -1.1459599
-2.7717886 7.5824728 -2.1632097
-3.2046297 8.7712822 -2.155931
-3.8318558 10.499424 -2.1725514
-4.6334834 12.702777 -2.141588
-7.9763765 21.891144 -2.8607612
-9.8781128 27.1399 -2.5268192
-13.341426 36.67519 -2.0452893
-22.340046 61.47892 -1.1417713
-2.7466307 7.5916219 -2.1632097
-3.1700163 8.7714186 -2.1532316
-3.7996874 10.519459 -2.174078
-4.5710092 12.668705 -2.1331406
-7.8965526 21.909513 -2.8595424
-9.7110901 26.958817 -2.5069478
-13.252554 36.830536 -2.0513604
-22.071209 61.405968 -1.138979
-2.7201157 7.6011624 -2.1632097
-3.1400323 8.7842665 -2.1536813
-3.7616258 10.528959 -2.1733146
-4.5373793 12.714352 -2.1381464
-7.8266964 21.955641 -2.86198
-9.7493181 27.364164 -2.5414615
-13.13999 36.921726 -2.0538726
-21.807146 61.343224 -1.1363961
-2.6916301 7.6051474 -2.1616566
-3.1119506 8.8025217 -2.1554811
-3.7248468 10.542027 -2.1733146
-4.4771943 12.685407 -2.1306376
-7.7513242 21.986574 -2.8624673
-9.5941544 27.228903 -2.5257733
-13.041521 37.054035 -2.0586874
-21.533278 61.215229 -1.132696
-2.6618776 7.6053796 -2.1590683
-3.0827451 8.8127928 -2.1554811
-3.6867328 10.551257 -2.1725514
-4.4351058 12.700183 -2.1306376
-7.69276 22.053392 -2.8678296
-9.5423222 27.386402 -2.5372779
-12.955364 37.202702 -2.064549
-21.306337 61.252247 -1.1319979
-2.6391692 7.6214676 -2.161139
-3.0494132 8.8161335 -2.1536813
-3.646589 10.548582 -2.1694984
-4.3984804 12.737995 -2.1343923
-7.6662126 22.226486 -2.8868413
-9.5306616 27.647697 -2.5585439
-12.838417 37.285469 -2.0666425
-21.092381 61.326248 -1.1319979
-2.6138022 7.6342883 -2.1621742
-3.0161002 8.8193483 -2.1518817
-3.6084774 10.557529 -2.168735
-4.341866 12.717751 -2.1284475
-7.5860224 22.245594 -2.8858662
-9.4045353 27.594046 -2.5505257
-12.755827 37.469967 -2.0743883
-20.845982 61.304848 -1.1302527
-2.5859005 7.6397061 -2.161139
-2.9852982 8.8298216 -2.1518817
-3.5690863 10.562623 -2.1672087
-4.3145051 12.783362 -2.1368952
-7.5178313 22.300158 -2.8895223
-9.3679609 27.804184 -2.566911
-20.642069 61.40757 -1.1308113
-2.5604413 7.6523499 -2.1621742
-2.9556916 8.8438873 -2.1527817
-3.5321963 10.575017 -2.1672087
-4.269228 12.796473 -2.1365821
-7.4631686 22.395943 -2.8985407
-9.290987 27.897207 -2.5724888
-12.535535 37.683186 -2.0812964
-20.403643 61.407127 -1.1294849
-2.5300758 7.6502361 -2.1590683
-2.9266341 8.8597021 -2.1541312
-3.4952633 10.587281 -2.1672087
-4.2171068 12.788785 -2.1328278
-7.4054446 22.484077 -2.906584
-9.2147245 27.993818 -2.5784154
-11.736446 35.696556 -1.9692975
-20.181664 61.455185 -1.129066
-2.5039544 7.6608582 -2.1595864
-2.8938775 8.8643055 -2.1527817
-3.4576735 10.597551 -2.1668272
-4.1644859 12.779012 -2.1287606
-7.3453417 22.56642 -2.9138963
-9.1342154 28.078859 -2.5832961
-11.947511 36.770645 -2.0262392
-19.957157 61.49482 -1.1285075
-2.4736369 7.6585217 -2.1564806
-2.8587315 8.8613701 -2.1496322
-3.4200602 10.607687 -2.1664453
-4.1162233 12.782187 -2.1268833
-7.2792835 22.631609 -2.9190149
-9.0288343 28.087811 -2.5812044
-11.726272 36.523075 -2.010329
-19.763126 61.628857 -1.1296943
-2.4480646 7.6707892 -2.1575158
-2.8289635 8.8750095 -2.150532
-3.3830085 10.619561 -2.1664453
-4.0649881 12.775773 -2.1234417
-7.2230916 22.728769 -2.928277
-8.936759 28.138147 -2.5829475
-11.613212 36.609474 -2.0128412
-19.587753 61.823273 -1.1319979
-2.4113963 7.6479669 -2.1487157
-2.7997241 8.8904047 -2.1518817
-3.3412058 10.616323 -2.1633925
-4.0114851 12.761617 -2.1187487
-7.1615524 22.810661 -2.9355891
-8.8515997 28.210997 -2.5867825
-11.504471 36.710773 -2.0161905
-19.394545 61.963795 -1.1333244
-2.3795128 7.6397386 -2.144057
-2.7698295 8.9038467 -2.1527817
-3.3041248 10.627923 -2.1633925
-3.9499233 12.720834 -2.1096754
-7.083055 22.839315 -2.9360764
-8.7719507 28.30262 -2.5923603
-11.457748 37.014004 -2.0306354
-19.273802 62.340611 -1.138979
-2.3607845 7.6738467 -2.151304
-2.7387345 8.9134607 -2.1527817
-3.265856 10.635637 -2.1626294
-3.8921762 12.691106 -2.1024795
-6.9939899 22.83353 -2.9321766
-8.7232628 28.496906 -2.6073513
-11.364688 37.172192 -2.0371251
-2.3384778 7.6968284 -2.1554451
-2.7068939 8.9150352 -2.1509819
-3.2309923 10.654488 -2.1641557
-3.8643892 12.751205 -2.1103013
-6.9320397 22.902197 -2.9380264
-8.6514025 28.618727 -2.6157181
-11.293349 37.381741 -2.0465453
-2.3168278 7.7174931 -2.1590683
-2.6746407 8.9206963 -2.1500821
-3.1945126 10.661382 -2.1633925
-3.8181591 12.758939 -2.1093626
-6.8639851 22.966196 -2.943145
-8.5553169 28.643438 -2.6153696
-11.280396 37.815208 -2.0681078
-2.6451466 8.9355831 -2.1514318
-3.1539388 10.661172 -2.1611028
-3.7640867 12.739984 -2.1040437
-6.8135452 23.090925 -2.956063
-8.4676847 28.71517 -2.6192043
-11.263424 38.245201 -2.0894611
-2.0534761 7.0177941 -1.9592602
-2.615577 8.9503746 -2.1527817
-3.1194539 10.68154 -2.1630108
-3.7151647 12.737875 -2.1015408
-6.7274976 23.080996 -2.9519196
-8.3573675 28.710119 -2.6160667
-11.113135 38.226746 -2.0863209
-2.0044482 6.9354815 -1.9344137
-2.5837221 8.9515085 -2.1509819
-3.0834737 10.689939 -2.1626294
-3.6723597 12.748226 -2.101228
-6.6646552 23.150866 -2.9580131
-8.2555141 28.714695 -2.6139748
-10.944427 38.117489 -2.0783658
-2.0148404 7.059124 -1.9670248
-2.5540214 8.9600286 -2.1509819
-3.0498998 10.713855 -2.1653006
-3.6300616 12.760335 -2.101228
-6.593019 23.206453 -2.9621565
-8.1682749 28.789341 -2.6181583
-10.863567 38.339939 -2.0884142
-2.0135558 7.153862 -1.9913538
-2.5211658 8.9693289 -2.1509819
-3.0058384 10.70795 -2.1618662
-3.5720661 12.733611 -2.0946577
-6.5293436 23.306919 -2.9719062
-8.075592 28.865135 -2.6223419
-10.743402 38.452595 -2.0923917
-1.9806079 7.1369939 -1.9846245
-2.4872315 8.9747534 -2.1500821
-2.9684443 10.718376 -2.1618662
-3.5290542 12.759948 -2.0968478
-6.4632883 23.385056 -2.9789743
-7.9927998 28.95845 -2.6282685
-10.620777 38.532223 -2.0946946
-2.4595149 8.9904699 -2.1518817
-2.9313285 10.722481 -2.1607211
-3.4768388 12.735371 -2.0909033
-6.3846536 23.402529 -2.978487
-7.9145389 29.050154 -2.6341951
-10.528604 38.698277 -2.1018124
-2.1051733 7.7858996 -2.161139
-2.4276538 8.9910517 -2.1500821
-2.8988261 10.743514 -2.1630108
-3.4279034 12.722037 -2.0868361
-6.3297505 23.524353 -2.9911613
-7.8067722 29.033913 -2.6303604
-10.360843 38.58638 -2.0938573
-2.0725055 7.7726679 -2.1554451
-2.3942504 8.9919376 -2.1482825
-2.8638279 10.763055 -2.1649189
-3.4108694 12.837018 -2.1037309
-6.2511544 23.559736 -2.9928675
-7.7666583 29.292086 -2.6512778
-10.296641 38.888748 -2.1083019
-2.0488014 7.792933 -2.1590683
-2.3658192 9.0115499 -2.1509819
-2.8222573 10.757793 -2.1618662
-3.3565304 12.812538 -2.0977864
-6.1593375 23.544924 -2.9882364
-7.5917606 29.062046 -2.6279199
-10.175957 38.982433 -2.1114421
-2.0173168 7.7891688 -2.1559627
-2.3343463 9.0197535 -2.1509819
-2.7818236 10.764263 -2.1611028
-3.3129992 12.838143 -2.0999765
-6.0761147 23.562437 -2.9877491
-7.5300217 29.242723 -2.6418648
-9.7853279 38.056168 -2.0593154
-1.990595 7.7980356 -2.1564806
-2.3022361 9.0320244 -2.1518817
-2.7432654 10.770103 -2.1603396
-3.2754719 12.878345 -2.1046696
-6.0278211 23.734625 -3.0067606
-7.4367275 29.303589 -2.6450024
-9.9310865 39.189774 -2.1187689
-1.9605366 7.7936954 -2.1533747
-2.2713196 9.0358305 -2.1509819
-2.7066121 10.783421 -2.1611028
-3.2346668 12.896802 -2.105921
-5.9548841 23.777586 -3.0096855
-7.3459859 29.375759 -2.6491859
-9.7119904 38.865963 -2.0995095
-1.9379342 7.8132792 -2.1569982
-2.2378931 9.0361376 -2.1491826
-2.6713016 10.794245 -2.1614842
-3.1545649 12.766104 -2.0827687
-5.9098845 23.952414 -3.0291846
-7.271431 29.492811 -2.6575527
-9.6478863 39.190525 -2.1152101
-1.912026 7.8256254 -2.158551
-2.2072585 9.0476809 -2.1500821
-2.6298943 10.788242 -2.1584315
-3.1207254 12.821184 -2.0899646
-5.8557668 24.094421 -3.0445402
-7.183476 29.579971 -2.6631308
-9.5383139 39.336544 -2.1212811
-1.8842438 7.8303742 -2.1580334
-2.1756647 9.0553293 -2.1500821
-2.590384 10.789722 -2.1569052
-3.0980573 12.924204 -2.1049824
-5.7341924 23.958342 -3.0247974
-7.0931606 29.659121 -2.6680114
-9.3786697 39.276356 -2.116257
-1.8542284 7.8256245 -2.1549275
-2.1469729 9.0681829 -2.1514318
-2.5549655 10.80825 -2.158813
-3.0442865 12.888267 -2.0974736
-5.664753 24.019726 -3.0301595
-6.9904928 29.68758 -2.6683602
-9.2557182 39.338341 -2.1179316
-1.8317826 7.8467808 -2.1590683
-2.1148612 9.0737257 -2.1509819
-2.5200028 10.820487 -2.1595764
-3.0247767 13.008485 -2.1153071
-5.5853567 24.058691 -3.0325971
-6.9001174 29.745533 -2.6714978
-9.1462755 39.491051 -2.1244214
-1.8035135 7.8493614 -2.1580334
-2.0825772 9.0711927 -2.1487324
-2.4848459 10.8407 -2.1618662
-2.9573636 12.912542 -2.0980992
-5.5312147 24.18932 -3.0467339
-6.8228569 29.885981 -2.6819565
-9.0570297 39.704201 -2.1342607
-1.7755854 7.8596878 -2.1590683
-2.048162 9.0810232 -2.1491826
-2.4407821 10.830582 -2.1580498
-2.9216397 12.985472 -2.1081111
-5.4313264 24.17939 -3.042834
-6.7315907 29.992435 -2.6892774
-8.928956 39.847828 -2.1401222
-1.7472987 7.8620658 -2.1580334
-2.0180387 9.0877647 -2.1491826
-2.4012589 10.831369 -2.1565235
-2.8811283 13.00666 -2.1099885
-5.3485479 24.185638 -3.0413716
-6.6440449 30.093573 -2.69625
-8.8294725 40.025444 -2.1480772
-1.7191511 7.8583817 -2.1554451
-1.9887965 9.1061754 -2.1518817
-13.793925 63.211674 3.3907423
-2.3644874 10.835437 -2.15576
-2.8172045 12.931714 -2.0962222
-5.3105025 24.41753 -3.0681827
-6.5592418 30.210039 -2.704617
-8.7032623 40.118477 -2.1514268
-1.6911509 7.8684077 -2.1564806
-1.9553634 9.105442 -2.1500821
-2.3243487 10.842111 -2.1553786
-2.786741 13.02115 -2.1090496
-5.2273059 24.445627 -3.0694015
-6.4279671 30.111946 -2.6938095
-8.5894547 40.306381 -2.1598005
-1.6648704 7.8799329 -2.1580334
-1.9211706 9.1087351 -2.1491826
-2.2872951 10.854001 -2.1561418
-2.7286618 12.970874 -2.0993509
-5.1437984 24.493763 -3.0730577
-6.3244467 30.142002 -2.6945069
-8.280838 39.534634 -2.1168849
-1.6357849 7.8781295 -2.1559627
-1.8901641 9.1112385 -2.1482825
-2.2501924 10.865764 -2.1569052
-2.6912401 13.006932 -2.1037309
-5.072979 24.56123 -3.0793948
-6.2360964 30.24585 -2.701828
-8.2447815 40.02354 -2.1415875
-1.6100394 7.8854041 -2.1564806
-1.8583505 9.1177797 -2.1482825
-2.2114079 10.859699 -2.1542337
-2.6021461 12.801373 -2.0690024
-4.9974699 24.629372 -3.085732
-6.1587148 30.379618 -2.7119379
-8.0970888 40.012924 -2.1394939
-1.5821222 7.8890815 -2.1559627
-1.829638 9.1315355 -2.1500821
-2.1738689 10.869278 -2.1546154
-2.5383949 12.703392 -2.0517945
-4.9219861 24.676956 -3.0896318
-6.0184035 30.228975 -2.6965985
-7.9744964 40.090488 -2.1422157
-1.5566975 7.8980765 -2.1569982
-1.7962445 9.1302185 -2.1482825
-2.1397033 10.886059 -2.1565235
-2.4982162 12.733499 -2.0552363
-4.8266668 24.647232 -3.0837822
-5.9013009 30.162729 -2.6889288
-7.8620763 40.259212 -2.1497519
-1.5287571 7.9015651 -2.1564806
-1.7636219 9.1326065 -2.1473827
-2.1002109 10.885751 -2.1549969
-2.4649556 12.800335 -2.0646224
-4.7600799 24.765299 -3.0964565
-5.8222704 30.320112 -2.7011306
-7.7056961 40.204029 -2.1453557
-1.5015242 7.908751 -2.1569982
-1.7317343 9.1387072 -2.1473827
-2.0600057 10.881441 -2.1527071
-2.4250295 12.834094 -2.0686896
-4.68537 24.844189 -3.1042564
-5.5563169 29.518887 -2.6279199
-7.5719447 40.266014 -2.1472399
-1.471822 7.9104018 -2.1559627
-1.7012459 9.1523609 -2.1491826
-2.0179629 10.877336 -2.1504176
-2.3776171 12.840953 -2.0683768
-4.6076627 24.909189 -3.1103497
-5.6167307 30.423697 -2.7067087
-7.4445877 40.403492 -2.1531014
-1.4428116 7.9078903 -2.1538923
-1.666993 9.1546984 -2.1482825
-1.9799788 10.884315 -2.1504176
-2.3377161 12.876386 -2.072757
-4.528008 24.99037 -3.1183929
-5.4870825 30.313723 -2.6952043
-7.0436149 38.990524 -2.0764816
-8.8605471 49.097282 -0.87084019
-1.4158809 7.9166813 -2.1549275
-8.7883472 49.138699 0.87132883
-1.6366276 9.1601763 -2.1482825
-1.9347385 10.850571 -2.1424036
-1.9229552 10.795389 -1.7367356
-1.9105594 10.747525 -1.3403192
-1.9117239 10.775932 -0.95749295
-7.1979957 40.614487 -2.1616845
-1.3899522 7.9232364 -2.1554451
-1.6029601 9.1562366 -2.146033
-8.6025333 49.188896 2.6170075
-1.9034781 10.884003 -2.1477461
-1.8842387 10.796198 -1.735797
-1.8750728 10.765864 -1.3417815
-1.870302 10.771833 -0.57297415
-1.87394 10.815181 -0.19159251
-1.3649055 7.9432716 -2.1595864
-1.8549204 10.806286 0.19138309
-1.571979 9.1675386 -2.1473827
-1.8674653 10.90219 -2.1500359
-1.8452125 10.79492 -1.7345455
-8.4306669 49.373234 6.1500149
-1.8394812 10.784085 -1.343244
-1.8487099 10.849582 -0.96289659
-1.8373742 10.805862 -0.57443953
-1.8318249 10.796027 -0.19113876
-1.3342869 7.9308414 -2.1549275
-1.5399663 9.1729698 -2.1473827
-1.8188043 10.845457 0.57632357
-1.8271275 10.895089 -2.1473646
-1.8137933 10.827192 0.96045625
-1.8068651 10.7974 -1.7339199
-1.801175 10.786525 -1.3427565
-1.8023007 10.804873 -0.95836449
-1.8039087 10.837822 -0.57580024
-1.802977 10.855617 -0.19208118
-1.3065929 7.9354506 -2.1549275
-1.7820294 10.834757 0.19166233
-1.5079393 9.1782894 -2.1473827
-1.7799623 10.845829 0.57600957
-1.7903541 10.90915 -2.148891
-1.7772746 10.841323 0.96115357
-1.7669318 10.789995 -1.7317297
-1.7641494 10.796665 -1.343244
-1.7623291 10.797333 -0.95714432
-1.766385 10.846025 -0.57590491
-1.758981 10.824343 -0.19141799
-1.278883 7.9399633 -2.1549275
-1.7432475 10.834989 0.19155762
-1.475271 9.1796494 -2.1464829
-1.7443004 10.853643 0.57611424
-1.7522603 10.915333 -2.148891
-1.7381662 10.83959 0.96045625
-1.7267547 10.780493 -1.7292268
-1.7324158 10.827937 1.3464125
-1.727398 10.796576 -1.3425128
-1.7230554 10.793582 -0.95627278
-1.7241236 10.82451 -0.57443953
-1.7227591 10.828141 -0.19138309
-1.2531455 7.9479775 -2.1559627
-1.7069938 10.838736 0.19152272
-1.4436125 9.1767902 -2.1446834
-1.7061282 10.845557 0.57538158
-1.7160512 10.921084 -2.148891
-1.7037529 10.855137 0.96132785
-1.6906921 10.784208 -1.728914
-1.7011031 10.86304 1.3500687
-1.6885115 10.782632 -1.3400754
-1.6878705 10.803174 -0.95662141
-1.68637 10.818327 -0.57381147
-1.6865368 10.831819 -0.1913482
-1.2267876 7.9520884 -2.1559627
-1.6704347 10.840383 0.19145289
-1.4134672 9.1834536 -2.1451333
-1.6667447 10.841575 0.57485819
-1.679237 10.922832 -2.1481278
-1.6692609 10.870574 0.96219939
-1.652522 10.774136 -1.7264109
-1.6638706 10.860774 1.3490938
-1.6493689 10.778647 -1.3388567
-1.6478193 10.781138 -0.95418108
-1.6471763 10.802141 -0.57266009
-1.6472099 10.827756 -0.19117366
-1.1987321 7.9544129 -2.1554451
-1.6331772 10.850104 0.19152272
-1.3819882 9.1921854 -2.146033
-1.6282942 10.843377 0.57464886
-1.6410959 10.928628 -2.1481278
-1.628347 10.85663 0.96045625
-1.6146181 10.777884 -1.7260981
-1.6274203 10.87633 1.3503125
-1.6117314 10.78434 -1.3388567
-1.6101836 10.786824 -0.95418108
-1.6112218 10.819677 -0.57328814
-1.60588 10.809703 -0.1907548
-1.1706755 7.9566374 -2.1549275
-1.5915159 10.830019 0.19106895
-1.3501735 9.1988811 -2.1464829
-1.5901414 10.84702 0.57454419
-1.6026504 10.932349 -2.1477461
-1.5898654 10.858306 0.96010768
-1.5752683 10.771726 -1.7242209
-1.5871466 10.866231 1.3483624
-1.5732199 10.784007 -1.3381255
-1.5713687 10.784493 -0.95348382
-1.5705738 10.805471 -0.57224143
-1.569569 10.825138 -0.19092932
-1.1423509 7.9568505 -2.1538923
-1.552564 10.82759 0.19092932
-1.3175002 9.1996803 -2.1455832
-1.5505792 10.84064 0.57391614
-1.566155 10.949535 -2.1500359
-1.5488509 10.842093 0.9581902
-1.5370976 10.77325 -1.7235951
-1.5492141 10.871704 1.3483624
-1.5347253 10.783538 -1.3373944
-1.5317485 10.776105 -0.95226365
-1.5320021 10.804955 -0.57192737
-1.5306548 10.82263 -0.1907897
-1.1159066 7.9703565 -2.1564806
-1.5142027 10.828983 0.19085953
-1.2845726 9.1984329 -2.1442335
-1.5138297 10.853901 0.57433486
-1.5273793 10.951049 -2.1492727
-1.5112674 10.849407 0.95836449
-1.4992127 10.776592 -1.7232823
-1.5090672 10.861317 1.3464125
-1.4965256 10.784897 -1.3369068
-1.4965873 10.799147 -0.95383239
-1.4912652 10.788474 -0.57077599
-1.4928697 10.827907 -0.1907897
-1.0883409 7.9761167 -2.1569982
-1.4766705 10.836183 0.19089442
-1.2532423 9.2086535 -2.1455832
-1.4727075 10.835369 0.57307881
-1.4886169 10.952421 -2.1485093
-1.4739251 10.858565 0.95871317
-1.4605218 10.77393 -1.7220308
-1.471941 10.872421 1.3471439
-1.4556808 10.766448 -1.3339819
-1.4575464 10.794434 -0.95296091
-1.4554657 10.807469 -0.57150865
-1.450536 10.799361 -0.19019634
-1.0599812 7.9760361 -2.1559627
-1.437518 10.831361 0.1907199
-1.2213484 9.2149048 -2.146033
-1.4370275 10.842174 0.57318348
-1.4488282 10.945873 -2.1462197
-1.4349705 10.855742 0.95801592
-1.4229072 10.778962 -1.7220308
-1.4332041 10.871588 1.3464125
-1.4186106 10.775399 -1.3344694
-1.4141464 10.755997 -0.94912601
-1.4133197 10.778819 -0.56972927
-1.4154919 10.810061 -0.19030103
-1.0311399 7.9720254 -2.1538923
-1.4003063 10.826153 0.19054537
-1.1902865 9.2150383 -2.1451333
-1.3976365 10.835239 0.57255542
-1.4106082 10.950865 -2.1462197
-1.3950368 10.844876 0.95662141
-1.3841329 10.76011 -1.7182763
-1.3953713 10.862498 1.3447064
-1.3818569 10.772169 -1.3334944
-1.3783592 10.774702 -0.95034617
-1.3823738 10.82109 -0.57171804
-1.3747189 10.791131 -0.18988217
-1.0046996 7.9754004 -2.1538923
-1.3597643 10.80915 0.19016142
-1.1573817 9.2133369 -2.1437836
-1.3595597 10.838069 0.57245076
-1.3747771 10.959378 -2.1469829
-1.3585678 10.845489 0.95627278
-1.3450907 10.753116 -1.7163991
-1.3559716 10.855484 1.343244
-1.3454775 10.786777 -1.3347132
-1.3426236 10.779213 -0.95034617
-1.3404101 10.792153 -0.5699386
-1.3390111 10.811741 -0.19016142
-0.97685587 7.9788589 -2.1538923
-1.3234782 10.82574 0.19037086
-1.1237948 9.2057142 -2.1410842
-1.3183384 10.814993 0.57098538
-1.3369907 10.968007 -2.1477461
-1.3180509 10.82841 0.95435536
-1.3080209 10.761668 -1.7170249
-1.3166379 10.848327 1.3417815
-1.3056641 10.773673 -1.3325195
-1.304986 10.783834 -0.95034617
-1.303206 10.800733 -0.57014793
-1.3003097 10.808406 -0.1900218
-0.95013678 7.9918127 -2.1564806
-1.2849814 10.824336 0.19026613
-1.0925734 9.2173214 -2.1428835
-1.2829236 10.839363 0.57203203
-1.2980019 10.966759 -2.1466014
-1.2816551 10.844816 0.95540124
-1.27045 10.766168 -1.7170249
-1.2771331 10.839057 1.3400754
-1.2668915 10.768306 -1.3313009
-1.2668729 10.784367 -0.9499976
-1.2631754 10.785378 -0.56910127
-1.2623386 10.810894 -0.1899869
-0.92223608 7.9950805 -2.1564806
-1.2474155 10.830742 0.19030103
-1.0610578 9.2268877 -2.1442335
-1.2443981 10.837823 0.57171804
-1.2588192 10.963421 -2.1450748
-1.2433349 10.845264 0.95505255
-1.2333078 10.774463 -1.7176507
-1.2399685 10.849365 1.3408067
-1.2283973 10.764772 -1.3303258
-1.22809 10.778826 -0.94912601
-1.2264236 10.797661 -0.56951994
-1.2225661 10.797353 -0.18967277
-0.89324683 7.9886513 -2.1538923
-1.209155 10.831056 0.19023123
-1.0288498 9.2305346 -2.1442335
-1.2067775 10.844086 0.5718227
-1.2205392 10.967749 -2.1450748
-1.2043675 10.839639 0.95418108
-1.193302 10.757105 -1.7142091
-1.2009941 10.843762 1.3395879
-1.1908109 10.768995 -1.3303258
-1.1867481 10.74938 -0.94616276
-1.1865376 10.782023 -0.56847322
-1.1850892 10.803541 -0.18970767
-0.8651458 7.9898005 -2.1533747
-1.1687634 10.811353 0.18981238
-0.99662048 9.2340698 -2.1442335
-1.1689143 10.848232 0.5718227
-1.1826649 10.975846 -2.145838
-1.166525 10.843776 0.95418108
-1.1544769 10.74942 -1.7123318
-1.1618624 10.836047 1.3381255
-1.1527926 10.769138 -1.3298384
-1.1513329 10.773268 -0.94790584
-1.1508002 10.803972 -0.56941521
-1.1446233 10.781761 -0.1892539
-0.83786005 7.9985342 -2.1549275
-1.1308068 10.813379 0.18977746
-0.96417677 9.2355547 -2.1437836
-1.1293911 10.836354 0.57098538
-1.1443524 10.979907 -2.145838
-1.1278384 10.839855 0.95348382
-1.1169446 10.753385 -1.7123318
-1.1228094 10.828188 1.336663
-1.1139649 10.76125 -1.3283759
-1.1126932 10.767311 -0.94703424
-1.1102129 10.780109 -0.56794983
-1.1084175 10.799615 -0.18949823
-0.81110007 8.0129423 -2.1580334
-1.0926542 10.813281 0.18970767
-0.93134791 9.2330465 -2.1424339
-1.0901546 10.826321 0.57025266
-1.104442 10.968208 -2.1427851
-1.0911913 10.85562 0.9545297
-1.0794036 10.757218 -1.7123318
-1.0846066 10.828092 1.3361756
-1.0754039 10.755197 -1.3271573
-1.0764889 10.785007 -0.94825441
-1.073562 10.793858 -0.56847322
-1.0697241 10.793468 -0.18932371
-0.78162372 8.0003443 -2.1538923
-1.0545163 10.813047 0.18963784
-0.89948815 9.2401218 -2.1433337
-1.0521661 10.828071 0.57014793
-1.0657717 10.968089 -2.1420219
-1.0504086 10.829618 0.95191503
-1.0418445 10.760921 -1.7123318
-1.0454684 10.81798 1.3344694
-1.036528 10.745053 -1.3254511
-1.0371141 10.770851 -0.94668567
-1.0347409 10.785609 -0.56784517
-1.0312773 10.789175 -0.18918408
-0.75350934 8.0011005 -2.1533747
-1.0158267 10.806708 0.18946333
-0.86741251 9.2451448 -2.1437836
-1.0147324 10.835655 0.57035732
-1.0278426 10.975652 -2.1427851
-1.0129676 10.837185 0.95226365
-1.0035439 10.756624 -1.7110804
-1.0086178 10.831447 1.3356882
-1.0001138 10.760466 -1.3269135
-0.99988085 10.778373 -0.94703424
-0.99800205 10.7991 -0.56836855
-0.99177891 10.772796 -0.18883504
-0.72557354 8.0036831 -2.1533747
-0.97846073 10.814172 0.18953314
-0.83513761 9.2481165 -2.1437836
-0.97915572 10.842938 0.57056665
-0.98916876 10.975263 -2.1420219
-0.97495639 10.838671 0.95208931
-0.96475595 10.746289 -1.7088903
-0.96902829 10.81513 1.3332508
-0.96219528 10.759936 -1.326426
-0.95888835 10.744092 -0.94372231
-0.95800316 10.776655 -0.56700778
-0.95834392 10.80192 -0.18928881
-0.69796813 8.0100155 -2.1544099
-0.94137609 10.803412 0.18928881
-0.80361849 9.241128 -2.1415341
-0.94026184 10.834352 0.5699386
-0.95136237 10.984515 -2.1431668
-0.93728513 10.843993 0.95226365
-0.92843127 10.741558 -1.7076389
-0.9323079 10.808395 1.332032
-0.92531413 10.749225 -1.3247199
-0.92290753 10.765241 -0.94529116
-0.92140698 10.769822 -0.56648445
-0.91842771 10.779297 -0.18883504
-0.67075843 8.0045843 -2.1523392
-0.90382838 10.808625 0.18932371
-0.77168202 9.2477598 -2.1424339
-0.90111357 10.821645 0.56910127
-0.91477048 10.985654 -2.1427851
-0.90016735 10.833142 0.95104349
-0.89060634 10.740795 -1.7070131
-0.89408511 10.805649 1.3313009
-0.88762045 10.75041 -1.3244762
-0.88720059 10.768242 -0.94529116
-0.88429481 10.778947 -0.56679851
-0.88128597 10.788416 -0.18893975
-0.64250171 8.003026 -2.151304
-0.86609602 10.811714 0.18932371
-0.73939419 9.2503977 -2.1424339
-0.86221915 10.810789 0.56836855
-0.87579054 10.980951 -2.1412585
-0.86203331 10.832247 0.95069486
-0.85263664 10.737931 -1.7060745
-0.85604441 10.804746 1.3308133
-0.85009646 10.753443 -1.3244762
-0.84929597 10.767301 -0.94494259
-0.84651476 10.779974 -0.56669378
-0.84299576 10.783453 -0.18880014
-0.614268 8.0013676 -2.1502688
-0.82773703 10.806695 0.18918408
-0.70783967 9.2626371 -2.1446834
-0.82554227 10.827672 0.56910127
-0.83745682 10.983941 -2.1412585
-0.82209778 10.807376 0.94825441
-0.81395024 10.725084 -1.7035716
-0.81787628 10.80173 1.3300822
-0.81195378 10.748427 -1.3235012
-0.81065482 10.756292 -0.94372231
-0.80902714 10.784857 -0.56679851
-0.8056494 10.790318 -0.18886994
-0.58661443 8.0073166 -2.151304
-0.78913218 10.797553 0.18897465
-0.67494231 9.2572765 -2.1428835
-0.787449 10.826504 0.56889194
-0.79882288 10.982882 -2.1404953
-0.78580701 10.830052 0.9499976
-0.77594477 10.719979 -1.7023201
-0.77987742 10.800559 1.3295947
-0.77599579 10.772976 -1.3261824
-0.77396756 10.770979 -0.94476819
-0.77037603 10.77367 -0.56606579
-0.7662732 10.769129 -0.18845108
-0.55893451 8.0131702 -2.1523392
-0.75074518 10.790268 0.18880014
-0.64262182 9.2595768 -2.1428835
-0.74937391 10.825202 0.56868255
-0.76129121 10.997355 -2.1427851
-0.74745154 10.824779 0.94930029
-0.73892462 10.728535 -1.7032586
-0.74162459 10.795294 1.3286197
-0.7360816 10.741951 -1.3220388
-0.73500377 10.753738 -0.94302511
-0.7322244 10.768322 -0.56564707
-0.73015904 10.793684 -0.18883504
-0.53095776 8.0150719 -2.1523392
-0.71320444 10.794818 0.18883504
-0.61055416 9.2656527 -2.1437836
-0.71054196 10.811808 0.56784517
-0.72264874 10.996028 -2.1420219
-0.71044046 10.839251 0.95034617
-0.70147282 10.731049 -1.7032586
-0.70407403 10.799797 1.3288634
-0.69832021 10.740494 -1.3215513
-0.69810349 10.76618 -0.94389671
-0.69424295 10.764833 -0.56533301
-0.69120497 10.77621 -0.18848598
-0.50297463 8.0168772 -2.1523392
-0.67577636 10.801233 0.18890485
-0.57820481 9.2677279 -2.1437836
-0.67279452 10.814222 0.56784517
-0.68328285 10.982807 -2.1389689
-0.67186731 10.829732 0.94930029
-0.66388541 10.731461 -1.7029458
-0.66612405 10.798226 1.3283759
-0.66083205 10.742866 -1.3215513
-0.65966666 10.754631 -0.94267654
-0.6571511 10.775165 -0.56575173
-0.65333986 10.774567 -0.18841618
-0.47441795 8.0089417 -2.1497512
-0.63712281 10.787557 0.18862562
-0.54630661 9.2774706 -2.1455832
-0.6343416 10.804542 0.56721711
-0.64540404 10.992965 -2.1404953
-0.63347536 10.822067 0.94842881
-0.62572819 10.72188 -1.7010686
-0.62854475 10.802468 1.3286197
-0.62413037 10.75898 -1.3232574
-0.62257922 10.764824 -0.94337374
-0.619537 10.777392 -0.56575173
-0.61584198 10.778777 -0.18845108
-0.44677895 8.0163345 -2.151304
-0.59957141 10.791712 0.18866052
-0.51370972 9.2754297 -2.1446834
-0.59873205 10.810575 0.5674265
-0.60724103 10.999071 -2.1412585
-0.5959115 10.828191 0.94877744
-0.58840847 10.725971 -1.7013814
-0.59028846 10.794685 1.3274009
-0.58570349 10.745235 -1.3213075
-0.58446097 10.756984 -0.94250214
-0.5816949 10.775501 -0.5655424
-0.58030671 10.784754 -0.18852089
-0.41879568 8.0178452 -2.151304
-0.56357503 10.789646 0.18859071
-0.48254064 9.2692976 -2.1428835
-0.56047219 10.802627 0.56690317
-0.56863773 10.997203 -2.1404953
-0.55801016 10.828216 0.94860309
-0.55253381 10.721946 -1.7004429
-0.55428725 10.792619 1.3269135
-0.5502677 10.751083 -1.321795
-0.54741651 10.768908 -0.94337374
-0.5453496 10.765404 -0.56491435
-0.54215729 10.776729 -0.18834637
-0.39249003 8.0249796 -2.1528571
-0.52610052 10.795543 0.18866052
-0.45027393 9.2728729 -2.1433337
-0.52285933 10.806512 0.56700778
-0.53160471 10.987262 -2.1382058
-0.52190453 10.826025 0.94825441
-0.5154801 10.731701 -1.7016943
-0.516518 10.792505 1.3266698
-0.51141465 10.725179 -1.3183827
-0.5111323 10.758723 -0.94232786
-0.50814664 10.775221 -0.56533301
-0.50453335 10.778556 -0.18834637
-0.36421016 8.0205097 -2.151304
-0.48823538 10.793318 0.18859071
-0.41808015 9.2782812 -2.1442335
-0.48504201 10.806275 0.56690317
-0.49324587 10.98905 -2.1382058
-0.48393583 10.823801 0.94790584
-0.47819439 10.737383 -1.7023201
-0.479103 10.800192 1.3274009
-0.47450167 10.738797 -1.3198452
-0.47357649 10.760442 -0.94232786
-0.4696621 10.756976 -0.56428635
-0.46664876 10.774257 -0.18824165
-0.33588541 8.0140133 -2.1492336
-0.45064235 10.796954 0.18862562
-0.3857688 9.2816315 -2.1446834
-0.44673708 10.793934 0.56617045
-0.45463744 10.98482 -2.1370609
-0.44574279 10.815471 0.94703424
-0.44070816 10.738987 -1.7023201
-0.44115436 10.795849 1.3266698
-0.43733847 10.748322 -1.32082
-0.43560651 10.752075 -0.94145626
-0.43267366 10.772519 -0.56501901
-0.42879525 10.769827 -0.18813695
-0.30820754 8.0228577 -2.151304
-0.41248983 10.786472 0.18841618
-0.35322127 9.279027 -2.1437836
-0.40981495 10.815386 0.56721711
-0.4171105 11.007921 -2.1412585
-0.4080593 10.818952 0.94720864
-0.40299931 10.734536 -1.7013814
-0.40317288 10.789387 1.3256948
-0.39981428 10.749783 -1.32082
-0.39822182 10.757513 -0.94180495
-0.39462596 10.761989 -0.56439102
-0.39134631 10.775254 -0.18820675
-0.28019854 8.0238848 -2.151304
-0.37469891 10.78385 0.18834637
-0.32069653 9.2763071 -2.1428835
-0.37150759 10.800781 0.56637979
-0.37827531 10.997538 -2.1389689
-0.37008429 10.814337 0.94668567
-0.36546138 10.733904 -1.7010686
-0.36530396 10.784778 1.3249637
-0.36175042 10.735242 -1.3188702
-0.36067089 10.758838 -0.94180495
-0.35718673 10.767292 -0.56460035
-0.35379401 10.778553 -0.18824165
-0.25225446 8.0267448 -2.1518216
-0.33705109 10.785092 0.18834637
-0.28843284 9.2812662 -2.1437836
-0.33356425 10.794027 0.56596106
-0.33928558 10.979167 -2.1351528
-0.33209044 10.807596 0.94598836
-0.32786736 10.731166 -1.7004429
-0.32766327 10.785987 1.3249637
-0.32403776 10.728501 -1.3178952
-0.32299086 10.756047 -0.94145626
-0.31930572 10.758492 -0.56407702
-0.31581306 10.76773 -0.18803222
-0.22417825 8.0256453 -2.151304
-0.29951012 10.7902 0.18841618
-0.2561428 9.2861118 -2.1446834
-0.29748979 10.785091 0.56543773
-0.30095613 10.980285 -2.1351528
-0.29430577 10.806699 0.94581407
-0.29035544 10.73027 -1.70013
-0.29011497 10.791033 1.3254511
-0.28814101 10.71761 -1.3164327
-0.28533986 10.753126 -0.94110769
-0.28185135 10.763535 -0.56428635
-0.28000754 10.764719 -0.18796241
-0.19751328 8.0244131 -2.1507864
-0.26358247 10.785137 0.18831147
-0.22539668 9.2888594 -2.1451333
-0.26191944 10.794004 0.5658564
-0.26463404 10.985147 -2.135916
-0.25827947 10.799648 0.94511688
-0.25477311 10.731174 -1.70013
-0.25451311 10.799874 1.326426
-0.25325036 10.746291 -1.3198452
-0.24935804 10.740069 -0.93988752
-0.24593046 10.754426 -0.56376296
-0.24435642 10.767588 -0.18799733
-0.17098615 8.0288868 -2.1518216
-0.227771 10.783952 0.18827656
-0.19446747 9.2837105 -2.1437836
-0.22427836 10.79685 0.56596106
-0.22820674 10.985965 -2.135916
-0.22250317 10.802437 0.94529116
-0.21898121 10.722085 -1.6985657
-0.21857964 10.794704 1.3256948
-0.21565473 10.743141 -1.3193576
-0.21393657 10.750798 -0.94075906
-0.21026316 10.755182 -0.56376296
-0.20672777 10.766376 -0.18796241
-0.14299515 8.0313663 -2.1523392
-0.18988727 10.770686 0.18803222
-0.16185354 9.2726421 -2.1410842
-0.18641868 10.787583 0.56543773
-0.18999518 10.994546 -2.1374426
-0.18486986 10.807132 0.94563979
-0.18165025 10.728709 -1.6995043
-0.1807286 10.785478 1.3244762
-0.1780286 10.735888 -1.3183827
