# .PCD v0.7 - Point Cloud Data file format
VERSION 0.7
FIELDS x y z
SIZE 4 4 4
TYPE F F F
COUNT 1 1 1
WIDTH 1438
HEIGHT 1
VIEWPOINT 0 0 0 1 0 0 0
POINTS 1438
DATA ascii
-9.6660891 -12.794781 -1.9689212
-13.92753 -18.428864 -2.0209675
-25.833725 -34.15831 -2.2444801
-4.451231 -5.8642821 -1.9727188
-5.1876702 -6.8295536 -1.9800191
-6.1338005 -8.0722065 -1.9706753
-7.5567222 -9.9375925 -1.9773319
-9.7659912 -12.833629 -1.9801333
-14.310372 -18.798658 -2.0669856
-26.010897 -34.144184 -2.2495043
-4.4916215 -5.8747988 -1.9815186
-4.9900413 -6.5219851 -1.8958875
-6.1798415 -8.0741301 -1.9763998
-7.5997705 -9.9221334 -1.9795219
-9.7938204 -12.777407 -1.9767209
-13.655773 -17.809425 -1.9634446
-4.5073862 -5.8529611 -1.9794481
-5.211432 -6.7622995 -1.9710211
-6.1840119 -8.0214138 -1.9687674
-7.6669378 -9.9377728 -1.9879694
-9.8492794 -12.757282 -1.9789146
-14.502157 -18.777138 -2.0757012
-25.452297 -32.931423 -2.1812582
-4.5159492 -5.8219275 -1.9742718
-5.1991577 -6.6978855 -1.9575242
-6.1842809 -7.9641137 -1.95999
-7.5973411 -9.7768068 -1.9610627
-9.8937511 -12.722823 -1.9789146
-14.330279 -18.421322 -2.0418847
-26.283587 -33.762768 -2.2423866
-4.5410018 -5.8122177 -1.9763422
-5.2441115 -6.7073307 -1.9656224
-6.2604232 -8.0043344 -1.9752548
-7.6411662 -9.7626705 -1.9635657
-9.8879166 -12.624136 -1.9689212
-14.546874 -18.565653 -2.0634992
-26.125233 -33.318752 -2.21894
-4.5994921 -5.8449121 -1.9929067
-5.2855778 -6.7119493 -1.9723709
-6.3211279 -8.0240726 -1.9855584
-7.6874242 -9.7514515 -1.9666944
-9.9887295 -12.666096 -1.9806207
-14.330169 -18.158171 -2.0237563
-26.332987 -33.343334 -2.2266858
-4.6224489 -5.8341699 -1.9944596
-5.3138599 -6.7020192 -1.9746205
-6.2976823 -7.940002 -1.9699122
-7.6730528 -9.6671114 -1.9548053
-10.086224 -12.70286 -1.991589
-14.654314 -18.442812 -2.0608847
-26.271864 -33.040096 -2.2122409
-4.6682739 -5.8520336 -2.0058477
-5.343348 -6.6934991 -1.9773197
-6.3876829 -7.9988475 -1.9897563
-7.7654929 -9.7172298 -1.9701359
-10.085867 -12.611765 -1.9828143
-14.646936 -18.308544 -2.0512974
-26.256466 -32.796883 -2.2017739
-4.6850419 -5.8311853 -2.0042949
-5.4411697 -6.7674484 -2.0047638
-6.3921847 -7.9474363 -1.9825056
-7.7857428 -9.6731339 -1.9666944
-10.046401 -12.472902 -1.966484
-14.672004 -18.209211 -2.0458939
-4.6920009 -5.7982764 -1.9986008
-5.4561729 -6.7378139 -2.0016146
-6.4174166 -7.9220238 -1.9817424
-7.8319011 -9.6612434 -1.9698231
-14.808295 -18.247614 -2.056004
-25.71549 -31.66548 -2.1378195
-4.7000074 -5.7668877 -1.9934243
-5.4168444 -6.6417084 -1.9786695
-6.5132909 -7.9832401 -2.0027313
-7.7831221 -9.5328569 -1.9491737
-14.815158 -18.126396 -2.0481601
-4.7740378 -5.8161497 -2.0162005
-5.4177308 -6.5956545 -1.9705712
-6.5249171 -7.9407349 -1.9977702
-7.8979006 -9.6048059 -1.9695101
-10.18151 -12.373145 -1.9674588
-14.927093 -18.127338 -2.054435
-26.17466 -31.775003 -2.1574976
-4.8002491 -5.8045673 -2.018271
-5.4916482 -6.6382661 -1.9890171
-6.4963861 -7.8472037 -1.9802158
-7.8523979 -9.4784393 -1.9494866
-10.115705 -12.206085 -1.9464973
-14.980101 -18.062857 -2.0530407
-26.671059 -32.136848 -2.1886899
-4.7957535 -5.7580881 -2.0079181
-5.5371542 -6.6435409 -1.9966656
-6.5023661 -7.7988453 -1.9737284
-7.9398532 -9.5161924 -1.9629399
-10.290146 -12.324352 -1.9713587
-15.030288 -17.995165 -2.0512974
-26.032475 -31.145542 -2.1273522
-4.8307223 -5.7590737 -2.0141299
-5.5853686 -6.6540241 -2.0056636
-6.6002479 -7.8602958 -1.9950989
-8.0047932 -9.526227 -1.9707617
-10.454473 -12.432693 -1.9945139
-15.048124 -17.889227 -2.0451968
-4.8320971 -5.7200389 -2.0063653
-5.5796242 -6.6002593 -1.9953159
-6.5934172 -7.7967329 -1.9847952
-8.0750017 -9.5419579 -1.9798348
-10.472558 -12.370685 -1.9901265
-15.098886 -17.822908 -2.043628
-25.926392 -30.58217 -2.1011841
-4.8310127 -5.6804385 -1.9980831
-5.6343198 -6.6203051 -2.0070133
-6.5899644 -7.7404432 -1.9760182
-8.0976315 -9.5046024 -1.9776447
-10.480044 -12.296606 -1.9837892
-15.181174 -17.800028 -2.0467653
-26.027662 -30.496029 -2.1011841
-4.7970533 -5.6027536 -1.9763422
-5.6435628 -6.5867853 -2.0025144
-6.6079988 -7.7069602 -1.9733468
-7.5812511 -8.838953 -1.8443626
-10.509975 -12.244886 -1.981352
-14.669426 -17.078882 -1.9697196
-26.784889 -31.162317 -2.1535201
-4.8856936 -5.6641273 -2.0042949
-5.6638489 -6.5616302 -2.0011647
-6.6362004 -7.6826901 -1.9733468
-8.1599169 -9.4433527 -1.9767061
-10.571662 -12.225806 -1.9845206
-14.619802 -16.895435 -1.954729
-26.637449 -30.761955 -2.1325858
-4.9076881 -5.6476407 -2.0048125
-5.6584477 -6.5070062 -1.9908168
-6.6423626 -7.635777 -1.9672408
-8.1633444 -9.3776245 -1.9691973
-10.576469 -12.145411 -1.977452
-14.662982 -16.826273 -1.9526372
-26.61339 -30.518261 -2.1221185
-4.9047661 -5.6066165 -1.9960126
-5.6350684 -6.4368873 -1.9750704
-6.6534176 -7.5974622 -1.963043
-8.1475267 -9.29702 -1.957934
-10.535552 -12.017728 -1.9623404
-15.509689 -17.67919 -2.0575728
-26.701275 -30.414835 -2.1210721
-4.9322691 -5.6004696 -1.9996361
-5.657671 -6.4196267 -1.9755201
-6.669487 -7.5650487 -1.9603716
-8.2057562 -9.3010569 -1.9645042
-10.651533 -12.069049 -1.9764771
-15.491734 -17.541042 -2.0474627
-26.505714 -29.990892 -2.0976253
-4.9251819 -5.555172 -1.9892832
-5.6866889 -6.4095764 -1.9782196
-6.7505751 -7.606029 -1.9767814
-8.2444258 -9.2826567 -1.9663814
-15.716621 -17.677185 -2.0694258
-26.554573 -29.846127 -2.0936477
-4.934567 -5.5209537 -1.9841069
-5.6837902 -6.3547411 -1.9683217
-6.7666516 -7.5627766 -1.9725834
-8.264492 -9.2303553 -1.9623141
-10.576811 -11.808769 -1.9464973
-15.473622 -17.263811 -2.0282884
-26.855536 -29.941498 -2.1078832
-28.235666 -31.469168 -0.73799247
-4.9450951 -5.4959431 -1.981001
-5.6891856 -6.31848 -1.9629229
-6.7851238 -7.5330019 -1.9706753
-8.3413458 -9.2542524 -1.9732646
-10.666427 -11.829652 -1.9557593
-15.704299 -17.404703 -2.0509489
-26.601315 -29.460926 -2.0802498
-4.9827471 -5.5009913 -1.9887657
-27.801004 -30.681759 0.72270417
-5.7101073 -6.2995787 -1.9629229
-6.8707299 -7.5773611 -1.9882298
-8.3016357 -9.1490068 -1.9566824
-10.783718 -11.876116 -1.9696525
-15.59345 -17.161037 -2.0286369
-5.022408 -5.504097 -1.9965302
-27.746185 -30.407267 0.71851557
-5.6663713 -6.2076454 -1.9404278
-6.7845869 -7.4274659 -1.9554106
-8.3857546 -9.1739254 -1.9685715
-10.904145 -11.924832 -1.9840331
-15.392325 -16.821342 -1.9948206
-27.032944 -29.521961 -2.0978348
-5.0180626 -5.4609275 -1.9872128
-27.651751 -30.081594 0.71321005
-5.6481943 -6.1423664 -1.9264808
-6.9473715 -7.5525656 -1.9947174
-8.3989983 -9.1242504 -1.9641914
-10.96257 -11.900848 -1.9867141
-15.785788 -17.130871 -2.0380499
-27.081665 -29.368694 -2.0936477
-5.0318456 -5.4377055 -1.9851422
-27.572075 -29.79599 0.70860261
-5.7929707 -6.2580309 -1.9687717
-6.9576831 -7.5109859 -1.9901379
-8.4386072 -9.1064911 -1.9663814
-10.97768 -11.83823 -1.9823269
-15.764176 -16.988037 -2.0275912
-26.189693 -28.213083 -2.0174465
-5.0432668 -5.4139214 -1.982554
-27.444159 -29.450861 0.70266879
-5.8174362 -6.240623 -1.9696715
-6.9156055 -7.4160795 -1.9710571
-8.4905615 -9.0986395 -1.9710745
-11.02842 -11.809994 -1.9840331
-15.817934 -16.927086 -2.0268939
-26.459871 -28.305332 -2.0306354
-5.097445 -5.4320288 -1.9960126
-27.412685 -29.211987 0.69924814
-5.8218474 -6.2018065 -1.9638227
-6.9534926 -7.4021316 -1.97411
-8.5076151 -9.050189 -1.96732
-15.866002 -16.860161 -2.0254996
-26.949568 -28.618196 -2.0601528
-5.1654692 -5.4661536 -2.0151651
-27.327259 -28.907871 0.69436145
-5.8887229 -6.2271528 -1.9786695
-6.8902445 -7.2836823 -1.9489232
-8.4359455 -8.9114122 -1.943542
-10.866914 -11.471372 -1.9401602
-15.96039 -16.842278 -2.0300317
-26.079033 -27.500788 -1.9862545
-5.1685386 -5.4312949 -2.0089536
-27.232206 -28.60664 0.68940496
-5.8956413 -6.1910353 -1.9737206
-27.147015 -28.497211 2.062665
-6.8059416 -7.1444449 -1.918012
-8.3961229 -8.8075628 -1.9272728
-11.08091 -11.615788 -1.971115
-14.885672 -15.598753 -1.8863989
-26.980419 -28.253138 -2.0473828
-5.1754351 -5.4006681 -2.0042949
-27.138161 -28.309311 0.68451828
-5.9145203 -6.1676035 -1.9728208
-27.061653 -28.219625 2.0490575
-7.08635 -7.3869953 -1.9897563
-47.859699 -49.872795 6.0473881
-8.5198412 -8.8751011 -1.9485478
-11.15439 -11.611395 -1.9769646
-16.030645 -16.681597 -2.0241048
-26.860134 -27.931332 -2.0308447
-5.1607184 -5.347816 -1.9913538
-27.068035 -28.049366 0.68039948
-5.9389997 -6.152164 -1.9741703
-26.960207 -27.918106 2.0339849
-7.0998149 -7.3495083 -1.9863218
-8.4325466 -8.7260571 -1.921954
-11.188694 -11.570061 -1.9762335
-15.982092 -16.515293 -2.0106831
-27.097084 -27.991344 -2.0417304
-5.2013078 -5.3542295 -2.0001535
-26.96789 -27.751068 0.67544305
-5.9957566 -6.1677237 -1.9858679
-26.905071 -27.676746 2.0228896
-7.0502367 -7.2499189 -1.9657143
-8.6172523 -8.8551254 -1.9569954
-11.112679 -11.411471 -1.9557593
-16.046503 -16.472193 -2.0119033
-27.152813 -27.853678 -2.0385904
-4.64042 -4.7436075 -1.7780869
-26.908745 -27.507105 0.6716733
-6.0502486 -6.1826296 -1.9971154
-26.811495 -27.388563 2.0086541
-7.1029739 -7.2533193 -1.9733468
-8.5221596 -8.699502 -1.9288372
-11.179643 -11.404326 -1.9608778
-16.105293 -16.417505 -2.0120773
-26.892498 -27.404257 -2.012213
-5.1807017 -5.2608891 -1.9784129
-26.830576 -27.236364 0.66734517
-6.0417027 -6.1309347 -1.9872177
-26.724663 -27.109903 1.9950469
-7.1325006 -7.2353172 -1.9748732
-8.6412554 -8.7597036 -1.9488608
-11.118975 -11.263517 -1.9433287
-16.086851 -16.290289 -2.0030131
-27.280005 -27.605701 -2.0339849
-5.2779312 -5.3223333 -2.0084357
-26.767761 -26.983532 0.66343576
-6.0369864 -6.0835257 -1.9786695
-26.639023 -26.835018 1.9816489
-7.1922917 -7.2452087 -1.9844136
-8.7010174 -8.7589169 -1.9554311
-11.281381 -11.348527 -1.9647778
-16.278488 -16.369661 -2.0197473
-27.238132 -27.371574 -2.0237269
-5.2637143 -5.2710714 -1.9960126
-26.62719 -26.655088 0.65764159
-6.0375228 -6.041739 -1.971921
-26.582851 -26.592142 1.9705535
-7.2369685 -7.2394981 -1.9897563
-8.7427149 -8.7396631 -1.957934
-11.34199 -11.330119 -1.9684337
-15.664457 -15.642603 -1.9367748
-27.209099 -27.152176 -2.0145159
-5.332767 -5.3030658 -2.0151651
-26.589598 -26.432274 0.65443033
-6.1304536 -6.0920572 -1.9953159
-26.496984 -26.321825 1.9573649
-7.2343411 -7.1865182 -1.982124
-8.7241001 -8.6603861 -1.9469837
-11.432206 -11.340789 -1.9772084
-16.229675 -16.094284 -1.9997013
-27.116447 -26.87146 -2.000699
-5.3333764 -5.2667718 -2.0084357
-26.522308 -26.181963 0.65052098
-6.1447463 -6.0637765 -1.9930664
-26.452202 -26.094519 1.9473164
-7.3236742 -7.2246447 -1.9996784
-8.6698732 -8.5466709 -1.9282113
-11.388286 -11.218624 -1.9628278
-16.646343 -16.392616 -2.0439765
-27.04637 -26.615545 -1.9886618
-5.3062096 -5.2034879 -1.9913538
-26.467886 -25.946438 0.64696074
-6.1853633 -6.0613847 -1.999365
-26.349089 -25.811953 1.933081
-7.2506752 -7.1028676 -1.972965
-8.8492832 -8.6628323 -1.9613756
-11.489813 -11.239881 -1.9735522
-15.541086 -15.197715 -1.9017383
-26.953419 -26.3395 -1.9750546
-5.358942 -5.2186284 -2.0042949
-26.412148 -25.711603 0.64340043
-6.1883259 -6.0220895 -1.9935162
-26.284416 -25.56941 1.9217765
-7.2852755 -7.0870967 -1.9756364
-8.8341417 -8.5878305 -1.9513638
-11.197222 -10.877419 -1.9167612
-16.557356 -16.07324 -2.0188756
-26.91333 -26.117287 -1.9654247
-5.3544216 -5.176126 -1.995495
-26.311953 -25.435797 0.63879299
-6.1938949 -5.9855552 -1.9885672
-26.212626 -25.322086 1.9100533
-7.4679613 -7.2117281 -2.0179961
-8.8030167 -8.4950361 -1.9375975
-11.486567 -11.080834 -1.9596591
-16.171564 -15.589446 -1.9651875
-26.531322 -25.558439 -1.9306737
-5.3390093 -5.1252952 -1.9830716
-26.182808 -25.125961 0.63341767
-6.2256351 -5.9722562 -1.9917165
-26.132273 -25.059952 1.8974925
-7.4760852 -7.1693091 -2.0134165
-8.8796806 -8.5093603 -1.9479222
-16.090403 -15.397832 -1.9484538
-26.464512 -25.316557 -1.9193691
-5.4136987 -5.1590028 -2.0037773
-26.154535 -24.924055 0.63062525
-6.2591443 -5.9625864 -1.9957658
-26.077848 -24.833601 1.8872348
-7.4994683 -7.1391525 -2.0126534
-8.91224 -8.4781189 -1.948235
-11.513783 -10.949106 -1.9508847
-16.222044 -15.415687 -1.9578665
-26.394911 -25.065357 -1.9076457
-5.3513298 -5.0675821 -1.9747895
-26.115061 -24.72171 0.6276933
-6.2534046 -5.9176865 -1.9876676
-26.003357 -24.598751 1.8759302
-7.5075989 -7.1020656 -2.0088372
-9.0177832 -8.5247135 -1.9654428
-11.685669 -11.03901 -1.9737961
-16.904871 -15.963802 -2.034215
-26.461914 -24.97134 -1.9068084
-5.38728 -5.0660768 -1.9815186
-26.049675 -24.487949 0.62406319
-6.2527213 -5.8758044 -1.980919
-25.958048 -24.384768 1.8665097
-8.9567518 -8.4080076 -1.9457321
-17.079666 -16.016451 -2.0485086
-26.540167 -24.870628 -1.9061804
-5.4458776 -5.0854774 -1.9965302
-25.971275 -24.244038 0.62015378
-6.3259082 -5.9031367 -1.9975653
-25.889824 -24.159561 1.8558333
-9.1001949 -8.4831038 -1.9704487
-11.775526 -10.969333 -1.9759897
-16.10314 -14.995423 -1.925096
-26.483532 -24.644495 -1.8959225
-5.4635978 -5.0664353 -1.9965302
-25.855051 -23.975582 0.61547661
-6.3497367 -5.8861008 -1.9989151
-25.833363 -23.938719 1.8457847
-9.0804462 -8.4085884 -1.9601241
-11.756471 -10.878989 -1.9667276
-16.48452 -15.243476 -1.9643161
-26.380318 -24.385714 -1.8827339
-5.4348993 -5.0064073 -1.9799658
-25.832664 -23.787661 0.61296344
-6.3544736 -5.8493824 -1.9939661
-25.758041 -23.702337 1.8344802
-7.6524796 -7.0417485 -2.0214307
-9.1708126 -8.4329967 -1.9732646
-11.750524 -10.797591 -1.9594156
-17.297974 -15.889601 -2.0549581
-26.34757 -24.185429 -1.8743602
-5.5578251 -5.0838938 -2.018271
-25.741402 -23.538109 0.60884464
-6.3604693 -5.8140173 -1.9894673
-25.690231 -23.474859 1.8238037
-7.6726651 -7.0110202 -2.0202856
-9.1929007 -8.3942728 -1.9717003
-12.016893 -10.965245 -1.9974388
-17.316534 -15.795554 -2.0506003
-26.284222 -23.958771 -1.8638929
-5.5097575 -5.0047121 -1.9944596
-25.704977 -23.34057 0.60605228
-6.2292171 -5.654253 -1.9422275
-25.615229 -23.242773 1.8127084
-7.6432962 -6.9353819 -2.006166
-9.1870279 -8.3302841 -1.9641914
-11.807964 -10.699303 -1.9564906
-17.008308 -15.40597 -2.0077198
-26.207773 -23.722124 -1.8525884
-5.5487118 -5.0048575 -2.0022242
-25.640743 -23.119474 0.60263163
-6.3082623 -5.6859694 -1.9606735
-25.559702 -23.030222 1.8030787
-7.6703753 -6.9112878 -2.0069292
-9.0090599 -8.1117945 -1.9200768
-11.910172 -10.716438 -1.9672151
-17.580446 -15.812846 -2.0687287
-26.144855 -23.499645 -1.8423306
-5.4870009 -4.9145699 -1.9737542
-25.524643 -22.85375 0.59802419
-6.3701816 -5.7016039 -1.9737206
-25.507944 -22.830778 1.7940768
-7.6915264 -6.8818541 -2.006166
-9.2964983 -8.3120289 -1.9751418
-11.932703 -10.661575 -1.9647778
-16.969818 -15.15679 -1.9906371
-26.077713 -23.275253 -1.8318634
-5.5402107 -4.9274836 -1.9866952
-25.498676 -22.678616 0.59565061
-6.4342012 -5.7205887 -1.9876676
-25.444164 -22.614231 1.7840283
-9.2944727 -8.25492 -1.9688843
-11.963538 -10.617992 -1.9640466
-17.04051 -15.113325 -1.9927288
-26.020252 -23.069399 -1.8224429
-5.6303563 -4.9743166 -2.0130947
-25.487761 -22.51004 0.59355634
-6.4409833 -5.6864867 -1.9836185
-25.382187 -22.401047 1.7741891
-9.3010082 -8.2028265 -1.9641914
-12.007976 -10.582729 -1.9652653
-17.234053 -15.183172 -2.0094628
-25.662886 -22.593056 -1.7918787
-5.5939536 -4.9074945 -1.993942
-25.349684 -22.231071 0.58853
-6.4563961 -5.6601157 -1.9822687
-25.322042 -22.191198 1.7645594
-7.7546024 -6.7958155 -2.0042579
-9.3979425 -8.2301769 -1.9785833
-12.0553 -10.5499 -1.9669714
-16.801086 -14.697888 -1.9529859
-25.615288 -22.39292 -1.7830863
-5.6387277 -4.9120464 -2.0037773
-25.32156 -22.050528 0.58608669
-6.4525971 -5.6170716 -1.9750704
-25.251694 -21.974182 1.7543013
-7.730885 -6.7274642 -1.992046
-9.1583042 -7.9640017 -1.9222668
-12.114526 -10.527288 -1.9706273
-17.667532 -15.347324 -2.0474627
-25.545479 -22.175062 -1.7728283
-5.6193113 -4.8607383 -1.9908361
-25.298548 -21.875679 0.58378297
-6.5267148 -5.6416636 -1.9917165
-25.204321 -21.77883 1.7457184
-7.801856 -6.7415147 -2.0042579
-9.4162998 -8.1307983 -1.9704487
-12.11062 -10.449923 -1.9640466
-17.084332 -14.736394 -1.9739032
-25.595499 -22.062286 -1.7709442
-5.5732288 -4.7869682 -1.9685777
-25.210899 -21.646545 0.58001328
-6.5197511 -5.5960031 -1.9836185
-25.124849 -21.565046 1.7352512
-7.8119311 -6.702734 -2.0008233
-9.473115 -8.1223116 -1.9763933
-12.181698 -10.437286 -1.9696525
-17.069082 -14.619644 -1.9662335
-25.687534 -21.985788 -1.771991
-5.6575189 -4.8251505 -1.9923891
-25.16691 -21.464203 0.57736051
-6.5694137 -5.6009016 -1.9930664
-25.087486 -21.381344 1.7275054
-7.8681579 -6.7034345 -2.0092189
-9.4232998 -8.0255308 -1.9604369
-12.25101 -10.426428 -1.9752585
-17.168579 -14.601277 -1.9718114
-25.605087 -21.768536 -1.7613145
-5.6690664 -4.8026166 -1.9908361
-25.128754 -21.2806 0.57477754
-6.6186709 -5.6031184 -2.0020645
-25.128428 -21.265255 1.7252026
-7.8259025 -6.6227708 -1.9928092
-9.5598574 -8.0844288 -1.9829636
-12.284298 -10.381038 -1.974771
-18.088634 -15.275263 -2.0713434
-25.485567 -21.514114 -1.7479165
-5.6762805 -4.7731032 -1.9872128
-6.6680241 -5.6050596 -2.0110624
-7.8350911 -6.5814157 -1.9889932
-9.4366093 -7.9210668 -1.9513638
-12.325023 -10.341923 -1.9755023
-25.316248 -21.212755 -1.7309595
-5.6721468 -4.7359262 -1.9799658
-6.6421371 -5.5418797 -1.9971154
-24.899574 -20.767639 1.699244
-7.8173099 -6.5200744 -1.9786894
-9.6053238 -8.0056944 -1.9804606
-12.286574 -10.233161 -1.9633152
-17.259293 -14.369698 -1.964839
-25.301081 -21.050171 -1.7248886
-5.7377214 -4.7567863 -1.9970479
-24.895065 -20.631615 0.56437594
-6.6389322 -5.5000129 -1.9903669
-24.851925 -20.581234 1.6910795
-7.9367914 -6.5728898 -2.0031128
-9.4764624 -7.8423963 -1.948235
-12.303866 -10.175026 -1.9603903
-17.014513 -14.065627 -1.9313713
-5.6081214 -4.6164079 -1.9463193
-24.815613 -20.420063 0.56095529
-6.6641088 -5.4817581 -1.9921664
-24.781218 -20.384518 1.681659
-8.0264091 -6.6000099 -2.0199041
-9.4686756 -7.7804275 -1.9410391
-12.584776 -10.333571 -1.9993886
-18.292444 -15.014898 -2.0704718
-5.7214289 -4.6762695 -1.9799658
-24.790291 -20.261736 0.55886102
-6.7229962 -5.492919 -2.0043139
-24.753223 -20.217033 1.6749601
-8.034194 -6.5595345 -2.016088
-9.6168537 -7.8489075 -1.9660686
-12.591285 -10.269199 -1.9950013
-18.33548 -14.943402 -2.0694258
-5.7624016 -4.6779695 -1.9887657
-24.736645 -20.07427 0.5560686
-6.7133751 -5.4460917 -1.9957658
-24.70225 -20.039207 1.6670051
-7.9766068 -6.4685555 -1.9962438
-9.5582476 -7.7456441 -1.9485478
-12.71807 -10.298894 -2.009382
-18.643549 -15.091866 -2.098536
-5.7711744 -4.6517658 -1.9861774
-24.687862 -19.899271 0.55348563
-6.7162232 -5.411572 -1.9912667
-24.656948 -19.860149 1.6592593
-7.9532623 -6.4037347 -1.9847952
-9.6531296 -7.7696414 -1.9626271
-12.591283 -10.127271 -1.9840331
-18.461618 -14.838222 -2.0722148
-5.7791352 -4.6233397 -1.9830716
-24.639153 -19.704414 0.55069321
-6.7399969 -5.3881774 -1.9921664
-24.579811 -19.649916 1.6492108
-7.9506068 -6.3537049 -1.9783077
-9.7106752 -7.7547069 -1.9682587
-12.420611 -9.9116917 -1.9511282
-17.755808 -14.164132 -1.9871509
-5.8557463 -4.6512017 -2.0037773
-24.604145 -19.542999 0.54845929
-6.6876254 -5.3100548 -1.9714712
-24.535618 -19.474596 1.6416745
-7.9619703 -6.3173733 -1.9756364
-9.7270527 -7.715097 -1.9663814
-56.728668 -44.978714 8.8891506
-12.62609 -10.007321 -1.9781833
-17.361574 -13.750751 -1.9376464
-5.8681049 -4.629365 -2.0027418
-24.55916 -19.36784 0.54594618
-6.7703958 -5.3373489 -1.9903669
-24.487358 -19.297356 1.6339287
-7.9751663 -6.2848606 -1.9737284
-9.6747751 -7.6187673 -1.9504251
-12.598547 -9.9140787 -1.9684337
-18.835224 -14.816538 -2.0966187
-5.8507695 -4.5826459 -1.9913538
-24.503813 -19.185829 0.54322362
-6.818141 -5.3365059 -1.9989151
-24.453899 -19.132994 1.6272297
-7.9939637 -6.2545633 -1.972965
-9.5067844 -7.4328623 -1.9113165
-12.653415 -9.8859301 -1.9716024
-17.633778 -13.772061 -1.957518
-24.673054 -19.242054 -0.54615557
-5.9216309 -4.6048875 -2.0099888
-24.444328 -19.002003 0.5404312
-6.1227407 -4.7578492 -1.7901604
-24.388048 -18.944592 1.6184373
-8.0172997 -6.2278233 -1.9733468
-9.8275948 -7.6285625 -1.9704487
-12.68471 -9.8392677 -1.971115
-18.931902 -14.679803 -2.0959213
-24.661016 -19.094597 -0.54441041
-5.8887362 -4.5464101 -1.9934243
-24.402861 -18.833479 0.53805768
-24.336994 -18.769085 1.6106915
-8.1447048 -6.2813287 -1.9992968
-9.8353872 -7.5797405 -1.9666944
-56.250359 -43.33424 8.7185335
-12.772449 -9.836113 -1.9794021
-19.014608 -14.637931 -2.0994074
-24.546783 -18.869465 -0.5404312
-5.8463073 -4.4811683 -1.9737542
-24.366867 -18.670343 0.53582376
-6.8411636 -5.2399287 -1.9894673
-24.288111 -18.603266 1.6033645
-8.0060234 -6.1299291 -1.95999
-9.6625433 -7.3929167 -1.92696
-56.558952 -43.258236 8.7429075
-12.719851 -9.7285805 -1.9662402
-19.090916 -14.590825 -2.1021965
-24.485245 -18.693308 -0.53770864
-5.9164724 -4.5038815 -1.9923891
-24.317253 -18.504669 0.53338045
-6.9189887 -5.2632303 -2.0070133
-24.235209 -18.435566 1.5958281
-8.0606871 -6.1294899 -1.9683858
-9.7719393 -7.4253702 -1.9438549
-12.7062 -9.6515245 -1.9591717
-19.129675 -14.520209 -2.1011508
-24.454681 -18.541935 -0.53568417
-5.9483261 -4.4970522 -1.9980831
-24.260427 -18.334707 0.53079748
-6.8788733 -5.1967936 -1.9903669
-24.187849 -18.266596 1.5885011
-8.0151682 -6.0530324 -1.9523578
-9.7728548 -7.3750811 -1.9391619
-12.69702 -9.5748425 -1.9525908
-19.199335 -14.467739 -2.1032424
-24.359486 -18.336203 -0.53219366
-5.9199553 -4.4415994 -1.9830716
-24.205908 -18.161108 0.52821451
-6.9110022 -5.1832728 -1.994416
-24.158781 -18.112564 1.5824301
-8.1127081 -6.0801306 -1.9706753
-9.7191839 -7.2788186 -1.9232055
-12.859081 -9.6268244 -1.9723336
-17.915991 -13.402875 -1.957518
-24.362473 -18.205574 -0.53086728
-5.9447193 -4.4278316 -1.9861774
-24.166454 -17.993443 0.52591079
-6.8846202 -5.1241646 -1.9813689
-24.109627 -17.938061 1.5748937
-8.0913534 -6.020134 -1.9603716
-9.945859 -7.3945293 -1.9629399
-12.999449 -9.6577635 -1.9884202
-18.065037 -13.416282 -1.9686739
-5.9088802 -4.3691492 -1.9690953
-24.129416 -17.835279 0.52374673
-6.8711176 -5.076942 -1.9723709
-24.033937 -17.751741 1.565892
-7.9686127 -5.8857083 -1.9256444
-9.903266 -7.3093281 -1.9494866
-12.97397 -9.5687313 -1.9794021
-19.131685 -14.105101 -2.079536
-5.9381118 -4.3587852 -1.9737542
-24.081888 -17.670506 0.52137315
-6.9500799 -5.0978765 -1.989917
-24.005558 -17.601599 1.5600303
-8.0476904 -5.9008093 -1.9397644
-10.054605 -7.3669448 -1.9742032
-18.450876 -13.503998 -2.0003986
-6.0188646 -4.3858151 -1.995495
-24.027048 -17.501566 0.51886004
-6.4652925 -4.7076612 -1.8463982
-23.969963 -17.447182 1.55375
-8.1983967 -5.9674234 -1.9710571
-9.982811 -7.2609239 -1.9551181
-12.375667 -8.994751 -1.8784941
-18.517244 -13.453563 -2.0024903
-5.9950056 -4.3364725 -1.982554
-23.964838 -17.328535 0.51620728
-6.8133507 -4.9247985 -1.9408777
-23.907684 -17.274504 1.545795
-8.2000818 -5.9249711 -1.9664776
-10.121804 -7.3081365 -1.9773319
-13.19098 -9.5171328 -1.9971949
-18.147175 -13.088158 -1.957518
-6.0477672 -4.3425617 -1.9949772
-23.927711 -17.174814 0.51411301
-6.9080834 -4.9566526 -1.9629229
-23.876953 -17.125757 1.5399333
-8.3435535 -5.9844179 -1.9958621
-10.115141 -7.2497449 -1.9710745
-13.053048 -9.3485126 -1.9713587
-18.406591 -13.177828 -1.980527
-6.0109754 -4.2844219 -1.9778951
-23.88003 -17.014603 0.51180929
-7.001533 -4.9867735 -1.9845182
-23.82299 -16.967693 1.5328157
-8.2828274 -5.8971848 -1.9763998
-10.150043 -7.2212629 -1.9729517
-13.158406 -9.3546515 -1.9823269
-19.472383 -13.838305 -2.0899947
-6.1315565 -4.3381715 -2.0125771
-23.825314 -16.856779 0.50943571
-7.0323505 -4.9736557 -1.9885672
-23.774435 -16.80834 1.5259073
-8.197546 -5.7934532 -1.951213
-10.165867 -7.1818647 -1.9713873
-0.82048345 -0.57943106 0.12333179
-13.001236 -9.1781626 -1.9540532
-18.426508 -12.998472 -1.9728574
-6.0083847 -4.2211967 -1.9675424
-23.772734 -16.69536 0.5070622
-7.0847573 -4.9737134 -1.9984653
-23.722155 -16.653667 1.518999
-8.2552805 -5.7933025 -1.9603716
-10.169848 -7.1315937 -1.96732
-0.79974407 -0.56061107 0.11991944
-13.216899 -9.2614498 -1.9815956
-18.378122 -12.873287 -1.9630958
-6.0753746 -4.2366629 -1.9846245
-23.700027 -16.527216 0.50433964
-6.9509387 -4.845437 -1.9561743
-23.694933 -16.511383 1.513556
-8.2722321 -5.7622066 -1.9596084
-10.089692 -7.0255876 -1.9472965
-0.76249641 -0.53073859 0.11406972
-13.029192 -9.0656443 -1.9489347
-18.442577 -12.822701 -1.9651875
-6.0449195 -4.1856999 -1.9701307
-23.658916 -16.376106 0.50224537
-7.1408839 -4.940897 -2.0047638
-23.630873 -16.34449 1.5058103
-8.3478079 -5.7738309 -1.972965
-10.206781 -7.0543427 -1.96513
-0.7316801 -0.50550646 0.10919494
-13.073823 -9.0291357 -1.9508847
-18.477388 -12.751456 -1.9641418
-23.854677 -16.456245 -1.5187895
-6.0793266 -4.1766443 -1.9763422
-23.613747 -16.223215 0.50008124
-7.1966419 -4.9424152 -2.0155613
-23.582397 -16.189562 1.4991113
-8.3996687 -5.7643037 -1.9802158
-10.196727 -6.9923081 -1.9582468
-0.73180294 -0.50182682 0.1089512
-13.124909 -8.996913 -1.9538096
-19.455435 -13.326407 -2.0631506
-6.1752696 -4.2109046 -2.0027418
-23.563995 -16.062222 0.49777755
-7.2356424 -4.9302716 -2.02141
-23.549139 -16.040056 1.4932497
-8.431097 -5.7426844 -1.9828871
-10.289659 -7.0033536 -1.9713873
-0.74020243 -0.50360769 0.10992616
-13.023198 -8.8572054 -1.933823
-18.284731 -12.426288 -1.9341602
-6.1314592 -4.14819 -1.9835893
-23.500669 -15.89919 0.49526441
-7.2027674 -4.8711424 -2.0074632
-23.515635 -15.897351 1.4875973
-8.2959299 -5.606216 -1.9462519
-10.33654 -6.9799638 -1.9754546
-0.73537517 -0.49657735 0.1089512
-13.09846 -8.8416786 -1.9404038
-18.301565 -12.34456 -1.9313713
-6.1515961 -4.132143 -1.9856598
-23.441475 -15.740143 0.49285597
-7.2213435 -4.8470573 -2.0079131
-23.462086 -15.74805 1.4808984
-8.5068493 -5.7077498 -1.9912828
-10.248062 -6.8708429 -1.9541795
-0.71896505 -0.48185056 0.10627007
-12.985764 -8.6997786 -1.9191986
-18.25963 -12.228369 -1.9226557
-6.1981311 -4.1320763 -1.9960126
-23.403696 -15.602422 0.49097112
-7.0979166 -4.7301455 -1.9692216
-23.387266 -15.579681 1.472734
-8.453187 -5.6290526 -1.97411
-10.341496 -6.8838935 -1.967633
-0.72551697 -0.48276275 0.10700129
-13.198009 -8.7787008 -1.9462537
-19.284513 -12.817453 -2.0258482
-6.145751 -4.0677834 -1.9747895
-23.386301 -15.473192 0.48947018
-7.1875286 -4.7537136 -1.9894673
-23.378195 -15.456092 1.4687564
-8.440691 -5.5804176 -1.9668592
-10.373705 -6.8531947 -1.9691973
-0.72388476 -0.47803944 0.10651381
-13.162302 -8.6888351 -1.936504
-19.493208 -12.863168 -2.0432792
-6.1260037 -4.0240335 -1.9639189
-23.346563 -15.329998 0.48751554
-7.2676158 -4.7702999 -2.0070133
-23.325129 -15.304276 1.4620574
-8.4420614 -5.5390754 -1.9626614
-10.26045 -6.7270451 -1.9432292
-0.73219007 -0.47986236 0.10748877
-13.295505 -8.7102804 -1.9516157
-17.981218 -11.775545 -1.8804722
-6.2015104 -4.0427146 -1.9835893
-23.317841 -15.194907 0.48580518
-7.2450328 -4.7193761 -1.9962157
-23.291376 -15.16609 1.4566145
-8.4975405 -5.5331407 -1.9710571
-10.378247 -6.7525945 -1.9610627
-0.73053253 -0.47513896 0.10700129
-13.475612 -8.761198 -1.9735522
-18.690445 -12.146993 -1.9501969
-6.2074742 -4.0157957 -1.981001
-23.28174 -15.055874 0.48395523
-7.2205482 -4.6676087 -1.9849681
-23.253588 -15.02616 1.4509622
-8.546484 -5.5226245 -1.9779261
-10.332055 -6.6713252 -1.9479222
-0.72384745 -0.46720332 0.1057826
-13.347651 -8.611867 -1.9503973
-18.284 -11.792274 -1.9034814
-6.1856894 -3.9711423 -1.969613
-23.246639 -14.918351 0.48214018
-7.2810836 -4.670785 -1.9971154
-23.215113 -14.886674 1.4453099
-8.6351223 -5.5372658 -1.9939542
-23.337223 -14.959237 2.4251957
-10.396859 -6.6618614 -1.9557439
-0.71878749 -0.46039101 0.10480764
-13.561523 -8.6829672 -1.9772084
-19.37891 -12.402867 -2.012949
-6.1995134 -3.9495261 -1.969613
-23.210865 -14.78126 0.48032513
-7.103363 -4.5218539 -1.9440269
-23.175943 -14.747652 1.4396576
-8.6808987 -5.5239558 -2.0000601
-23.221188 -14.77075 2.4077644
-10.478395 -6.6626234 -1.9666944
-0.72039014 -0.45787933 0.10480764
-13.574995 -8.6249294 -1.974771
-19.536457 -12.407777 -2.0248022
-6.2328577 -3.9402492 -1.9758247
-23.189625 -14.654217 0.47882423
-7.2393746 -4.5730071 -1.9768698
-23.133537 -14.613116 1.4340054
-8.7316685 -5.5135355 -2.0073106
-10.426408 -6.5785747 -1.9526151
-0.72870016 -0.4595978 0.1057826
-13.620313 -8.5904551 -1.9772084
-18.369404 -11.576791 -1.8996465
-6.2622528 -3.9298272 -1.981001
-23.117821 -14.50179 0.47634599
-7.2759619 -4.5624328 -1.9827186
-23.093878 -14.481147 1.4285624
-8.821435 -5.5293851 -2.0237205
-23.152355 -14.506558 2.3903332
-10.521828 -6.5900989 -1.9663814
-0.7403155 -0.46349928 0.10724504
-13.492249 -8.4472733 -1.9545406
-19.519114 -12.211112 -2.0143435
-6.2982068 -3.9233387 -1.988248
-23.138624 -14.408134 0.47578749
-7.3257942 -4.5599074 -1.9921664
-23.137506 -14.396226 1.4281437
-8.8047161 -5.4783211 -2.0157063
-10.617436 -6.6010647 -1.9801477
-0.73679036 -0.45789823 0.10651381
-13.685216 -8.5017357 -1.9781833
-19.536228 -12.127141 -2.0117288
-6.274744 -3.8768752 -1.9763422
-7.2239494 -4.4616013 -1.9602236
-8.821394 -5.443953 -2.0149431
-10.575986 -6.521666 -1.9679458
-0.7265566 -0.44803002 0.10480764
-13.7824 -8.4955816 -1.9879328
-19.770136 -12.176944 -2.031426
-6.2767091 -3.8478806 -1.9727188
-7.2817965 -4.4605441 -1.9714712
-8.6896563 -5.3208556 -1.9805974
-10.666085 -6.52595 -1.9804606
-0.74174166 -0.45364994 0.10675755
-13.828691 -8.4543257 -1.9901265
-19.989325 -12.215913 -2.0495543
-6.2884531 -3.8249416 -1.9722012
-7.4155579 -4.5069585 -2.0034139
-8.8021383 -5.3475747 -2.0019681
-0.89745802 -0.54501975 0.09186215
-10.48617 -6.3656702 -1.9429164
-0.73653233 -0.44693869 0.1057826
-13.900547 -8.4317436 -1.99622
-19.582079 -11.873344 -2.0035362
-6.3249221 -3.8169429 -1.9794481
-0.87839615 -0.52988255 0.017906168
-7.4112201 -4.4689684 -1.9980152
-0.89965326 -0.54249126 0.055057433
-8.8157053 -5.3137789 -2.0008233
-0.87546325 -0.52748835 0.089421786
-10.741846 -6.4696703 -1.9860923
-0.75169319 -0.45255622 0.10773251
-12.586231 -7.5745373 -1.8036665
-19.9512 -12.00211 -2.037004
-0.85875094 -0.51598954 -0.017487312
-6.1475968 -3.6807187 -1.9199197
-0.79436415 -0.47560552 0.01616093
-7.3992443 -4.4283566 -1.9908168
-0.87069011 -0.52089101 0.053173337
-8.7718582 -5.2456918 -1.9867034
-0.82257497 -0.49171627 0.083843827
-10.600469 -6.3367147 -1.9560568
-0.74637359 -0.44598809 0.10675755
-14.076914 -8.408185 -2.0132816
-0.84173727 -0.50237381 -0.085761249
-0.85417372 -0.50959414 -0.052126616
-0.8227582 -0.49046251 -0.016719406
-6.3607211 -3.7797236 -1.982554
-0.83384329 -0.49529681 0.016928835
-0.82089221 -0.48741016 0.050033178
-8.9276438 -5.2987399 -2.0179961
-0.80363876 -0.47678646 0.081752084
-10.734661 -6.3661761 -1.9767061
-0.7428031 -0.44034311 0.10602634
-0.81972951 -0.48575285 -0.11699458
-0.79882872 -0.47317919 -0.08122915
-0.82157195 -0.4862636 -0.050033178
-0.82438016 -0.48773143 -0.016719406
-6.3788691 -3.7604406 -1.9841069
-0.83548123 -0.49252892 0.016928835
-0.82267004 -0.48478338 -0.22045203
-0.81226331 -0.47845966 0.04940515
-0.82558429 -0.4861123 -0.1862296
-0.81560057 -0.48004201 0.082797952
-0.80693388 -0.47494105 -0.14829989
-0.74597019 -0.43888408 0.10627007
-0.81449139 -0.47900653 -0.11601962
-0.82108873 -0.48250082 -0.083320886
-0.80940288 -0.47544378 -0.049195804
-0.8226285 -0.48282641 -0.016649596
-0.82204872 -0.48094398 -0.25519559
-0.82338583 -0.48153368 0.016649596
-0.82099265 -0.47994158 -0.21955223
-0.82082617 -0.47965202 0.049823835
-0.82727605 -0.48322767 -0.1862296
-0.80686545 -0.47130546 0.081752084
-0.82564563 -0.4820818 -0.15142858
-0.74406874 -0.43427616 0.1057826
-0.81615835 -0.47616071 -0.11601962
-0.82621056 -0.48163858 -0.083669513
-0.81804341 -0.47649503 -0.049614493
-0.80529964 -0.46888384 -0.016265644
-0.86056805 -0.49925542 -0.26658365
-0.82687515 -0.47951552 0.016684501
-0.82611805 -0.4788841 -0.22045203
-0.82776302 -0.47964439 0.050137851
-0.82564402 -0.47822407 -0.18546635
-0.80169135 -0.46435037 0.081054844
-0.83082592 -0.48103216 -0.15205432
-0.75768214 -0.43850648 0.10748877
-0.82133472 -0.47515398 -0.1165071
-0.83487004 -0.4825955 -0.084366761
-0.82151377 -0.47449267 -0.049719162
-0.79315853 -0.45793036 -0.015986405
-0.83727384 -0.48164845 -0.25881904
-0.80782473 -0.46451995 0.016265644
-0.80759346 -0.46419924 -0.2150532
-0.81731111 -0.46978486 0.04940515
-0.81028539 -0.46555865 -0.18165016
-0.79474914 -0.45644766 0.080183282
-0.81545216 -0.46814853 -0.14892563
-0.76100588 -0.43671474 0.10773251
-0.82134891 -0.47115272 -0.11626337
-0.82272226 -0.47174969 -0.082972266
-0.82316512 -0.47162193 -0.049719162
-0.82251644 -0.47105965 -0.016544882
-0.83056062 -0.47393566 -0.25623086
-0.80588704 -0.45985639 0.016195834
-0.79897201 -0.45572546 -0.2123538
-0.82068092 -0.46791846 0.04950982
-0.82555103 -0.47050431 -0.18470311
-0.80499363 -0.45860171 0.081054844
-0.74692494 -0.42534781 0.10553886
-0.80565494 -0.45860633 -0.11382597
-0.80531347 -0.45803982 -0.081054844
-0.81951571 -0.46592841 -0.04940515
-0.79633611 -0.45238188 -0.015986405
-0.82708442 -0.46832311 -0.25467795
-0.81096792 -0.45901051 0.016265644
-0.79546952 -0.45005509 -0.21100408
-0.80136818 -0.45339239 0.048253756
-0.80147326 -0.45326725 -0.17897885
-0.80824429 -0.45691037 0.08122915
-0.82033956 -0.46355909 -0.1492385
-0.75877565 -0.42859572 0.10700129
-0.80725104 -0.45579106 -0.11382597
-0.82417911 -0.4651596 -0.082797952
-0.81939751 -0.46208361 -0.049300473
-0.80131584 -0.45170251 -0.016056214
-0.82871413 -0.46543321 -0.25467795
-0.81248558 -0.45631871 0.016265644
-0.80205542 -0.45027667 -0.2123538
-0.80294591 -0.45059231 0.048253756
-0.79620159 -0.44662488 -0.17745239
-0.80809647 -0.45311186 0.081054844
-0.82531828 -0.46276841 -0.14986424
-0.76192445 -0.42704773 0.10724504
-0.79836702 -0.44729021 -0.11236355
-0.82058221 -0.45936015 -0.082275018
-0.83312577 -0.46619108 -0.050033178
-0.80637842 -0.45085454 -0.016126024
-0.82519054 -0.45986128 -0.25312504
-0.81931412 -0.45639935 0.016370358
-0.81383783 -0.4531624 -0.2150532
-0.82022029 -0.45652881 0.049195804
-0.80453998 -0.44780126 -0.17897885
-0.80437142 -0.44752359 0.080531903
-0.82692862 -0.45988464 -0.14986424
-0.77555567 -0.43113708 0.1089512
-0.81207001 -0.45124993 -0.11406972
-0.83080971 -0.4614737 -0.08314658
-0.83474815 -0.46327987 -0.050033178
-0.79920334 -0.44318813 -0.015951499
-0.83524448 -0.46165073 -0.25571322
-0.81215078 -0.44870129 0.016195834
-0.81370884 -0.44937673 -0.2146033
-0.83055139 -0.45848927 0.049719162
-0.8060981 -0.44499034 -0.17897885
-0.81116199 -0.44760081 0.081054844
-0.81123185 -0.44745466 -0.14673555
-0.76836389 -0.42363515 0.10773251
-0.82407141 -0.45416158 -0.11553215
-0.81321931 -0.44799575 -0.08122915
-0.79961628 -0.44013822 -0.047835067
-0.80775428 -0.44425014 -0.016091119
-0.82160461 -0.4503749 -0.25105447
-0.81371218 -0.44586357 0.016195834
-0.80330825 -0.43998089 -0.21145399
-0.8163799 -0.44695494 0.048777115
-0.81970108 -0.44877321 -0.18165016
-0.80572838 -0.44094062 0.080357596
-0.81105572 -0.44367239 -0.14642268
-0.76635468 -0.41904554 0.10724504
-0.82216799 -0.4493781 -0.11504468
-0.79379672 -0.43369135 -0.079137415
-0.79238248 -0.43255937 -0.047311708
-0.81281102 -0.4433431 -0.01616093
-0.82317179 -0.44750398 -0.25105447
-0.80823529 -0.4392015 0.016056214
-0.78600252 -0.42694238 -0.20650508
-0.80915898 -0.43933743 0.048253756
-0.8126359 -0.44122523 -0.17974208
-0.80376029 -0.43622482 0.080008969
-0.79349989 -0.43047696 -0.14298111
-0.77304775 -0.41920674 0.10797625
-0.8062796 -0.43704557 -0.11260728
-0.80406469 -0.43566343 -0.080008969
-0.82198983 -0.44500464 -0.048986461
-0.8055594 -0.4357461 -0.015986405
-0.82812971 -0.44646156 -0.25208977
-0.82032561 -0.44206944 0.016265644
-0.8029291 -0.43251348 -0.21055418
-0.80709463 -0.43475732 0.048044413
-0.80379939 -0.43280157 -0.17745239
-0.79650599 -0.42869517 0.079137415
-0.80891472 -0.43519145 -0.14548407
-0.76401645 -0.41086456 0.10651381
-0.80780017 -0.4342286 -0.11260728
-0.81260085 -0.4366262 -0.080706216
-0.81297982 -0.43646443 -0.048358425
-0.80171388 -0.43023559 -0.015881689
-0.82116485 -0.43901399 -0.24950157
-0.8112061 -0.43368983 0.016056214
-0.81638986 -0.43627802 -0.2137035
-0.8103689 -0.43287861 0.048149083
-0.80703717 -0.43091786 -0.17783399
-0.80151314 -0.42778829 0.079486035
-0.8173241 -0.43622702 -0.14673555
-0.77238041 -0.41206625 0.10748877
-0.80923569 -0.43154743 -0.11260728
-0.82291186 -0.43847153 -0.08157777
-0.8267625 -0.44033828 -0.04909113
-0.80321079 -0.42743447 -0.015881689
-0.8209095 -0.43538332 -0.24898393
-0.81271505 -0.43085551 0.016056214
-0.80585456 -0.42703807 -0.21055418
-0.81187499 -0.43004724 0.048149083
-0.80672681 -0.42732027 -0.17745239
-0.81173128 -0.42978969 0.080357596
-0.79789072 -0.42228299 -0.14298111
-0.77381402 -0.4093678 0.10748877
-0.81073713 -0.42872003 -0.11260728
-0.79448986 -0.41977361 -0.078614481
-0.80180335 -0.42345855 -0.047521055
-0.81000358 -0.42742807 -0.015986405
-0.81736964 -0.42967507 -0.24743101
-0.82660419 -0.43452948 0.016300548
-0.78836417 -0.41425163 -0.20560527
-0.83282143 -0.43742654 0.049300473
-0.81002593 -0.42527297 -0.17783399
-0.81859368 -0.42958915 0.08088053
-0.79943305 -0.41935593 -0.14298111
-0.75941712 -0.3983649 0.10529512
-0.82101917 -0.43049636 -0.11382597
-0.81536365 -0.42716837 -0.080531903
-0.83166188 -0.43533713 -0.049195804
-0.82389337 -0.43108749 -0.016230738
-0.8188647 -0.42681909 -0.24743101
-0.81577736 -0.42502886 0.016056214
-0.81580311 -0.42486149 -0.2123538
-0.83080029 -0.43267187 0.04909113
-0.82717824 -0.43060181 -0.18126856
-0.82185572 -0.42764878 0.081054844
-0.83944696 -0.43661612 -0.14986424
-0.76967847 -0.40015727 0.10651381
-0.84020585 -0.43663836 -0.11626337
-0.8362987 -0.43442222 -0.082449332
-0.84735817 -0.43979192 -0.050033178
-0.82361817 -0.42728782 -0.016195834
-0.83922797 -0.43371448 -0.25312504
-0.83494717 -0.43150216 0.016405262
-0.81893885 -0.42304823 -0.21280369
-0.85892528 -0.44351429 0.05066121
-0.81297511 -0.41960776 -0.17783399
-0.82511407 -0.4256908 0.08122915
-0.83562368 -0.43111292 -0.14892563
-0.78158706 -0.40306178 0.10797625
-0.82576907 -0.42566386 -0.11406972
-0.83426738 -0.42967606 -0.082100704
-0.82572705 -0.42509517 -0.048672445
-0.81621343 -0.41983706 -0.016021309
-0.83722329 -0.42916656 -0.25208977
-0.82221091 -0.42128995 0.016126024
-0.83428651 -0.42729375 -0.21640292
-0.8213523 -0.42048812 -0.17936046
-0.82297397 -0.42113703 0.08088053
-0.81601954 -0.41739857 -0.1451712
-0.77591938 -0.39671633 0.10700129
-0.836088 -0.4272956 -0.11528841
-0.7984277 -0.40787303 -0.078440167
-0.83432162 -0.42584214 -0.04909113
-0.83354962 -0.42361578 -0.25053686
-0.81476218 -0.41388917 0.015951499
-0.82361007 -0.41820273 -0.2132536
-0.85843867 -0.43569916 0.050451867
-0.84207249 -0.42739251 -0.18355827
-0.85286778 -0.43268475 0.083669513
-0.81570977 -0.41365418 -0.14485833
-0.77198768 -0.3913129 0.10627007
-0.85351127 -0.43244949 -0.11748206
-0.81584352 -0.41318518 -0.080008969
-0.81085366 -0.41030246 -0.047625724
-0.8655237 -0.43758681 -0.016928835
-6.6249771 -3.3378148 -1.9877304
-7.5091338 -3.779985 -1.9408777
-0.852328 -0.4288629 -0.18546635
-0.88641202 -0.44581875 0.086807117
-11.180642 -5.6208315 -1.982025
-0.76980132 -0.38683328 0.1057826
-14.574293 -7.3205462 -2.0025573
-20.58337 -10.334357 -2.0150406
-7.726294 -3.8555572 -1.9935162
-9.4464798 -4.7119012 -2.05196
-11.161297 -5.5623875 -1.9751418
-0.77292383 -0.38502893 0.10602634
-13.645514 -6.7944827 -1.8716695
-20.712069 -10.308613 -2.0241048
-6.6498499 -3.2923377 -1.988248
-7.6977839 -3.8078268 -1.9827186
-9.4276733 -4.6614919 -2.0443277
-11.159393 -5.5128942 -1.9713873
-0.77070338 -0.38057053 0.10553886
-14.491537 -7.1527281 -1.9842769
-20.610334 -10.163891 -2.0105085
-6.5959644 -3.2356138 -1.9685777
-7.6935325 -3.7723541 -1.9782196
-11.287753 -5.52493 -1.9904724
-0.77737594 -0.38049623 0.10627007
-14.496801 -7.0925021 -1.9815956
-20.500696 -10.021016 -1.9963893
-6.6454411 -3.2311542 -1.9799658
-7.4408731 -3.6146996 -1.9098345
-9.312438 -4.5218778 -2.0122719
-11.28742 -5.4760098 -1.9870309
-0.77162063 -0.37417981 0.10529512
-13.867126 -6.7215567 -1.8921436
-19.687449 -9.5384912 -1.9139401
-6.6810427 -3.2196805 -1.9872128
-32.957069 -15.882436 0.63858354
-7.5686932 -3.6458206 -1.9395281
-9.3865442 -4.5174394 -2.0248652
-11.19159 -5.3837438 -1.9670072
-0.78001332 -0.37505984 0.10627007
-14.721304 -7.0753951 -2.0054822
-20.661757 -9.9216356 -2.0052793
-6.7213154 -3.2116666 -1.9960126
-7.6833735 -3.6680737 -1.9656224
-9.3961573 -4.4837527 -2.0237205
-1.0106455 -0.48205319 0.097963057
-11.274506 -5.3752489 -1.9782705
-0.7723577 -0.36806509 0.10505138
-14.600748 -6.9548182 -1.9857392
-20.611794 -9.8136644 -1.9972609
-0.95770949 -0.45557365 -0.055580791
-6.6870904 -3.1666863 -1.982554
-7.7084603 -3.6470671 -1.9687717
-9.4578972 -4.4727468 -2.0336425
-0.95107818 -0.44957259 0.092036456
-11.328921 -5.3527408 -1.9845279
-0.78081781 -0.36875746 0.10602634
-14.617755 -6.9004197 -1.9847643
-20.552225 -9.6974497 -1.9881967
-6.6508851 -3.1211655 -1.9685777
-0.97219408 -0.45603007 0.018743884
-7.7264366 -3.6226184 -1.9701214
-9.4698954 -4.4380383 -2.0328791
-11.304601 -5.293056 -1.977019
-0.78929198 -0.36939543 0.10700129
-14.607587 -6.8333735 -1.9801333
-20.549854 -9.6087666 -1.9847106
-6.6810074 -3.1068926 -1.9742718
-7.7313385 -3.5936906 -1.9683217
-9.5512123 -4.4355536 -2.046999
-11.338216 -5.2630272 -1.9798348
-0.77790755 -0.36092761 0.10529512
-14.594151 -6.7681918 -1.9752585
-20.726084 -9.6031456 -1.998481
-6.6333785 -3.0580299 -1.9571897
-32.728943 -15.081327 0.62901962
-7.7243667 -3.557714 -1.9633728
-9.6033192 -4.4210968 -2.0550129
-11.356521 -5.2234139 -1.9798348
-0.78637713 -0.36152694 0.10627007
-14.574395 -6.6973128 -1.9694086
-20.727039 -9.5202255 -1.995518
-29.913565 -13.727095 -1.7248886
-6.6826715 -3.052515 -1.9685777
-32.658726 -14.917873 0.6267159
-7.7219405 -3.5256042 -1.9597737
-9.607976 -4.382659 -2.0527232
-27.033264 -12.32547 2.5993328
-11.179662 -5.0972233 -1.9460449
-0.78757167 -0.35891721 0.10627007
-14.638075 -6.6678724 -1.9750148
-15.818547 -7.198925 -1.5205191
-46.481144 -21.153286 9.9266472
-15.796654 -7.1856384 -0.90949428
-6.6352062 -3.0028841 -1.9514956
-15.798163 -7.1464272 0.30265963
-7.7188287 -3.490052 -1.9557245
-9.7162447 -4.3911376 -2.0725675
-27.112438 -12.247435 2.6028192
-11.342299 -5.1212454 -1.9710745
-0.78526318 -0.35439503 0.1057826
-14.660608 -6.6133561 -1.974771
-20.644056 -9.3081427 -1.9812243
-46.737347 -21.063459 9.9648094
-15.910295 -7.1670642 -0.91451859
-15.819148 -7.1193686 -0.30279925
-61.652588 -27.733637 18.114229
-6.659749 -2.9860289 -1.9556367
-32.563911 -14.593833 0.62287641
-7.7220721 -3.4591033 -1.9534749
-9.8031874 -4.3892879 -2.0878322
-15.890745 -7.1116037 1.5231338
-11.39076 -5.0953341 -1.9763933
-0.79736882 -0.35651314 0.10724504
-20.718264 -9.254714 -1.9852335
-46.989864 -20.980217 10.002972
-29.895174 -13.341465 -1.7156775
-32.160843 -14.339108 -0.61463886
-6.7760639 -3.0098152 -1.9866952
-32.417271 -14.39244 0.61910671
-7.7002559 -3.4171107 -1.944927
-9.8597269 -4.3733482 -2.0966094
-11.354296 -5.0315351 -1.9670072
-0.80223835 -0.35533565 0.10773251
-20.806921 -9.2073355 -1.9906371
-29.956175 -13.243489 -1.7165148
-32.152164 -14.200912 -0.61352193
-6.7387857 -2.9651363 -1.9727188
-32.075581 -14.10692 0.61163706
-7.7638726 -3.4129534 -1.957974
-32.013992 -14.066491 1.8325961
-9.9360447 -4.365756 -2.1095843
-11.375409 -4.9934554 -1.967633
-0.79438472 -0.34854516 0.10651381
-14.721786 -6.4562845 -1.9737961
-20.957548 -9.186636 -2.0019674
-48.214119 -21.124388 10.231942
-18.465298 -8.0864887 -1.0564537
-32.135582 -14.059735 -0.61226529
-6.8004522 -2.9639812 -1.9877304
-7.6613903 -3.3360379 -1.9291801
-9.888217 -4.3036261 -2.0962276
-11.476101 -4.9899507 -1.982025
-0.80469948 -0.34972629 0.10773251
-14.749694 -6.4072323 -1.9745274
-20.899939 -9.074543 -1.9934262
-30.011257 -13.018137 -1.7144215
-32.257858 -13.979282 -0.61366153
-6.7415853 -2.9103632 -1.9675424
-32.331188 -13.950772 0.61463886
-7.7731962 -3.3524923 -1.9543748
-32.26548 -13.90907 1.8413885
-9.9302225 -4.2807412 -2.1019521
-11.540622 -4.9701757 -1.9901596
-0.81320864 -0.35005492 0.10870746
-14.937906 -6.4270978 -1.9967074
-21.059608 -9.0566311 -2.0056279
-29.920719 -12.854956 -1.7066756
-32.490215 -13.945475 -0.61715204
-6.8103209 -2.9118757 -1.9846245
-32.36866 -13.833115 0.61442941
-7.738256 -3.3054368 -1.9426774
-32.340813 -13.814549 1.8430634
-9.9577436 -4.2514482 -2.1046233
-11.450696 -4.8841381 -1.9717003
-0.83268636 -0.35499901 0.11114486
-15.052266 -6.4172297 -2.0091381
-21.157082 -9.0111752 -2.0119033
-32.470032 -13.809481 -0.61589539
-6.7914786 -2.8772182 -1.9763422
-32.329647 -13.689831 0.61282384
-7.7742996 -3.2903912 -1.9489759
-9.9356251 -4.2031054 -2.0969911
-11.5851 -4.8961225 -1.9920367
-0.81557256 -0.34451145 0.10870746
-14.854026 -6.2745886 -1.9798895
-19.971659 -8.4281483 -1.8965088
-6.7689195 -2.8412223 -1.9670248
-32.260536 -13.534596 0.61065972
-7.7186732 -3.2367086 -1.9323295
-11.761618 -4.9248171 -2.0195692
-0.82952881 -0.34716964 0.11041363
-14.961912 -6.2587013 -1.9913452
-20.815657 -8.7031116 -1.9739032
-18.40485 -7.6800542 -0.3481057
-6.8055539 -2.8287008 -1.9747895
-32.263268 -13.403482 0.60982198
-7.7695203 -3.2261872 -1.9422275
-9.9368057 -4.1240897 -2.0912669
-11.869973 -4.9215598 -2.0352125
-0.83623725 -0.34655187 0.11114486
-14.959825 -6.1965632 -1.9881767
-19.560987 -8.0984287 -1.8522338
-6.8118138 -2.803457 -1.9737542
-32.246979 -13.264915 0.60863519
-7.8221879 -3.2160904 -1.9525751
-9.9275341 -4.0796771 -2.0863059
-11.883427 -4.8785954 -2.0345869
-0.86682576 -0.35568795 0.11504468
-14.942797 -6.1284881 -1.9830582
-20.721054 -8.4940996 -1.9592611
-55.338875 -22.651012 13.804796
-6.7678881 -2.7577906 -1.958225
-32.213009 -13.126213 0.60716921
-7.8580766 -3.2004235 -1.9588737
-9.9635363 -4.0538774 -2.0908849
-11.976393 -4.8704147 -2.0477273
-50.715496 -20.614067 6.7218261
-14.863725 -6.0385551 -1.9698963
-20.023199 -8.1265078 -1.8905823
-56.832043 -23.01935 16.429834
-6.7411666 -2.7208724 -1.9478723
-7.8077507 -3.1481986 -1.9435771
-9.9550734 -4.0120082 -2.0863059
-11.91086 -4.7953839 -2.0336483
-51.33963 -20.659216 6.7949481
-15.046782 -6.0518179 -1.9913452
-19.931725 -8.0125065 -1.8794264
-6.7273026 -2.6880045 -1.9411429
-32.118153 -12.826845 0.6036787
-7.8205013 -3.1216474 -1.9440269
-9.9653702 -3.9757783 -2.0855424
-11.951383 -4.7632852 -2.0377157
-15.086258 -6.0066042 -1.9937826
-20.907387 -8.3200588 -1.9686739
-57.75806 -22.926376 16.650864
-6.8228726 -2.6986125 -1.9659895
-32.162731 -12.714653 0.6036787
-7.8041658 -3.083586 -1.9372785
-9.9207535 -3.9178946 -2.0733306
-11.888923 -4.6903625 -2.0242622
-15.007403 -5.9146023 -1.9806207
-18.882343 -7.4379506 -1.7755368
-57.233601 -22.487238 16.476938
-6.8178601 -2.6691456 -1.9618485
-7.8348455 -3.0641348 -1.9422275
-9.9179134 -3.8768077 -2.069896
-11.886822 -4.6416512 -2.0211337
-15.138923 -5.9054618 -1.9952452
-21.287952 -8.2998295 -1.999004
-57.556618 -22.382542 16.547337
-6.6866298 -2.590888 -1.9214727
-7.9399958 -3.0733466 -1.9656224
-9.9332161 -3.8428721 -2.0702777
-11.928747 -4.6100993 -2.0255136
-15.100182 -5.8297048 -1.9874454
-20.71454 -7.9930792 -1.9425271
-57.070263 -21.987267 14.119727
-6.8850298 -2.6401601 -1.9758247
-7.9706926 -3.0532796 -1.9705712
-11.961372 -4.5747824 -2.0283296
-15.190906 -5.8038821 -1.9967074
-20.600859 -7.8667054 -1.9292796
-6.8978167 -2.6174798 -1.9768599
-7.9485006 -3.0130062 -1.9624729
-11.894131 -4.5015392 -2.0142503
-15.157225 -5.7304621 -1.989639
-20.598373 -7.7834783 -1.9264905
-6.8870168 -2.5859158 -1.9711659
-7.8294234 -2.9366498 -1.9305301
-9.928793 -3.7221024 -2.0611188
-30.056883 -11.261739 2.8081579
-12.000419 -4.4939361 -2.0295811
-15.056282 -5.6323133 -1.9737961
-21.844057 -8.1671591 -2.0403159
-58.225536 -21.711731 16.650864
-6.8561606 -2.5470607 -1.959778
-7.9894404 -2.9648981 -1.9674219
-9.9932661 -3.7065406 -2.0718043
-12.06234 -4.4691758 -2.0374026
-15.122393 -5.5969439 -1.9798895
-20.8316 -7.705843 -1.9432244
-6.8758898 -2.5271113 -1.9628838
-8.0198641 -2.9443812 -1.9723709
-9.9526939 -3.6520221 -2.0607371
-12.148345 -4.4528794 -2.0492916
-15.158615 -5.5502648 -1.9820831
-20.641329 -7.553659 -1.9230043
-16.465122 -6.022121 3.4078488
-56.201595 -20.511271 16.030735
-6.906456 -2.5110154 -1.9690953
-8.0264292 -2.9150381 -1.9714712
-9.9321642 -3.6051981 -2.0538683
-12.076532 -4.3787994 -2.0345869
-15.162964 -5.4919128 -1.9801333
