# .PCD v0.7 - Point Cloud Data file format
VERSION 0.7
FIELDS x y z
SIZE 4 4 4
TYPE F F F
COUNT 1 1 1
WIDTH 1494
HEIGHT 1
VIEWPOINT 0 0 0 1 0 0 0
POINTS 1494
DATA ascii
-3.3028302 7.2776713 -2.1414688
-3.8328981 8.4534969 -2.1428835
-4.5658221 10.074643 -2.1500359
-5.6301365 12.434632 -2.1619246
-19.31432 42.677128 5.7517462
-8.710187 19.24612 -2.5938673
-10.590578 23.422815 -2.2489667
-18.366617 40.639706 8.6688347
-14.113384 31.243128 -1.7966936
-20.184814 44.725197 13.148008
-3.2873979 7.3079634 -2.1471629
-3.8040473 8.4643831 -2.1424339
-4.5348039 10.0951 -2.1511807
-5.5872502 12.449631 -2.161299
-19.240925 42.893085 5.7722201
-8.651186 19.28577 -2.5953298
-10.523434 23.481447 -2.2512329
-14.030928 31.337152 -1.799415
-17.372053 38.817547 -0.74232066
-20.132612 45.007034 13.21116
-3.2662904 7.3258834 -2.1492336
-17.29641 38.811909 0.74169236
-3.7711978 8.4662714 -2.1397343
-17.269115 38.787067 2.2251158
-4.4997025 10.106497 -2.1504176
-5.5443316 12.464478 -2.1606731
-8.621707 19.401108 -2.6067855
-10.486761 23.609074 -2.2601228
-13.980392 31.504 -1.8063233
-18.402308 41.488052 10.47822
-20.205503 45.596294 13.363346
-3.2399194 7.3354721 -2.1487157
-3.7447705 8.486515 -2.1415341
-4.4636068 10.120345 -2.1500359
-5.4991922 12.480143 -2.1600473
-18.679695 42.412643 5.6903238
-8.5435371 19.407463 -2.6036167
-10.453229 23.756783 -2.2707555
-13.88642 31.589174 -1.8084167
-18.257364 41.55204 10.47822
-20.476236 46.62402 -0.88885111
-19.985662 45.528568 13.322969
-3.2111948 7.3396587 -2.1466453
-16.942526 38.742996 0.73809719
-3.7159026 8.5013208 -2.141984
-4.4274645 10.134068 -2.1496544
-16.905859 38.714355 3.6959264
-5.4579682 12.504693 -2.1609859
-18.542635 42.503063 5.6937361
-8.4812899 19.449907 -2.6053228
-10.339035 23.73283 -2.2648292
-13.799981 31.692392 -1.8115571
-3.1812022 7.3442864 -2.1445746
-3.6908519 8.5249691 -2.1446834
-4.3918524 10.153829 -2.1504176
-5.4050503 12.508292 -2.1581702
-8.4566412 19.579624 -2.6187286
-10.296391 23.86207 -2.2737191
-13.71062 31.805117 -1.8151159
-19.082338 44.287384 11.133277
-18.816078 43.690414 12.746321
-3.1593528 7.3642244 -2.1471629
-3.6549773 8.5276928 -2.141984
-4.3586988 10.174513 -2.1515625
-16.604063 38.777569 3.6905227
-5.3574653 12.518004 -2.1566057
-18.625261 43.539921 5.8146305
-8.3809137 19.601364 -2.6175098
-10.246696 23.976648 -2.2812145
-13.602644 31.860134 -1.8155346
-19.092436 44.761593 13.039304
-3.1351397 7.3787627 -2.1481981
-3.6266758 8.5397673 -2.141984
-4.3231583 10.189665 -2.1515625
-5.3190122 12.542975 -2.1578572
-8.3468456 19.70216 -2.6272595
-10.162944 24.012268 -2.2812145
-13.543612 32.01543 -1.8218148
-20.218716 47.84108 -0.90658271
-19.220236 45.500645 13.234971
-3.1106517 7.3891196 -2.1481981
-3.5968463 8.5523729 -2.141984
-11.457956 27.244066 1.5489351
-4.2923846 10.211185 -2.1530888
-16.403801 39.042141 3.7049906
-5.2728992 12.556004 -2.1569188
-8.3194962 19.830021 -2.6404214
-10.143352 24.189157 -2.2948108
-13.444129 32.09198 -1.8234897
-18.55603 44.31617 11.091887
-20.109373 48.025917 -0.90881658
-19.967205 47.709759 13.858208
-3.0848415 7.3999319 -2.1481981
-3.5684633 8.5642557 -2.141984
-4.2514362 10.213418 -2.1504176
-5.2327528 12.577066 -2.1575444
-17.616476 42.362534 5.6332889
-8.2567348 19.864836 -2.6413965
-10.053511 24.211533 -2.2935905
-18.155132 43.722397 9.2023363
-18.380604 44.309055 11.07479
-3.0558624 7.3994074 -2.1450922
-3.541518 8.5838661 -2.1437836
-4.2220368 10.238349 -2.1527071
-11.383302 27.617941 2.6134522
-5.1850533 12.586124 -2.1559801
-8.2017012 19.928413 -2.6460276
-9.9719706 24.253847 -2.2942877
-18.03974 43.876289 9.2214174
-11.239404 27.350071 -1.5496678
-11.15698 27.176477 -0.51278663
-19.963678 48.652241 14.091146
-3.0294507 7.4123464 -2.1456099
-3.5100605 8.5925665 -2.1428835
-4.1829967 10.250121 -2.1519439
-5.1321793 12.58858 -2.1531644
-8.1268396 19.944056 -2.6443214
-9.9015141 24.323574 -2.2975996
-17.895071 43.982128 9.2298126
-11.11124 27.322632 -1.545795
-11.049994 27.185619 -0.51222813
-3.0042849 7.4246674 -2.1461277
-11.174223 27.629387 0.52022129
-3.474164 8.5945339 -2.1401844
-4.1501355 10.27194 -2.1534703
-5.0896869 12.61008 -2.15379
-8.0581436 19.984751 -2.6457837
-9.8068724 24.333961 -2.2953336
-17.700367 43.942341 9.2084427
-11.037436 27.414978 -1.5488305
-10.914711 27.12385 -0.51034325
-2.9826579 7.4458694 -2.1492336
-11.095173 27.697849 0.52081472
-3.4463661 8.6078167 -2.1406343
-10.838268 27.083862 1.5288382
-4.1098771 10.275428 -2.1511807
-5.0493054 12.630559 -2.1544156
-7.9469123 19.898912 -2.6309156
-11.090846 27.785336 4.7384005
-9.739584 24.41246 -2.2995169
-17.554539 44.000801 9.2084427
-10.834772 27.198936 -0.51104134
-2.9579515 7.455719 -2.1492336
-10.994005 27.725256 0.52060533
-3.4170177 8.6216049 -2.1410842
-4.0714436 10.278048 -2.148891
-5.0066423 12.65178 -2.1550415
-7.981039 20.188671 -2.6655266
-11.015573 27.878994 4.7477865
-9.6682186 24.481516 -2.302829
-12.889133 32.654083 -1.8398185
-10.707493 27.154737 -0.50950557
-2.9263716 7.4557199 -2.1461277
-3.3897462 8.6407375 -2.1428835
-4.0373292 10.302039 -2.150799
-4.9587936 12.666368 -2.1544156
-10.902793 27.84927 3.6721675
-7.8562717 20.077757 -2.6472459
-9.6073599 24.578213 -2.3087556
-17.370705 44.461758 9.2786608
-12.794055 32.764362 -1.8433771
-10.650439 27.28882 -0.51132065
-2.9003265 7.4658904 -2.1461277
-3.3566458 8.6494694 -2.141984
-4.0041814 10.323392 -2.1523256
-4.9102702 12.672547 -2.1525385
-7.8385167 20.250816 -2.6662576
-18.149864 46.914513 7.9672084
-9.5229502 24.615313 -2.3091042
-12.683937 32.819996 -1.8440052
-10.622376 27.514219 -0.5148111
-2.8763258 7.481379 -2.1476805
-3.3236403 8.6538572 -2.1401844
-3.9681184 10.337308 -2.1523256
-4.869544 12.698831 -2.1541028
-7.7933488 20.34479 -2.6750324
-9.4690304 24.732132 -2.3169482
-12.612111 32.975998 -1.8502855
-2.8529429 7.4985957 -2.1497512
-3.2906408 8.6581202 -2.1383848
-3.9271326 10.338248 -2.1496544
-4.8244829 12.713906 -2.15379
-7.7201686 20.366302 -2.6743009
-9.4179296 24.858196 -2.3256638
-12.528024 33.102016 -1.8548912
-20.400623 53.931725 -1.0064802
-2.8233485 7.4994678 -2.1471629
-3.2646585 8.67628 -2.1401844
-3.8910236 10.351893 -2.1496544
-4.7864656 12.740929 -2.1556673
-7.7035079 20.527462 -2.6920938
-9.338788 24.911442 -2.3275812
-12.450426 33.229408 -1.859706
-2.7964377 7.5033579 -2.1456099
-3.2357099 8.6912756 -2.1410842
-3.8580406 10.368421 -2.1504176
-4.7371416 12.744599 -2.1534772
-7.649076 20.600754 -2.6981876
-9.2476215 24.93268 -2.3265355
-12.363506 33.351326 -1.8641022
-2.7715919 7.5208087 -2.1476805
-3.2026596 8.6952019 -2.1392844
-3.8220487 10.388018 -2.1515625
-4.6883569 12.756312 -2.1525385
-7.5579486 20.575157 -2.6913629
-9.1804428 25.019047 -2.3315904
-12.287933 33.52393 -1.87122
-2.7466438 7.5340676 -2.1487157
-3.1681032 8.6995573 -2.137485
-3.787776 10.406832 -2.1527071
-4.6465034 12.780025 -2.15379
-7.474359 20.580328 -2.6884379
-9.1097393 25.110592 -2.3369939
-12.189893 33.619198 -1.8741508
-2.7203233 7.547719 -2.1497512
-3.1390355 8.7142305 -2.1383848
-3.7489452 10.418797 -2.1523256
-4.599628 12.79697 -2.15379
-7.4440894 20.722122 -2.7035499
-9.0179996 25.130983 -2.3359482
-12.077379 33.693726 -1.8758256
-2.69467 7.546659 -2.1471629
-3.1149185 8.7332258 -2.1406343
-3.7160394 10.424325 -2.1511807
-4.5642915 12.818005 -2.1550415
-7.4108768 20.83518 -2.7152491
-8.9603539 25.219265 -2.341526
-11.978683 33.733181 -1.8760349
-2.6644182 7.5491986 -2.1450922
-3.0837641 8.7422094 -2.1401844
-3.6784575 10.439728 -2.1515625
-4.5133419 12.823469 -2.1531644
-7.320323 20.81036 -2.7086682
-8.9000006 25.32934 -2.3488472
-11.91979 33.96154 -1.8862926
-2.6386883 7.560276 -2.1456099
-3.0491333 8.7460938 -2.1383848
-3.6413498 10.450649 -2.1511807
-4.4685488 12.839147 -2.1531644
-7.2466021 20.844553 -2.7096431
-8.8167553 25.375311 -2.3502417
-11.823427 34.067097 -1.8898515
-2.6141708 7.5749207 -2.1471629
-3.0175734 8.748786 -2.136585
-3.6074033 10.470723 -2.1527071
-4.4259505 12.853893 -2.1531644
-7.2142439 20.975468 -2.7235363
-8.7572622 25.490725 -2.3580859
-11.731154 34.166569 -1.8932011
-2.5902867 7.5872035 -2.1481981
-2.988276 8.7629547 -2.137485
-3.5720298 10.480768 -2.1523256
-4.3791485 12.863653 -2.1522255
-7.1524801 21.034351 -2.7279236
-8.7009125 25.617348 -2.3669755
-11.618229 34.226219 -1.8942477
-2.5587542 7.5856643 -2.1450922
-2.9601569 8.7807198 -2.1392844
-3.5329628 10.491931 -2.1519439
-4.3351164 12.888979 -2.15379
-7.0632043 21.012148 -2.7218301
-8.6146021 25.657011 -2.3678472
-11.499064 34.28751 -1.8952944
-2.5304284 7.5890517 -2.1435394
-2.9279561 8.7915087 -2.1392844
-3.4938397 10.496747 -2.1504176
-4.291348 12.907782 -2.1544156
-7.0286894 21.166 -2.7384045
-8.5375481 25.724745 -2.3713334
-11.418279 34.444977 -1.9017842
-2.5039201 7.5978389 -2.1435394
-2.8975692 8.7974691 -2.1383848
-3.4590158 10.514475 -2.1515625
-4.2448215 12.910681 -2.1525385
-6.9535007 21.174105 -2.7364545
-8.4539013 25.773321 -2.3730764
-11.322648 34.539589 -1.9049244
-2.4811065 7.6134458 -2.1456099
-2.8662372 8.8056774 -2.1379349
-3.4259539 10.531487 -2.1527071
-4.1997252 12.925421 -2.1525385
-6.9175434 21.315315 -2.7515662
-8.3813019 25.841011 -2.3767369
-11.230335 34.666302 -1.9097393
-2.4557018 7.6257386 -2.1466453
-2.8354797 8.81563 -2.1379349
-3.3885722 10.541512 -2.1523256
-4.1539745 12.938123 -2.1522255
-6.8612761 21.396038 -2.7588785
-8.2952986 25.883394 -2.3779571
-11.125081 34.754757 -1.9124608
-2.4278941 7.6305819 -2.1456099
-2.804692 8.8254728 -2.1379349
-3.3446207 10.530824 -2.1477461
-4.1099844 12.956308 -2.1528513
-6.7715635 21.372551 -2.752785
-8.2217445 25.965376 -2.382838
-11.021771 34.850502 -1.9156008
-2.396611 7.6242666 -2.1414688
-2.7732861 8.8333492 -2.137485
-3.3090136 10.546182 -2.1485093
-4.0635548 12.966805 -2.1522255
-6.7022595 21.413105 -2.7549787
-8.1459332 26.041452 -2.3871958
-8.6189156 27.587305 -1.5147074
-2.3705537 7.6344314 -2.1419864
-2.7441647 8.8485603 -2.1388347
-3.2727635 10.559542 -2.148891
-4.0246892 13.001669 -2.1556673
-6.6462307 21.497061 -2.7627783
-8.0996761 26.214405 -2.4004436
-9.3670979 30.353947 -1.664807
-9.3561373 30.356026 -0.55446297
-2.3444581 7.6445069 -2.1425042
-2.7098382 8.8469048 -2.1361351
-3.2364614 10.57278 -2.1492727
-3.9775503 13.009971 -2.1547287
-6.6059389 21.634041 -2.7774026
-8.0162687 26.269194 -2.4028838
-9.2378016 30.310038 -1.6606201
-9.2361479 30.342585 -0.55362523
-2.2942383 7.5749898 -2.1207633
-2.6761165 8.8469839 -2.1338856
-3.1972604 10.576496 -2.1477461
-3.9349639 13.033232 -2.1562929
-6.5383992 21.683578 -2.7808149
-7.9532595 26.392403 -2.4115994
-8.3968906 27.899815 -1.5269539
-9.0645456 30.156326 -0.54964608
-2.6446629 8.8544035 -2.1334357
-3.1592011 10.583829 -2.1469829
-3.8928344 13.058246 -2.1581702
-6.4740043 21.74432 -2.7856898
-7.882113 26.490658 -2.4180489
-8.9918375 30.258917 -1.6543397
-8.9148397 30.038258 -0.54692352
-2.1362672 7.2350879 -2.0213768
-2.6181502 8.8785343 -2.1370349
-3.1233447 10.598559 -2.1477461
-3.8444428 13.062279 -2.1566057
-6.4058938 21.793451 -2.7891021
-7.7924089 26.527567 -2.4189205
-8.3452787 28.446461 -1.5536454
-8.8582926 30.234226 -0.54992533
-2.5838726 8.8763943 -2.1343358
-3.0852354 10.605626 -2.1469829
-3.798269 13.073723 -2.1562929
-6.3176165 21.773735 -2.7837398
-7.7158465 26.610102 -2.4239755
-8.7559261 30.236544 -1.6497341
-8.73493 30.203489 -0.5488084
-2.0766249 7.2182646 -2.0125771
-2.5534079 8.8872328 -2.1347857
-3.0503652 10.623878 -2.1485093
-3.7520623 13.085004 -2.1559801
-6.2563334 21.847179 -2.7903209
-7.6250982 26.644537 -2.4246728
-8.7030239 30.451277 -1.6597826
-8.6720591 30.363041 -0.55118191
-2.521265 8.8862772 -2.1325359
-3.0089779 10.61935 -2.1454566
-3.7059617 13.08787 -2.1544156
-6.2000508 21.925114 -2.7976329
-7.5645394 26.786032 -2.4351313
-8.6551495 30.668348 -1.6700405
-8.6202717 30.585598 -0.55467236
-2.0149283 7.1875892 -2.0001535
-2.4923341 8.9025307 -2.1343358
-2.9737484 10.629271 -2.1454566
-3.6629145 13.110239 -2.1559801
-6.1357546 21.990597 -2.8032389
-7.5056329 26.918447 -2.4448929
-8.6005554 30.886929 -1.6802984
-8.5563221 30.76963 -0.55746478
-1.9810704 7.1629257 -1.9913538
-2.4602029 8.9074192 -2.1334357
-2.9381912 10.645264 -2.1466014
-3.6155508 13.117232 -2.1550415
-6.0905595 22.126719 -2.8178632
-7.4147992 26.956009 -2.4459386
-8.5498161 31.124763 -1.6916029
-8.5112782 31.026867 -0.56158352
-1.9509718 7.1511598 -1.9861774
-2.4290972 8.9159517 -2.1334357
-2.901017 10.655455 -2.1466014
-3.5661163 13.116429 -2.1528513
-6.0132899 22.147842 -2.8178632
-7.3566642 27.114403 -2.4579663
-9.7866077 36.120308 -1.9612379
-8.4488745 31.226255 -0.56465513
-1.9194738 7.1336746 -1.9794481
-2.3959394 8.9168482 -2.1316364
-2.8638017 10.665517 -2.1466014
-3.5162194 13.113532 -2.1503484
-5.9225874 22.118843 -2.8115261
-7.2748399 27.188034 -2.4623239
-9.6666403 36.177406 -1.9624939
-1.9252765 7.2561011 -2.0115416
-2.3652956 8.9270411 -2.132086
-2.8230393 10.662163 -2.14393
-3.4684002 13.11809 -2.149097
-5.8595357 22.193121 -2.8183508
-7.2032781 27.30188 -2.4703424
-9.5667667 36.311356 -1.9679368
-1.91705 7.3281903 -2.029659
-2.3336253 8.9333591 -2.1316364
-2.7838182 10.664354 -2.1424036
-3.4161072 13.105268 -2.1450298
-5.7915378 22.249941 -2.8229818
-7.1129413 27.346142 -2.4720855
-9.447999 36.375458 -1.9696116
-1.8822907 7.2992954 -2.019824
-2.3024297 8.9414501 -2.1316364
-2.7490242 10.683513 -2.1443117
-3.3659189 13.099892 -2.1422138
-5.7310958 22.337318 -2.8315127
-7.0372405 27.448002 -2.479058
-9.3387909 36.477875 -1.9733797
-1.8572772 7.307693 -2.0203414
-2.2712061 8.9494324 -2.1316364
-2.7107518 10.689237 -2.1435483
-3.3192041 13.10773 -2.141588
-5.6594095 22.38221 -2.834681
-6.9072266 27.337179 -2.466856
-9.2446175 36.641941 -1.9804975
-2.237114 8.9459629 -2.1289368
-2.6719923 10.692922 -2.1424036
-3.2696004 13.103905 -2.1390851
-5.6009378 22.480799 -2.8446743
-6.8598857 27.554464 -2.4842873
-9.1503916 36.809662 -1.9878246
-2.2082014 8.9631786 -2.1311862
-2.6355915 10.705995 -2.1431668
-3.2219493 13.107566 -2.1378336
-5.5281029 22.523348 -2.8475993
-6.7968731 27.713694 -2.496489
-9.0541582 36.973293 -1.9949421
-1.8864928 7.7622547 -2.1404335
-20.393997 83.977982 1.5084465
-2.1773663 8.9727249 -2.1316364
-2.5949633 10.701775 -2.1404953
-3.1710718 13.097612 -2.1343923
-5.4438448 22.519356 -2.8446743
-6.7108722 27.781792 -2.5004981
-8.9727974 37.202717 -2.0056188
-1.8584846 7.7650356 -2.1393983
-2.145577 8.9783754 -2.1311862
-2.5580442 10.712677 -2.140877
-3.118458 13.079779 -2.129699
-5.3904934 22.644432 -2.8580801
-6.3985343 26.899857 -2.4190946
-8.8687334 37.342628 -2.0114803
-1.8340324 7.7827559 -2.1425042
-19.893845 84.486191 1.5150434
-2.1133327 8.9820156 -2.1302865
-2.5210912 10.723451 -2.1412585
-3.0664587 13.063663 -2.1253188
-5.3050694 22.636055 -2.8546679
-6.3273044 27.019028 -2.4278102
-8.7628736 37.478382 -2.0171328
-1.8055425 7.7834654 -2.1409512
-2.0810852 8.9855423 -2.1293867
-2.4845266 10.736012 -2.1420219
-3.0159504 13.053116 -2.1218774
-5.2264729 22.656366 -2.8549113
-6.4629793 28.038868 -2.5174065
-8.6543827 37.60606 -2.0223663
-1.7800838 7.7972541 -2.1430218
-2.0488386 8.9889517 -2.1284869
-2.446166 10.74079 -2.1412585
-2.9659848 13.044301 -2.1187487
-5.1728492 22.786753 -2.8690484
-6.2795563 27.684313 -2.4835901
-8.5513182 37.760704 -2.0290651
-1.75243 7.8015356 -2.1425042
-2.0220079 9.0090065 -2.1316364
-2.4086559 10.749265 -2.1412585
-2.9240093 13.059848 -2.1196871
-5.1089425 22.856087 -2.8756292
-6.2097917 27.826622 -2.4943972
-8.4277811 37.796654 -2.029484
-1.7257165 7.8035302 -2.1414688
-1.9926507 9.0255232 -2.1338856
-2.3717301 10.75144 -2.1401138
-2.8652365 13.010171 -2.1099885
-5.0419106 22.931946 -2.8829415
-6.1687865 28.080578 -2.5153146
-8.0553274 36.729443 -1.9706584
-1.6980579 7.8076186 -2.1409512
-1.9623719 9.0381374 -2.1352355
-2.3346047 10.761572 -2.1404953
-2.8177111 13.01044 -2.1084239
-4.9656129 22.966869 -2.8851352
-6.0513701 28.01236 -2.5072963
-7.9270759 36.757339 -1.9706584
-1.6711956 7.8153882 -2.1414688
-1.9295923 9.0392141 -2.1338856
-2.2990704 10.779257 -2.1424036
-2.767345 12.997011 -2.1046696
-4.910182 23.100563 -2.8997593
-6.006537 28.282774 -2.5296082
-7.7258062 36.44091 -1.9522361
-1.6458895 7.8306274 -2.144057
-1.8984258 9.0478039 -2.1343358
-2.2602184 10.781452 -2.1412585
-2.7166965 12.981458 -2.1006021
-4.8327684 23.133104 -2.9017093
-5.8939266 28.237257 -2.5236816
-7.697175 36.940826 -1.9775667
-13.218819 63.551914 -1.1330452
-1.6189377 7.8382158 -2.1445746
-1.8680136 9.0600996 -2.1356852
-2.2221763 10.787353 -2.140877
-2.6829014 13.046974 -2.1096754
-4.7563734 23.171225 -2.9043903
-5.8457527 28.503584 -2.545645
-7.4696279 36.48613 -1.9518174
-12.980098 63.515381 -1.1315792
-1.5896444 7.8343534 -2.1419864
-1.8375391 9.0722942 -2.1370349
-2.1829476 10.787348 -2.1393507
-2.6283555 13.011724 -2.1024795
-4.6982136 23.300554 -2.9185274
-5.7423058 28.504278 -2.5439017
-7.4453735 37.024994 -1.9792414
-12.740189 63.470119 -1.1299735
-1.563426 7.8455381 -2.1435394
-1.8039564 9.0690985 -2.1347857
-2.147583 10.806455 -2.1416404
-2.5756137 12.984005 -2.096535
-4.5844674 23.153238 -2.8980532
-5.6721501 28.672697 -2.5571494
-7.3795476 37.372097 -1.9964075
-12.506942 63.455349 -1.1289264
-1.5363992 7.8528438 -2.144057
-1.7685552 9.0562134 -2.1302865
-2.1105974 10.817739 -2.1424036
-2.5329216 13.006489 -2.0987251
-4.5399756 23.356169 -2.9214523
-5.5325336 28.488911 -2.539021
-7.2383986 37.342735 -1.9934766
-12.267935 63.408298 -1.1273208
-1.5097048 7.8619537 -2.1450922
-1.7383971 9.0699873 -2.132086
-2.0720823 10.821185 -2.1416404
-2.4849055 13.001669 -2.096535
-4.426074 23.202225 -2.9002469
-5.457665 28.637222 -2.5505257
-7.1072836 37.363846 -1.9932674
-12.050237 63.470387 -1.1276698
-1.4815387 7.8633785 -2.144057
-1.7088851 9.087492 -2.1347857
-2.0324864 10.818704 -2.1397321
-2.4420509 13.023856 -2.0987251
-4.3885045 23.44973 -2.9292519
-5.4059949 28.914618 -2.5735347
-6.9929261 37.474815 -1.9978731
-11.816176 63.445225 -1.1264831
-1.4519727 7.8571043 -2.1409512
-1.6771595 9.093401 -2.1347857
-1.9947069 10.825733 -2.1397321
-2.3965833 13.032299 -2.0987251
-4.2955074 23.404379 -2.9216959
-5.3093491 28.956827 -2.5756266
-6.8865094 37.632595 -2.0049906
-11.60468 63.541161 -1.1274604
-1.425917 7.869729 -2.1430218
-1.6426308 9.0838585 -2.1311862
-1.9569081 10.83263 -2.1397321
-2.3531771 13.052251 -2.1006021
-4.2264452 23.489565 -2.9304705
-5.2047195 28.955572 -2.5738833
-6.7544079 37.652473 -2.0047815
-11.410984 63.73875 -1.1302527
-1.3994757 7.8725114 -2.1425042
-1.6111345 9.0815821 -2.1293867
-1.9223475 10.846791 -2.1412585
-2.3050611 13.03275 -2.0962222
-4.1554222 23.542549 -2.9353452
-5.1204262 29.039387 -2.5798099
-6.6641126 37.871365 -2.0152485
-1.3723164 7.8792524 -2.1430218
-1.5810945 9.0967493 -2.1316364
-1.8841347 10.851501 -2.140877
-2.2679884 13.089375 -2.1040437
-4.0752525 23.568647 -2.9368076
-5.0292082 29.115982 -2.5850394
-6.554276 38.0243 -2.0221567
-11.061642 64.307632 -1.138979
-1.3428531 7.8725686 -2.1399159
-1.5499829 9.1060562 -2.1325359
-1.8449252 10.850271 -2.1393507
-2.2140193 13.048525 -2.0962222
-4.0168228 23.723648 -2.9543569
-4.9361749 29.184439 -2.5895715
-6.4208498 38.043007 -2.0219476
-1.3147297 7.8733964 -2.1388805
-1.5194706 9.1191006 -2.1343358
-1.8060746 10.850835 -2.1382058
-2.1687844 13.058122 -2.096535
-3.9284637 23.704235 -2.9502134
-4.84339 29.256527 -2.5944521
-6.3654785 38.53418 -2.0468595
-1.2894171 7.8912849 -2.1425042
-1.4857501 9.1128082 -2.1316364
-1.7684999 10.859011 -2.1385872
-2.1219254 13.057814 -2.0952835
-3.8577635 23.792263 -2.9594753
-4.760355 29.391258 -2.6049106
-6.1869488 38.284077 -2.0324149
-1.2621739 7.8976445 -2.1430218
-1.4527014 9.1102409 -2.1298366
-1.7312092 10.868995 -2.1393507
-2.0815992 13.098307 -2.1006021
-3.7818446 23.850679 -2.9650815
-4.6433864 29.317175 -2.5968924
-5.9959202 37.942448 -2.0131552
-1.2354907 7.9077277 -2.1445746
-1.4226948 9.1268091 -2.1325359
-1.6929539 10.873033 -2.1389689
-2.0489063 13.189426 -2.1140556
-3.7049456 23.90493 -2.9702001
-4.559926 29.45528 -2.6076999
-5.9792776 38.713211 -2.0529304
-1.2070034 7.9062643 -2.1430218
-1.3908252 9.1317196 -2.1325359
-1.6529199 10.86529 -2.1362975
-1.9945508 13.141814 -2.1052952
-3.633086 23.994261 -2.9797056
-4.4421759 29.372519 -2.5989842
-5.8769102 38.951084 -2.0644443
-1.1782601 7.9027853 -2.1409512
-1.3595119 9.1403742 -2.1334357
-1.6149851 10.870993 -2.1362975
-1.9448973 13.123296 -2.101228
-3.5498824 24.010725 -2.9801931
-4.3465967 29.43515 -2.6031678
-5.7350788 38.931847 -2.062351
-1.1512213 7.9106736 -2.1419864
-1.3289198 9.1429033 -2.1329858
-1.5778706 10.882393 -2.1374426
-1.9039251 13.147266 -2.1040437
-3.4895337 24.155968 -2.9967675
-4.2432742 29.446199 -2.6028192
-5.6110544 38.986233 -2.064235
-1.1252558 7.9163609 -2.1425042
-1.2945325 9.1301222 -2.1289368
-1.5423274 10.891453 -2.1382058
-1.8395065 13.022783 -2.0830817
-3.4132288 24.225002 -3.0038357
-4.1666961 29.610052 -2.6160667
-5.469389 38.966022 -2.0621414
-1.0981477 7.9240675 -2.1435394
-1.2631857 9.1384459 -2.1298366
-1.5032282 10.88899 -2.1366794
-1.8031952 13.09566 -2.0937192
-3.3394561 24.315435 -3.0135853
-4.0660119 29.644156 -2.6178098
-5.3024855 38.759293 -2.050209
-1.0699617 7.9240236 -2.1425042
-1.2307608 9.138937 -2.1289368
-1.4641595 10.886389 -2.1351528
-1.7561615 13.092085 -2.0921547
-3.2624493 24.385973 -3.0208976
-3.966737 29.689766 -2.6205988
-5.1803379 38.876553 -2.0554426
-1.0402822 7.9123864 -2.1383629
-1.2003744 9.1547699 -2.1316364
-1.4258924 10.889488 -2.1347711
-1.6935714 12.968858 -2.0715053
-3.1588538 24.25548 -3.0033484
-3.8790143 29.825926 -2.6314061
-5.0579686 38.997395 -2.0608854
-1.0138801 7.9255509 -2.1409512
-1.1674265 9.1511717 -2.1298366
-1.3881226 10.896346 -2.1351528
-1.6383363 12.896305 -2.0589907
-3.082643 24.333319 -3.0116355
-3.7483644 29.629763 -2.6129291
-4.9158015 38.967255 -2.0583735
-0.98764098 7.9405446 -2.144057
-1.1365907 9.1511259 -2.1289368
-1.3505636 10.905021 -2.135916
-1.592406 12.876182 -2.0549233
-3.0021701 24.345377 -3.0118792
-3.6799352 29.927425 -2.6380301
-4.8176994 39.237087 -2.0717714
-0.96153355 7.9456935 -2.1445746
-1.1051048 9.1589069 -2.1298366
-1.3139212 10.905542 -2.1351528
-1.5467399 12.875779 -2.0539849
-2.9273386 24.44046 -3.0223601
-3.5778012 29.959875 -2.6397731
-4.6991796 39.408352 -2.0799358
-0.9317314 7.943409 -2.1430218
-1.0731294 9.1627083 -2.1298366
-1.2698455 10.875184 -2.1282835
-1.2731817 10.936893 -1.7439317
-1.2612526 10.850908 -1.3412941
-1.2641517 10.909049 -0.96080488
-4.5610981 39.480865 -2.0828664
-0.90268952 7.9350953 -2.1399159
-1.0397564 9.1685162 -2.1302865
-1.2331988 10.891255 -2.1305733
-1.2325569 10.91968 -1.7404901
-1.2236958 10.875184 -1.3437315
-1.2179338 10.892452 -0.19131328
-0.87582988 7.945879 -2.1419864
-1.2091488 10.969881 0.19263966
-1.009775 9.1757879 -2.1311862
-1.1960322 10.903299 -2.1320999
-1.1946208 10.907997 -1.7379872
-1.1902076 10.902864 -1.3466563
-1.1914045 10.949302 -0.9635939
-1.1893862 10.948472 -0.57716101
-0.85029835 7.9564233 -2.144057
-1.164482 10.914384 0.19159251
-0.97588372 9.1618166 -2.1271372
-1.1628537 10.935253 0.57632357
-1.1594559 10.9033 -2.1313365
-1.1658919 10.9821 0.96620852
-1.1550825 10.89835 -1.735797
-1.1498456 10.885237 -1.3439753
-1.1507082 10.911582 -0.95993334
-1.1467745 10.910844 -0.57496285
-1.1522822 11.000129 -0.19305852
-0.82291508 7.9631863 -2.1450922
-1.1280258 10.934294 0.19187176
-0.94509244 9.1767979 -2.1298366
-1.1236513 10.929313 0.57580024
-1.1205833 10.899471 -2.1298101
-1.1208448 10.920698 0.96045625
-1.1154196 10.886596 -1.7332941
-1.1114461 10.885234 -1.3434877
-1.1124077 10.91355 -0.959759
-1.1086838 10.91478 -0.57496285
-1.1064234 10.930471 -0.19176705
-0.79415572 7.956399 -2.1425042
-1.0898482 10.938165 0.19187176
-0.91362977 9.1858587 -2.1311862
-1.0860883 10.939131 0.57611424
-1.0829204 10.907223 -2.1305733
-1.0842868 10.940406 0.96185076
-1.0774087 10.890423 -1.7332941
-1.0800225 10.936272 1.3493375
-1.0724661 10.879169 -1.3422691
-1.071766 10.891589 -0.95749295
-1.07019 10.914609 -0.57475352
-1.0663199 10.914365 -0.19141799
-0.76582026 7.9533534 -2.1409512
-1.0510886 10.935931 0.19176705
-0.88137984 9.1870518 -2.1307364
-1.0480844 10.944843 0.5762189
-1.0448376 10.910937 -2.1305733
-1.0445715 10.928258 0.96045625
-1.0371433 10.870519 -1.7295396
-1.0446612 10.969617 1.3529935
-1.0320393 10.857157 -1.3391005
-1.0328021 10.885347 -0.95662141
-1.0317056 10.914302 -0.57454419
-1.0274625 10.910058 -0.19127838
-0.73805481 7.9559779 -2.1409512
-1.0110621 10.919622 0.19141799
-0.8494826 9.1920128 -2.1311862
-1.009142 10.940479 0.57580024
-1.0067472 10.914517 -2.1305733
-1.006786 10.935804 0.96080488
-0.99701995 10.850468 -1.7257853
-1.0041904 10.949475 1.3500687
-0.99540347 10.874531 -1.3408067
-0.99226344 10.861109 -0.95418108
-0.98871613 10.864132 -0.57171804
-0.98918939 10.911586 -0.19124347
-0.71096742 7.9662037 -2.1430218
-0.97258162 10.919102 0.1913482
-0.81653053 9.1852179 -2.1289368
-0.96917844 10.924041 0.57475352
-0.96933335 10.925787 -2.1320999
-0.96860391 10.939253 0.96080488
-0.95879322 10.849947 -1.7251595
-0.96543741 10.946982 1.3493375
-0.95586884 10.860143 -1.3386129
-0.95521903 10.874429 -0.95505255
-0.95322126 10.895372 -0.57318348
-0.94831967 10.883098 -0.19068499
-0.68348378 7.972486 -2.144057
-0.93258816 10.900514 0.19096424
-0.78429484 9.1860695 -2.1284869
-0.93176055 10.913264 0.5740208
-0.93085825 10.925191 -2.1313365
-0.93092155 10.948523 0.96132785
-0.92074412 10.85126 -1.7248467
-0.92621684 10.938417 1.347875
-0.91645199 10.84561 -1.3364193
-0.91658181 10.869757 -0.95435536
-0.91267884 10.868779 -0.57161337
-0.91339588 10.900131 -0.19092932
-0.65549386 7.9728975 -2.1435394
-0.89692944 10.909525 0.19106895
-0.75446326 9.1963892 -2.1302865
-0.89251685 10.902516 0.57328814
-0.89175993 10.916635 -2.1290469
-0.88978189 10.915962 0.9581902
-0.88410997 10.846378 -1.7235951
-0.88993561 10.941428 1.347875
-0.87952024 10.836718 -1.3349569
-0.87606305 10.841115 -0.95156634
-0.87663388 10.871746 -0.57161337
-0.87277848 10.871362 -0.19037086
-0.62813747 7.9634724 -2.1404335
-0.85711378 10.89066 0.19068499
-0.7228213 9.2047949 -2.1316364
-0.85620892 10.903424 0.57318348
-0.85570443 10.921489 -2.1294286
-0.85249352 10.904947 0.95697004
-0.84501719 10.833643 -1.7210922
-0.85050762 10.928636 1.3459252
-0.84168488 10.839723 -1.3349569
-0.8402639 10.845946 -0.95174068
-0.83744746 10.858809 -0.57077599
-0.83749217 10.884165 -0.19054537
-0.60062414 7.9694691 -2.1414688
-0.82054043 10.887461 0.19058028
-0.69258279 9.2110281 -2.1325359
-0.81784201 10.902365 0.57297415
-0.81742674 10.922452 -2.1290469
-0.814722 10.911829 0.9573186
-0.8087948 10.832444 -1.7204664
-0.81352717 10.921497 1.3447064
-0.80411315 10.820678 -1.3322757
-0.80093205 10.828944 -0.9499976
-0.80113685 10.857543 -0.57056665
-0.79773903 10.863089 -0.19012651
-0.57488871 7.9810519 -2.144057
-0.78139204 10.874302 0.19030103
-0.65930903 9.1978397 -2.1289368
-0.77906549 10.895192 0.57245076
-0.78176439 10.932936 -2.1305733
-0.77839303 10.912484 0.95714432
-0.76859123 10.801705 -1.7151477
-0.77511501 10.920311 1.344219
-0.7664848 10.825399 -1.3325195
-0.76186401 10.813787 -0.94842881
-0.76099932 10.828396 -0.56889194
-0.75981206 10.865808 -0.19012651
-0.54589808 7.9869595 -2.1450922
-0.74315327 10.872973 0.19023123
-0.62746114 9.2039728 -2.1298366
-0.73886371 10.865961 0.57077599
-0.74169028 10.935727 -2.1305733
-0.73771119 10.905325 0.95627278
-0.72913122 10.80642 -1.7154605
-0.73672634 10.918988 1.3437315
-0.72762316 10.812163 -1.3305696
-0.72531229 10.834272 -0.9499976
-0.72196174 10.841077 -0.56941521
-0.71976054 10.836469 -0.18956804
-0.51751298 7.9811058 -2.1430218
-0.70175064 10.851677 0.18981238
-0.59397554 9.2101002 -2.1307364
-0.70156974 10.878441 0.57129937
-0.70300603 10.930413 -2.1290469
-0.69849974 10.889938 0.95470399
-0.69115031 10.804958 -1.7148348
-0.69581383 10.907747 1.3420253
-0.68799216 10.814757 -1.3305696
-0.68572026 10.8089 -0.94755721
-0.68361932 10.835557 -0.56899661
-0.68205249 10.840911 -0.18960294
-0.48894256 7.9712939 -2.1399159
-0.66649294 10.865921 0.1900218
-0.56367028 9.21591 -2.1316364
-0.66274387 10.866868 0.57056665
-0.66484976 10.9328 -2.1290469
-0.65903246 10.868446 0.95261222
-0.65472025 10.797332 -1.7132704
-0.65951586 10.908014 1.3417815
-0.65164447 10.809053 -1.3295947
-0.64762545 10.805261 -0.94703424
-0.64768058 10.837765 -0.56899661
-0.64337343 10.829252 -0.18935861
-0.46317899 7.9844437 -2.1430218
-0.62774867 10.854208 0.18977746
-0.53149927 9.2178211 -2.1316364
-0.6273964 10.88097 0.57119471
-0.62859386 10.934944 -2.1290469
-0.6228708 10.868584 0.95243794
-0.61624008 10.785746 -1.7110804
-0.61918551 10.870611 1.3369068
-0.61345685 10.803336 -1.3286197
-0.61191034 10.809339 -0.94720864
-0.60872102 10.820018 -0.56794983
-0.60768491 10.83532 -0.18942842
-0.43530315 7.986012 -2.1430218
-0.59088284 10.840256 0.18949823
-0.50008053 9.2039652 -2.128037
-0.58854395 10.86714 0.57035732
-0.59062868 10.940992 -2.1298101
-0.58493084 10.87069 0.95243794
-0.5800423 10.77984 -1.7098289
-0.58366245 10.882517 1.3381255
-0.57646477 10.783505 -1.3259385
-0.57322109 10.793502 -0.94563979
-0.5722059 10.81001 -0.56732178
-0.5694412 10.829388 -0.18928881
-0.40891472 7.9893408 -2.1435394
-0.55263442 10.834263 0.18935861
-0.46844625 9.2153864 -2.1302865
-0.5496946 10.851175 0.56941521
-0.55414212 10.938971 -2.1290469
-0.54857993 10.866602 0.95191503
-0.54221392 10.777853 -1.7092031
-0.54547012 10.880523 1.337638
-0.53832686 10.775539 -1.3247199
-0.53713042 10.789374 -0.94511688
-0.53358322 10.793989 -0.56637979
-0.5302608 10.803349 -0.18880014
-0.38065782 7.9829998 -2.1414688
-0.51414531 10.822145 0.18911427
-0.43645754 9.2208586 -2.1311862
-0.51172185 10.851033 0.56931055
-0.51530945 10.927109 -2.1263754
-0.51054865 10.86646 0.95174068
-0.50421655 10.771788 -1.7079517
-0.50721157 10.876411 1.3369068
-0.50033849 10.76942 -1.3237449
-0.49918595 10.785213 -0.94459391
-0.49599069 10.79778 -0.56648445
-0.49163845 10.785156 -0.18845108
-0.35253549 7.9784904 -2.1399159
-0.47610441 10.81788 0.18900958
-0.40435541 9.2242727 -2.1316364
-0.4737567 10.850759 0.56920594
-0.47733721 10.932765 -2.1271389
-0.47183779 10.850261 0.95017189
-0.46610233 10.761641 -1.7060745
-0.46881726 10.868199 1.3356882
-0.46239951 10.763168 -1.3227699
-0.46102673 10.774946 -0.94354802
-0.45803952 10.793461 -0.56617045
-0.45457396 10.800792 -0.18869542
-0.32484195 7.9835324 -2.1409512
-0.43785146 10.807487 0.18880014
-0.37199464 9.221734 -2.1307364
-0.43491802 10.828397 0.56794983
-0.43901652 10.93044 -2.1263754
-0.43379834 10.84786 0.94982326
-0.42821714 10.755307 -1.704823
-0.43009335 10.849935 1.3332508
-0.42475018 10.762733 -1.3225262
-0.42317486 10.770517 -0.94302511
-0.41966334 10.777031 -0.56522834
-0.41633189 10.788326 -0.18845108
-0.29697013 7.9846177 -2.1409512
-0.39990395 10.802955 0.18869542
-0.33958921 9.2171345 -2.1293867
-0.39660197 10.815878 0.56721711
-0.40114436 10.939754 -2.127902
-0.3949146 10.821433 0.94738293
-0.39038694 10.748839 -1.7035716
-0.3914974 10.831532 1.3308133
-0.38689044 10.756216 -1.3215513
-0.38384029 10.775978 -0.94337374
-0.38182679 10.772443 -0.56491435
-0.37881356 10.79371 -0.18852089
-0.26783425 7.9895139 -2.1419864
-0.36212742 10.802286 0.18866052
-0.30760577 9.2241058 -2.1307364
-0.35857737 10.809213 0.56679851
-0.36091837 10.937227 -2.1271389
-0.35596561 10.844713 0.94930029
-0.35079175 10.744276 -1.7026329
-0.35381261 10.836801 1.3313009
-0.34812504 10.719803 -1.3169203
-0.34590003 10.767295 -0.94250214
-0.34247053 10.777762 -0.56512368
-0.34119451 10.796966 -0.18855581
-0.23994188 7.9904003 -2.1419864
-0.32246506 10.801542 0.18862562
-0.27391329 9.2290678 -2.1316364
-0.31854731 10.796479 0.56606579
-0.3225036 10.93057 -2.1256123
-0.31746295 10.823983 0.94738293
-0.31311464 10.739511 -1.7016943
-0.3140938 10.838025 1.3313009
-0.30933923 10.738865 -1.3191139
-0.30768809 10.746531 -0.94058478
-0.30405366 10.750941 -0.5636583
-0.30106339 10.778154 -0.18820675
-0.21184544 7.9834647 -2.1399159
-0.28429186 10.784612 0.18831147
-0.24194875 9.239707 -2.1338856
-0.28101668 10.803514 0.56637979
-0.28445122 10.935554 -2.1263754
-0.27927399 10.809091 0.94598836
-0.27536866 10.730666 -1.70013
-0.27625722 10.839055 1.3313009
-0.27150747 10.725989 -1.3174077
-0.26997066 10.739572 -0.93988752
-0.26692736 10.767911 -0.56449568
-0.26280075 10.753151 -0.18775299
-0.18406352 7.988018 -2.1409512
-0.24604762 10.759548 0.18785772
-0.20934734 9.2249098 -2.1302865
-0.24334572 10.806426 0.56648445
-0.24636278 10.940407 -2.1271389
-0.24153866 10.809999 0.94598836
-0.23734814 10.705887 -1.6960627
-0.23798594 10.820107 1.3288634
-0.23432209 10.738778 -1.3188702
-0.23222961 10.728497 -0.93884164
-0.22895314 10.750806 -0.56355363
-0.22555909 10.767998 -0.18799733
-0.15617688 7.9886122 -2.1409512
-0.20864549 10.768339 0.18799733
-0.17721748 9.2294807 -2.1311862
-0.205164 10.783248 0.56522834
-0.20813189 10.939238 -2.1267571
-0.20369287 10.804801 0.94546551
-0.19978888 10.696774 -1.6944984
-0.20006551 10.812933 1.3278885
-0.19654658 10.723654 -1.3169203
-0.19473971 10.72725 -0.93866736
-0.19132002 10.745547 -0.56323957
-0.18775812 10.756723 -0.18778789
-0.12838903 7.9949036 -2.1425042
-0.17092581 10.761004 0.18785772
-0.1450889 9.2358894 -2.1325359
-0.16737448 10.773913 0.56470507
-0.17001405 10.943823 -2.1275203
-0.16581996 10.795485 0.94459391
-0.1623861 10.693457 -1.6938726
-0.16205937 10.795701 1.3256948
-0.1589922 10.716334 -1.3159453
-0.15729059 10.727864 -0.93866736
-0.15354978 10.728177 -0.56229758
-0.15001582 10.743317 -0.18754356
-0.10045441 7.9933705 -2.1419864
-0.13343331 10.767533 0.18796241
-0.11287449 9.2382879 -2.1329858
-0.12971452 10.770437 0.56449568
-0.13166718 10.93257 -2.1252308
-0.12799093 10.784044 0.94354802
-0.12494475 10.684083 -1.6923083
-0.12446295 10.804141 1.3266698
-0.1213562 10.696975 -1.3135079
-0.11984466 10.728348 -0.93866736
-0.11627054 10.744625 -0.56313491
-0.11222282 10.71578 -0.18705489
-0.075252533 7.9839888 -2.1393983
-0.099552065 10.761901 0.18785772
-0.083923541 9.2463923 -2.1347857
-0.095719635 10.752817 0.56355363
-0.097375393 10.938819 -2.1263754
-0.09409593 10.782401 0.94337374
-0.09138117 10.684422 -1.6923083
-0.090450548 10.796538 1.3256948
-0.087866113 10.711198 -1.315214
-0.085785046 10.684841 -0.93483251
-0.082271427 10.712982 -0.5614602
-0.078701206 10.736076 -0.18740395
-0.047392089 7.986135 -2.1399159
-0.061837945 10.736187 0.18740395
-0.051546678 9.2290897 -2.1307364
-0.05822508 10.761075 0.56397235
-0.059198912 10.941057 -2.1267571
-0.056407861 10.772702 0.94250214
-0.054022186 10.672825 -1.6904311
-0.052697413 10.782893 1.3239887
-0.050450712 10.705484 -1.3144828
-0.048525874 10.693044 -0.93552971
-0.044995032 10.741165 -0.56292558
-0.04114262 10.71429 -0.18701999
-0.019526109 7.9901147 -2.1409512
-0.024335736 10.726339 0.18722942
-0.019312048 9.2214193 -2.1289368
-0.020640815 10.749228 0.5633443
-0.021020744 10.947086 -2.127902
-0.018790469 10.766857 0.94197923
-0.0167608 10.670973 -1.6901182
-0.015046177 10.773086 1.3227699
-0.013054192 10.685744 -1.3120455
-0.0093446421 10.703113 -0.93640125
-0.0074689537 10.699314 -0.56072748
-0.0037510658 10.732365 -0.18733412
0.0097660199 7.9939957 -2.1419864
0.013113836 10.734357 0.18736903
0.012877609 9.2233791 -2.1293867
0.016849475 10.727265 0.56219292
0.019084716 10.935309 -2.1256123
0.020662133 10.762869 0.94163066
0.022339748 10.66701 -1.6894923
0.022553558 10.769102 1.3222824
0.024234839 10.681754 -1.3115579
0.028019099 10.70308 -0.93640125
0.031791084 10.715247 -0.56156486
0.033658225 10.714315 -0.18701999
0.037650324 7.9900498 -2.1409512
0.052440334 10.730238 0.18729922
0.046724707 9.2310638 -2.1311862
0.054287266 10.725144 0.56208825
0.057233095 10.931251 -2.1248491
0.058158837 10.748785 0.94041049
0.059577268 10.666867 -1.6894923
0.061895996 10.747111 1.3196013
0.06334088 10.673654 -1.310583
0.065370329 10.700925 -0.93622696
0.069132447 10.705086 -0.56104147
0.071060814 10.714133 -0.18701999
0.065574393 7.9937329 -2.1419864
0.087971441 10.724007 0.18719451
0.077362165 9.2347555 -2.132086
0.091756575 10.728883 0.56229758
0.095427103 10.93491 -2.1256123
0.095564954 10.736562 0.93936461
0.094801687 10.650809 -1.6869894
0.097699486 10.764712 1.321795
0.098770224 10.677355 -1.3110704
0.10264438 10.692661 -0.93552971
0.10482448 10.72477 -0.56208825
0.10833598 10.701822 -0.18681055
0.092106678 7.9954042 -2.1425042
0.12528551 10.713636 0.18701999
0.10959946 9.2344294 -2.132086
0.12918562 10.726501 0.56219292
0.13171472 10.936497 -2.125994
0.13121979 10.74017 0.93971318
0.13205564 10.65634 -1.6879282
0.13502817 10.744456 1.3193576
0.13596244 10.670991 -1.3103393
0.13745655 10.642458 -0.93117195
0.14162222 10.676408 -0.55957609
0.14564005 10.697379 -0.18674076
0.12003879 7.9969659 -2.1430218
0.1625637 10.705135 0.18688037
0.14162593 9.2203512 -2.1289368
0.16640277 10.712006 0.5614602
0.16991238 10.937933 -2.1263754
0.16864946 10.735662 0.93936461
0.16922386 10.653838 -1.6876152
0.17233387 10.73201 1.3178952
0.17318095 10.668467 -1.3100955
0.17542477 10.691715 -0.93552971
0.17919299 10.693821 -0.56051815
0.18273325 10.682811 -0.18649642
0.14806201 8.0022917 -2.1445746
0.20008285 10.712501 0.18701999
0.17391834 9.2256451 -2.1302865
0.20372051 10.707366 0.56125087
0.20802008 10.933348 -2.1256123
0.20593449 10.725048 0.93849301
0.20640942 10.653183 -1.6876152
0.20952578 10.717451 1.3161889
0.21010943 10.651918 -1.3081456
0.21250468 10.679086 -0.93448383
0.21619967 10.677155 -0.55968076
0.22002494 10.682108 -0.18649642
0.17556785 7.9824128 -2.1393983
0.23720194 10.699741 0.18681055
0.20607972 9.2230339 -2.1298366
0.24096291 10.7006 0.56093681
0.24605367 10.926668 -2.1244676
0.24304686 10.710321 0.93727285
0.24364272 10.654372 -1.6879282
0.24689253 10.71467 1.3159453
0.24728295 10.65112 -1.3081456
0.24964343 10.672304 -0.93396091
0.25374568 10.688316 -0.56030881
0.25712129 10.673278 -0.1863568
0.20358038 7.9875445 -2.1409512
0.2744498 10.69485 0.18674076
0.23837158 9.2261543 -2.1307364
0.2781035 10.691706 0.56051815
0.28414002 10.92378 -2.1240859
0.28012133 10.697457 0.93622696
0.28041327 10.637659 -1.685425
0.28407931 10.705806 1.3149704
0.28435764 10.646224 -1.3076582
0.28609487 10.641493 -0.9313463
0.29002303 10.649431 -0.55832005
0.29393309 10.656323 -0.18607756
0.23151895 7.9887161 -2.1414688
0.31125337 10.675837 0.18642659
0.2706306 9.2272148 -2.1311862
0.31577909 10.702648 0.56114614
0.32233018 10.924684 -2.1244676
0.31769487 10.704381 0.93692428
0.31618592 10.591203 -1.6782292
0.32115275 10.694827 1.3137517
0.32163578 10.649135 -1.3081456
0.32371554 10.656361 -0.93274075
0.3277446 10.666322 -0.5592621
0.33150434 10.667225 -0.18628699
0.25965253 7.9955831 -2.1435394
0.34858525 10.676685 0.18646152
0.30258471 9.2184229 -2.1293867
0.35260716 10.685512 0.56030881
0.36033064 10.919567 -2.1237042
0.35519317 10.707189 0.93727285
0.3543421 10.625571 -1.6838609
0.35794839 10.67777 1.3118018
0.35787311 10.620172 -1.3047333
0.35969993 10.619323 -0.9296031
0.36395317 10.635171 -0.55769199
0.36852834 10.660007 -0.18618228
0.28755906 7.9946284 -2.1435394
0.38563785 10.669408 0.1863568
0.33475921 9.2173109 -2.1293867
0.38975653 10.680225 0.56009948
0.39844257 10.918242 -2.1237042
0.39205784 10.691946 0.93605268
0.39070058 10.604529 -1.6807321
0.39499602 10.670504 1.3110704
0.39457616 10.608939 -1.3035146
0.39758226 10.639904 -0.93152058
0.40130332 10.639823 -0.55800605
0.40421799 10.618691 -0.18548417
0.3152335 7.9877839 -2.1419864
0.42303482 10.671991 0.18642659
0.36724412 9.2238741 -2.1311862
0.42493582 10.672885 0.55978543
0.43616265 10.906978 -2.1217961
0.42897525 10.680558 0.93518108
0.42779732 10.605074 -1.6810449
0.43176132 10.657159 1.3096081
0.43144223 10.60353 -1.3030272
0.43464154 10.636461 -0.9313463
0.43860301 10.642348 -0.55821538
0.44041881 10.641268 -0.18590303
0.34253588 7.973125 -2.1383629
0.45713252 10.640563 0.18590303
0.39740786 9.2128725 -2.1289368
0.46149495 10.655374 0.55894804
0.47423011 10.905389 -2.1217961
0.46633944 10.680986 0.93535542
0.46244356 10.591756 -1.6791677
0.46709722 10.655668 1.3096081
0.46721128 10.615924 -1.3047333
0.47150496 10.628906 -0.93082333
0.47442296 10.652807 -0.55884337
0.47702593 10.62768 -0.18569361
0.36951193 7.9835234 -2.1414688
0.49492469 10.652885 0.18614736
0.42965317 9.2133751 -2.1293867
0.49924949 10.665668 0.55957609
0.51057768 10.907679 -2.1225593
0.50063717 10.655499 0.93326366
0.49894542 10.580213 -1.6776035
0.50391704 10.646042 1.3086332
0.50407934 10.610262 -1.3042458
0.50822073 10.619236 -0.93012613
0.51084155 10.635127 -0.55800605
0.51469815 10.637934 -0.18590303
0.39915437 7.9898343 -2.1435394
0.53140652 10.637113 0.18590303
0.46161854 9.2079268 -2.1284869
0.53617841 10.657877 0.5592621
0.55025357 10.899851 -2.1214147
0.54059303 10.671502 0.93483251
0.5372268 10.568449 -1.6760391
0.54077601 10.638269 1.3079019
0.54111075 10.608438 -1.3042458
0.54579937 10.627345 -0.93099761
0.54940289 10.625205 -0.55758733
0.55110586 10.622093 -0.18565871
0.42714691 7.9903212 -2.144057
0.57114232 10.649071 0.18614736
0.49525744 9.2042255 -2.128037
0.57294148 10.647963 0.55884337
0.58808899 10.893942 -2.1206512
0.57708883 10.655623 0.93361235
0.57485723 10.580317 -1.6782292
0.57922107 10.626307 1.3066832
0.57890779 10.586561 -1.3018084
0.58102989 10.591557 -0.92803437
0.5857206 10.609262 -0.55685461
0.58828384 10.622102 -0.18569361
0.45459077 7.9810658 -2.1419864
0.60496724 10.621165 0.18569361
0.52589077 9.2044792 -2.1284869
0.61045194 10.65188 0.55915743
0.62600261 10.889864 -2.1202698
0.61416346 10.651554 0.93343794
0.61051118 10.588212 -1.6797936
0.61456853 10.626309 1.306927
0.61401385 10.584583 -1.3018084
0.61927742 10.611342 -0.92995173
0.62055176 10.60128 -0.55654061
0.62418562 10.600021 -0.18534456
0.48024288 7.9660163 -2.1383629
0.64240324 10.624977 0.18579833
0.55801964 9.2025871 -2.1284869
0.64629447 10.627755 0.55800605
0.66234225 10.891647 -2.121033
0.6485095 10.63355 0.93204349
0.6461435 10.564328 -1.6763519
0.65129066 10.618155 1.3061957
0.65119374 10.58634 -1.3022959
0.65287066 10.583378 -0.92768568
0.6580407 10.607023 -0.55695927
0.66118568 10.597778 -0.18534456
0.5082947 7.9681478 -2.1393983
0.67859668 10.608701 0.185554
0.59013289 9.2005835 -2.1284869
0.68377566 10.631413 0.55832005
0.70061213 10.893188 -2.1217961
0.68588287 10.635199 0.93239218
0.68173391 10.542295 -1.6732231
0.68835384 10.615816 1.3061957
0.68814582 10.584002 -1.3022959
0.69058001 10.592964 -0.92873156
0.69467306 10.598682 -0.55664527
0.69790953 10.591414 -0.18527475
0.53675622 7.9759612 -2.1419864
0.71602541 10.612251 0.18565871
0.62106407 9.1809683 -2.1244378
0.720074 10.617006 0.55769199
0.738635 10.890676 -2.1217961
0.72259474 10.626776 0.93186915
0.71866643 10.541822 -1.6735362
0.72432566 10.597505 1.3042458
0.72345585 10.55777 -1.2993711
0.726053 10.568625 -0.9268142
0.73028708 10.576268 -0.55559856
0.73584819 10.602879 -0.18551907
0.56472528 7.9759669 -2.1425042
0.75235963 10.599714 0.18548417
0.65352523 9.184577 -2.1257875
0.75698048 10.612436 0.55758733
0.7763592 10.884114 -2.121033
0.75982964 10.626176 0.93204349
0.75588638 10.54516 -1.6744747
0.76159579 10.598872 1.3047333
0.76002258 10.551221 -1.2988837
0.76452106 10.587885 -0.92873156
0.76705903 10.571662 -0.55549389
0.77125293 10.578307 -0.18513513
0.59242201 7.9720201 -2.1419864
0.79009545 10.606995 0.18565871
0.68557948 9.1822395 -2.1257875
0.7925325 10.589812 0.55654061
0.8142035 10.87938 -2.1206512
0.79647297 10.617498 0.93152058
0.79224473 10.536549 -1.6735362
0.79828751 10.592191 1.3042458
0.79625326 10.540585 -1.2979087
0.79921639 10.555352 -0.92611688
0.80441362 10.574895 -0.55580795
0.80847585 10.579537 -0.18520494
0.62024432 7.9699035 -2.1419864
0.82540828 10.582242 0.18527475
0.71884483 9.1953325 -2.1293867
0.83105081 10.606893 0.55758733
0.85324579 10.890173 -2.1233225
0.83290386 10.606708 0.93082333
0.82948703 10.539626 -1.6744747
0.83587831 10.597254 1.3052207
0.83288324 10.535763 -1.2976649
0.83511525 10.540581 -0.925071
0.84005213 10.556094 -0.5549705
0.84412867 10.560705 -0.18492571
0.64743644 7.9599886 -2.1399159
0.86201501 10.57531 0.18520494
0.74966693 9.1772299 -2.1257875
0.86573511 10.598106 0.55727333
0.89093703 10.883215 -2.1225593
0.86959511 10.599765 0.9304747
0.86546057 10.526823 -1.6729103
0.87221545 10.586359 1.3042458
0.86732537 10.527007 -1.2969337
0.87173712 10.535616 -0.92489672
0.87788481 10.565041 -0.55559856
0.87914252 10.557847 -0.18492571
0.67415732 7.9616475 -2.1409512
0.89725119 10.574386 0.18523984
0.78009379 9.1746931 -2.1257875
0.9000268 10.585227 0.55674994
0.92735851 10.884112 -2.1233225
0.9044044 10.592852 0.93012613
0.89985675 10.517991 -1.6719718
0.90596277 10.567586 1.3022959
0.90189326 10.520117 -1.2964462
0.90752202 10.542593 -0.92576832
0.91068202 10.536203 -0.55423784
0.91518193 10.566828 -0.18513513
0.70089251 7.9632163 -2.1419864
0.93248582 10.573344 0.18527475
0.81085938 9.1759377 -2.1266873
0.936445 10.576053 0.55643594
0.96240526 10.869244 -2.121033
0.9402287 10.597733 0.93082333
0.93438387 10.511014 -1.6713461
0.94135123 10.568478 1.3027834
0.93754888 10.505042 -1.2949837
0.94319022 10.547462 -0.92646551
0.94597149 10.537105 -0.55444717
0.95116681 10.55361 -0.1849606
0.72833121 7.9568744 -2.1409512
0.96883798 10.564052 0.18517004
0.84360015 9.1808138 -2.1284869
0.97243887 10.562776 0.55591261
1.0006979 10.869729 -2.1217961
0.97629875 10.584467 0.92995173
0.9712531 10.509655 -1.671659
0.97805613 10.56315 1.3025397
0.97421032 10.501705 -1.2949837
0.9792673 10.536171 -0.92576832
0.98311585 10.537716 -0.55465651
0.98707044 10.54027 -0.18478608
0.75537229 7.9465904 -2.1388805
1.0055207 10.558615 0.18513513
0.87563574 9.1778135 -2.1284869
1.0089265 10.555339 0.55570322
1.0386372 10.86617 -2.1217961
1.0122927 10.571078 0.92908025
1.0064163 10.49047 -1.6691558
1.0156798 10.567575 1.3035146
1.0097234 10.486384 -1.2935213
1.0139278 10.510874 -0.92385083
1.0200887 10.536207 -0.55476117
1.0236613 10.534771 -0.18475117
0.78348768 7.9477506 -2.1399159
1.0413861 10.54509 0.1849606
0.90766943 9.1747007 -2.1284869
1.0473441 10.567653 0.55654061
1.0765637 10.862477 -2.1217961
1.0491843 10.56748 0.92908025
1.0434226 10.490824 -1.6697817
1.0511866 10.550138 1.3018084
1.048291 10.502549 -1.2959588
1.0494249 10.495376 -0.92280495
1.0542661 10.506748 -0.55340046
1.0612324 10.539091 -0.18489081
0.81122035 7.9449677 -2.1399159
1.0777849 10.537412 0.18489081
0.93850029 9.1598454 -2.1257875
1.0842185 10.563934 0.55654061
1.1148677 10.86256 -2.1225593
1.0864756 10.567717 0.92942882
1.0794315 10.481222 -1.668843
1.0879997 10.546406 1.3018084
1.0837238 10.486979 -1.2944963
1.0879034 10.509484 -0.92437381
1.0919696 10.512937 -0.55392385
1.0961413 10.517424 -0.18457665
0.83895057 7.9420872 -2.1399159
1.1130908 10.519666 0.18464647
0.97087717 9.160388 -2.1266873
1.1181378 10.53228 0.55507523
1.1523666 10.854697 -2.1217961
1.122728 10.557917 0.9289059
1.1174737 10.491141 -1.6710331
1.1241781 10.536622 1.3010772
1.1203264 10.483131 -1.2944963
1.1256397 10.515528 -0.92524534
1.1284496 10.507074 -0.55381918
1.1334929 10.519498 -0.18468137
0.86708611 7.9429512 -2.1409512
1.1519706 10.535594 0.1849955
1.0036981 9.1646929 -2.1284869
1.1548934 10.528314 0.55507523
1.1898191 10.846705 -2.121033
1.1576095 10.536109 0.92733705
1.1534425 10.481285 -1.6700946
1.1624761 10.546446 1.3027834
1.156034 10.471265 -1.2935213
1.159933 10.489752 -0.92332792
1.166213 10.512999 -0.55434251
1.1679969 10.495602 -0.18433231
0.89394355 7.9321971 -2.1388805
1.1873968 10.519587 0.18478608
1.0356808 9.1611338 -2.1284869
1.1925385 10.532154 0.55549389
1.2272351 10.838584 -2.1202698
1.1950567 10.537944 0.92786002
1.1882364 10.461494 -1.6675917
1.1995051 10.544296 1.3030272
1.1930306 10.471109 -1.2940087
1.1956362 10.47772 -0.92263067
1.2022244 10.502909 -0.55402851
1.2059927 10.503381 -0.18454175
0.92162877 7.929028 -2.1388805
1.2238764 10.513392 0.18475117
1.0676509 9.1574621 -2.1284869
1.2274557 10.528142 0.55549389
1.2655195 10.838134 -2.121033
1.2316 10.531729 0.92768568
1.2224464 10.437662 -1.6644629
1.2342257 10.522301 1.3008335
1.229109 10.462939 -1.2935213
1.2328992 10.47942 -0.92315364
1.2381748 10.4927 -0.55371451
1.2408144 10.499324 -0.18454175
0.94975853 7.9295993 -2.1399159
