# .PCD v0.7 - Point Cloud Data file format
VERSION 0.7
FIELDS x y z
SIZE 4 4 4
TYPE F F F
COUNT 1 1 1
WIDTH 1463
HEIGHT 1
VIEWPOINT 0 0 0 1 0 0 0
POINTS 1463
DATA ascii
3.0228331 -13.760082 -1.7298136
4.0682454 -18.534283 -1.6601425
6.7065105 -30.604813 -1.6419884
1.5141418 -6.9678478 -1.9106023
1.7182781 -7.9205728 -1.871143
2.0220532 -9.3287125 -1.8554269
2.3721724 -10.962469 -1.7764701
2.9726872 -13.760849 -1.7285949
3.9732573 -18.408148 -1.6475922
6.6030035 -30.643656 -1.6428258
1.4906182 -6.9768686 -1.9116375
1.6959039 -7.9512987 -1.8769917
1.9935681 -9.3549156 -1.8592429
2.3675978 -11.129116 -1.8021252
2.9522655 -13.901241 -1.7449254
4.3055835 -20.290993 -1.8147568
6.5224853 -30.791567 -1.6495248
1.4793564 -7.0444198 -1.9287195
1.6769346 -7.9991302 -1.8868895
1.9870635 -9.4867182 -1.8840481
2.3263094 -11.125711 -1.800248
2.9191358 -13.985304 -1.7541875
4.148087 -19.890459 -1.7776285
6.3677459 -30.587326 -1.6373829
1.4414837 -6.9852138 -1.9111199
1.6403519 -7.9629445 -1.8769917
1.9590825 -9.5185947 -1.8890091
2.2604263 -11.002188 -1.778973
2.834805 -13.822338 -1.7324947
4.162221 -20.31275 -1.8140596
6.3529921 -31.059422 -1.6614574
1.4335955 -7.0716162 -1.9333783
1.5959266 -7.8864913 -1.8576458
1.9161166 -9.4772682 -1.8794687
2.2419386 -11.108764 -1.7949294
2.7935948 -13.867177 -1.7368821
3.8605261 -19.180614 -1.7117388
6.2358794 -31.038328 -1.6591547
1.4134295 -7.0993133 -1.93959
1.5972562 -8.0372782 -1.8918384
1.9059644 -9.5994377 -1.9023658
2.2066028 -11.133962 -1.7977451
2.7155106 -13.726897 -1.7181141
4.0056295 -20.267036 -1.8074358
6.1321359 -31.08342 -1.6604108
1.3727046 -7.0226774 -1.9173316
1.5557566 -7.9739475 -1.8756418
1.873571 -9.6118135 -1.9035107
2.1869659 -11.240486 -1.8137014
2.6721191 -13.759677 -1.7210391
3.9341033 -20.276983 -1.8070872
6.1040983 -31.520334 -1.6826012
1.3627406 -7.1033158 -1.9380372
1.5312119 -7.9965544 -1.8796909
1.8282034 -9.5565901 -1.8912989
2.1221533 -11.114169 -1.7921134
2.6590054 -13.95222 -1.7439504
3.8163421 -20.043982 -1.7851238
6.0290875 -31.725889 -1.6924403
1.3240008 -7.033988 -1.9178492
6.1036854 -32.458061 0.5764879
1.498251 -7.9750385 -1.8733923
1.7955587 -9.5667715 -1.8920621
2.0938907 -11.177816 -1.8011867
2.5840192 -13.820924 -1.7264012
1.31908 -7.1449518 -1.9468369
1.4608701 -7.9284744 -1.8612449
1.7671291 -9.6000137 -1.8974047
2.0830588 -11.338543 -1.8259033
2.5654736 -13.991921 -1.7466316
3.5409846 -19.331297 -1.7194084
5.6084709 -30.678762 -1.6344521
1.2841526 -7.0943851 -1.9318254
1.4179435 -7.8491468 -1.8414494
1.716174 -9.5095205 -1.8783239
2.0462666 -11.361299 -1.8284062
2.5225887 -14.034005 -1.7507752
3.5759535 -19.914198 -1.7701331
5.7303538 -31.976015 -1.7024889
1.2506076 -7.0493684 -1.9183668
5.7114625 -32.226814 0.5712871
1.3796635 -7.7926435 -1.8270525
1.6990395 -9.6063166 -1.8962599
1.9986995 -11.323628 -1.8212101
2.460499 -13.968435 -1.7415131
3.3430979 -18.998421 -1.6876837
5.3057222 -30.213579 -1.6076561
1.2461724 -7.1697931 -1.9499428
1.3948187 -8.0333376 -1.8823904
1.6135442 -9.3123522 -1.8371091
1.9560839 -11.300999 -1.8165172
2.4145021 -13.978475 -1.7417568
3.117017 -18.083233 -1.6054087
5.3790307 -31.238771 -1.6612481
1.2188191 -7.1529384 -1.9442488
1.3412895 -7.8883071 -1.8472981
5.596436 -32.948227 1.7514753
1.6079686 -9.4666872 -1.8664937
1.9321404 -11.399294 -1.8312221
2.4024396 -14.204077 -1.7688118
3.433439 -20.321264 -1.8030781
5.3821869 -31.923037 -1.6966273
1.1801764 -7.075211 -1.9219903
1.3169453 -7.9121642 -1.8517971
5.4584632 -32.829639 1.7441481
1.5855408 -9.5361519 -1.8790871
1.8878099 -11.378688 -1.8268418
2.3402004 -14.135997 -1.759306
5.2967348 -32.099281 -1.705001
1.1616967 -7.1174207 -1.9323431
1.3184503 -8.0955887 -1.8936379
5.3348565 -32.793297 1.7412174
1.5396351 -9.4641171 -1.8638223
1.8525113 -11.412505 -1.8312221
2.3282926 -14.375308 -1.7880672
3.1177478 -19.270859 -1.7079039
5.1891108 -32.14518 -1.7064664
1.1359305 -7.1157093 -1.9307902
1.2837471 -8.0597277 -1.8841901
5.2624011 -33.076031 1.7552435
1.4985679 -9.4190235 -1.8539003
1.7947015 -11.305747 -1.8130757
2.2656775 -14.304922 -1.7783177
3.0411224 -19.222586 -1.7026746
5.0619264 -32.068398 -1.7014421
1.1191285 -7.1711669 -1.9447664
1.2568036 -8.0718622 -1.8859898
1.4804647 -9.5192537 -1.8725995
1.7612821 -11.350983 -1.819333
2.22879 -14.397097 -1.7887983
3.17099 -20.507023 -1.8154541
4.9499545 -32.085873 -1.7014421
1.085353 -7.1177363 -1.9292372
1.2189486 -8.0126228 -1.871143
1.4436879 -9.5010729 -1.8680203
1.7408948 -11.484011 -1.8396695
2.1862369 -14.455821 -1.7951355
3.0502872 -20.192909 -1.7866927
4.8093505 -31.913359 -1.6913936
1.0593625 -7.1138387 -1.9271667
1.2081543 -8.1324835 -1.8981371
1.4151244 -9.5371256 -1.8741261
1.6880687 -11.404039 -1.8259033
2.126775 -14.402486 -1.7875797
2.9597204 -20.06743 -1.7746652
4.7083926 -32.001087 -1.6951618
1.0273 -7.0677876 -1.9137081
1.1811792 -8.136445 -1.8981371
1.3764796 -9.5050898 -1.8668753
1.6689074 -11.538606 -1.8465527
2.0863726 -14.460544 -1.7939168
2.917187 -20.268929 -1.7915735
4.5954261 -31.969082 -1.6926497
1.0187908 -7.176352 -1.9421781
1.1626066 -8.20998 -1.9143335
1.3455015 -9.5134897 -1.8676385
1.6407597 -11.630425 -1.8603188
2.0375428 -14.479533 -1.7953793
2.8264794 -20.136929 -1.7790229
4.5242863 -32.273705 -1.7079319
0.98745537 -7.1436787 -1.9323431
1.1214159 -8.1232586 -1.8931881
1.3146408 -9.5475321 -1.8733629
1.5957019 -11.618748 -1.8575031
1.9988575 -14.573092 -1.8061038
2.7783127 -20.30854 -1.7933165
4.4070501 -32.297981 -1.7083505
0.96070796 -7.1336794 -1.9287195
1.097342 -8.1698046 -1.9030858
1.2920069 -9.6318407 -1.8890091
1.5567079 -11.635995 -1.8593802
1.9601313 -14.690508 -1.8197533
2.7200394 -20.412912 -1.8016834
4.2716498 -32.142902 -1.6993487
0.94157732 -7.1810451 -1.9406252
1.0788461 -8.2390957 -1.9183826
1.2469375 -9.5486898 -1.8718363
1.51377 -11.607794 -1.8540615
1.9096143 -14.683148 -1.818047
2.6710629 -20.594179 -1.8168485
4.1804318 -32.275734 -1.7056289
0.91922748 -7.1956263 -1.9437311
1.051558 -8.2544088 -1.9210819
1.2338476 -9.6988382 -1.9004576
1.4724973 -11.607128 -1.8531229
1.8381679 -14.530202 -1.7983042
2.609 -20.652342 -1.8212065
4.0747313 -32.345612 -1.7085598
0.88743806 -7.1451111 -1.9292372
1.0337559 -8.3469925 -1.9417773
1.1946846 -9.6602221 -1.8920621
1.4312449 -11.606315 -1.8521842
1.8111804 -14.729615 -1.8221905
2.5337346 -20.635614 -1.8189403
3.9812157 -32.518234 -1.7169335
0.85485548 -7.0848737 -1.9121553
1.0022854 -8.3312016 -1.9372785
1.146439 -9.5434809 -1.8684019
1.7338604 -14.519029 -1.7953793
2.4741924 -20.749189 -1.8281789
3.8521183 -32.401035 -1.7100251
0.83191615 -7.1031642 -1.9162962
0.95263171 -8.1585112 -1.8963374
1.1135734 -9.5513239 -1.8691651
1.6845394 -14.536824 -1.7968417
2.3946469 -20.696344 -1.8227752
3.7673767 -32.660313 -1.7230045
0.80886126 -7.1213808 -1.9204375
0.92853123 -8.2005138 -1.9053354
1.0751545 -9.5102835 -1.8603877
1.3029914 -11.561779 -1.8427982
1.6371102 -14.572206 -1.8004979
2.3477087 -20.93029 -1.8426466
3.60674 -32.256443 -1.7010235
0.78611106 -7.143364 -1.9256139
0.91413808 -8.3334923 -1.9354788
1.0201498 -9.3149176 -1.8214628
1.2649844 -11.587857 -1.8462398
1.5750672 -14.475212 -1.7878234
2.2449415 -20.665018 -1.8185917
3.3848963 -31.260124 -1.6478502
0.75769258 -7.1134071 -1.9168139
0.87434614 -8.2358637 -1.9120839
0.99259442 -9.3652782 -1.8306217
1.2303362 -11.647207 -1.8550001
1.523284 -14.468777 -1.786361
2.20278 -20.958061 -1.8436925
3.4022708 -32.479473 -1.7114905
0.73068124 -7.0948706 -1.9111199
0.84698379 -8.2524357 -1.9152331
0.96229833 -9.3921213 -1.8352009
1.1882689 -11.637674 -1.85281
1.4830172 -14.574725 -1.7987916
2.126591 -20.935888 -1.8410778
3.274389 -32.34808 -1.7039543
0.71088207 -7.1473594 -1.9245785
0.80971652 -8.1700163 -1.8954376
0.95076895 -9.6103325 -1.8771789
1.1466706 -11.631922 -1.8512456
1.4468808 -14.729959 -1.8173158
2.0719678 -21.131559 -1.8576375
3.171555 -32.462681 -1.7093972
0.6883269 -7.1747966 -1.9313078
0.78545642 -8.2174101 -1.9057853
0.94630623 -9.9184761 -1.9367114
1.0886745 -11.452969 -1.8221489
1.2829738 -13.547193 -1.6708289
1.9897543 -21.049404 -1.8497934
3.0215182 -32.083809 -1.6888814
0.65438908 -7.0809727 -1.9054259
0.76409298 -8.2996645 -1.9242314
0.89083987 -9.6949368 -1.8924437
1.0521119 -11.494075 -1.8280934
1.9052528 -20.935184 -1.8391604
2.9127479 -32.129967 -1.6907655
0.62299639 -7.0081677 -1.8852381
0.73150843 -8.2615166 -1.9147834
0.83590895 -9.4593992 -1.8458863
1.0230678 -11.623614 -1.8481169
1.2675896 -14.45954 -1.7822174
1.8507438 -21.154083 -1.8578118
2.802659 -32.163818 -1.6920216
0.60050225 -7.0333977 -1.8914497
0.70018822 -8.2348938 -1.9080348
0.82413059 -9.712656 -1.8947334
0.98182189 -11.619242 -1.8468655
1.2239345 -14.544978 -1.7922107
1.7682209 -21.057175 -1.8487476
2.6840401 -32.097771 -1.6880441
0.57374054 -7.0084953 -1.8842027
0.67684257 -8.2857265 -1.9192824
0.77542126 -9.533493 -1.8592429
0.94616163 -11.657873 -1.8524972
1.1737757 -14.525214 -1.7892859
1.6838406 -20.928171 -1.8368943
2.5983658 -32.365307 -1.7016513
0.55805868 -7.1066551 -1.9100846
0.63971525 -8.1831274 -1.8949877
0.74746644 -9.5829868 -1.8684019
0.88772428 -11.43265 -1.8162043
1.123217 -14.531202 -1.7895297
1.6300592 -21.136261 -1.8546741
2.4034293 -31.306791 -1.6455473
0.52544385 -7.0045323 -1.8821322
0.6186927 -8.2863646 -1.9183826
0.71415663 -9.5874968 -1.8687835
0.8594963 -11.593275 -1.8412338
1.0749713 -14.568688 -1.7936732
1.551294 -21.074266 -1.8487476
2.2734146 -31.032137 -1.6306839
0.50443554 -7.0544972 -1.8950732
0.5766232 -8.1038094 -1.8756418
0.69055563 -9.7289715 -1.8958783
0.83085078 -11.763695 -1.8678278
1.0346867 -14.722849 -1.8121973
1.4842719 -21.172964 -1.8569403
2.2651391 -32.474426 -1.7060478
0.47626886 -7.0041752 -1.8810968
0.55793422 -8.2477064 -1.9084847
0.66425616 -9.8449326 -1.918012
0.78303695 -11.666005 -1.8518714
0.97059149 -14.536226 -1.7887983
1.398707 -21.003073 -1.8416008
2.1625929 -32.64555 -1.7146307
0.45368159 -7.0347128 -1.8888614
0.51941121 -8.0979137 -1.8733923
0.63126516 -9.8687429 -1.9222099
0.73503464 -11.554328 -1.833725
0.91984594 -14.539525 -1.7887983
1.3322808 -21.117193 -1.8511879
2.0493789 -32.664856 -1.7152588
0.42700696 -7.0015454 -1.879544
0.49444798 -8.1307144 -1.8805909
0.58757085 -9.7180319 -1.8924437
0.63882482 -10.596437 -1.6813577
0.88409597 -14.750556 -1.8143909
1.2681611 -21.282812 -1.8653071
1.9017202 -32.009552 -1.6805077
0.40745616 -7.0665674 -1.8966261
0.46026435 -8.0312223 -1.857196
0.55802995 -9.7669687 -1.9016025
0.66253054 -11.667535 -1.8509328
0.83483815 -14.793192 -1.8192657
1.1849365 -21.127968 -1.8513622
1.7424787 -31.166491 -1.6359174
0.37894964 -7.0197873 -1.8836851
0.4399763 -8.1767778 -1.8904886
0.51646417 -9.6611233 -1.8806137
0.62520975 -11.772459 -1.867202
0.78760183 -14.879272 -1.8295028
1.11076 -21.124018 -1.850665
1.6569933 -31.723162 -1.664807
0.35415131 -7.0152793 -1.8821322
0.4034664 -8.0479336 -1.8603452
0.48822278 -9.7726717 -1.9019842
0.58225387 -11.737084 -1.8612576
0.73110777 -14.842406 -1.824628
1.0478605 -21.348654 -1.8700136
1.5450773 -31.704813 -1.6635509
0.33219969 -7.0705051 -1.8966261
0.38406545 -8.2049561 -1.8963374
0.45601991 -9.8155003 -1.9099981
0.54287195 -11.729083 -1.8596932
0.68616688 -14.93795 -1.8360838
1.4435546 -31.78957 -1.6677377
0.30411631 -6.9654174 -1.868156
1.6053994 -36.917484 0.645006
0.35348386 -8.1614685 -1.8859898
0.41610667 -9.6463146 -1.8767973
0.50513643 -11.805902 -1.8715822
0.63873237 -15.051319 -1.849733
0.90377969 -21.385153 -1.8726283
1.3347571 -31.846298 -1.6704592
0.28538331 -7.1054177 -1.9054259
0.31382778 -7.8822556 -1.8212038
0.38227758 -9.6437845 -1.8760341
0.46399885 -11.809567 -1.8718951
0.57962537 -14.884851 -1.8290153
1.2396846 -32.269878 -1.6924403
0.25576511 -6.9750924 -1.8702265
0.29246584 -8.0527315 -1.8603452
0.34761915 -9.6175938 -1.8706915
0.41676769 -11.643315 -1.8453012
0.53617024 -15.12683 -1.8585076
0.75790745 -21.488506 -1.8811696
1.1321913 -32.421719 -1.700186
0.23167194 -6.9836655 -1.872297
0.26288509 -8.0089064 -1.8499974
0.3137888 -9.610899 -1.8691651
0.38001069 -11.765134 -1.8643861
0.48146409 -15.069087 -1.8511955
0.68048614 -21.415348 -1.8745457
0.99768424 -31.746737 -1.6645976
0.20694976 -6.972846 -1.8691912
0.23446895 -7.9941916 -1.8463982
0.27245709 -9.345046 -1.8172649
0.33786079 -11.728873 -1.8584416
0.43083611 -15.140126 -1.8597264
0.88953352 -31.84586 -1.6696218
0.18427736 -7.0372558 -1.8862734
0.20671432 -8.0008059 -1.847748
0.24734029 -9.6383686 -1.8741261
0.29531884 -11.66679 -1.8484299
0.37065232 -14.847836 -1.823653
0.52657056 -21.24231 -1.859032
0.78110081 -31.960583 -1.6754833
0.15624894 -6.8852787 -1.8453798
0.18052512 -8.0794096 -1.8657441
0.20629705 -9.3055029 -1.809251
0.25415969 -11.647999 -1.8453012
0.31204751 -14.533483 -1.7848985
0.45559883 -21.393414 -1.8721054
0.67145979 -32.054966 -1.6802984
0.13595945 -7.080863 -1.8976613
0.15210198 -8.0683002 -1.8630446
0.17487648 -9.3630905 -1.820318
0.21245036 -11.59154 -1.836228
0.25838611 -14.371731 -1.7649119
0.37794176 -21.227537 -1.8574631
0.56171948 -32.180931 -1.6867881
0.10999833 -7.0020986 -1.8764381
0.12372866 -8.0551424 -1.8598953
0.14284767 -9.4068308 -1.8287135
0.1740673 -11.732447 -1.8584416
0.30298552 -21.168962 -1.8522338
0.45128283 -32.318493 -1.6939057
0.085886002 -7.0294838 -1.8836851
0.096117832 -8.0983944 -1.8697932
0.11451134 -9.7920437 -1.9035107
0.13078146 -11.527557 -1.8259033
0.16645303 -15.1374 -1.8587514
0.2302538 -21.277473 -1.8616467
0.33921564 -32.391766 -1.6976738
0.061128639 -7.0046272 -1.8769557
0.067065679 -8.0051432 -1.8481979
0.078381091 -9.5548372 -1.8573349
0.093304612 -11.87955 -1.8815941
0.11093381 -14.445091 -1.7736866
0.15501818 -21.146654 -1.850142
0.2218257 -31.773621 -1.6652256
0.03786933 -6.9989963 -1.8754028
0.041051619 -8.1105528 -1.8724926
0.04784663 -9.7906342 -1.9031291
0.052887745 -11.654603 -1.8459269
0.063871175 -14.637933 -1.7973293
0.11669239 -31.838095 -1.6685752
0.014772641 -7.053175 -1.8898968
0.013914037 -7.9722838 -1.8405495
0.015408003 -9.8084068 -1.9065636
0.014502007 -11.870029 -1.8800297
0.012729418 -14.586454 -1.790992
0.011156599 -21.310596 -1.8644356
0.011415231 -32.697124 -1.7135839
-0.010896695 -6.9372706 -1.8588384
-0.013927388 -7.9800787 -1.8423492
-0.020722793 -9.8947811 -1.9233549
-0.028854502 -11.808767 -1.8703307
-0.038561471 -14.729336 -1.8085413
-0.063229382 -21.310505 -1.8644356
-0.10775083 -32.493229 -1.7029076
-0.035532866 -7.0202589 -1.8810968
-0.04366089 -8.0696154 -1.8630446
-0.054933235 -9.8357515 -1.9119062
-0.069733605 -11.75131 -1.8612576
-0.13743445 -21.282259 -1.8619952
-0.2201132 -32.336868 -1.694743
-0.060021602 -7.0181603 -1.8805792
-0.072365813 -8.1298218 -1.8769917
-0.088624924 -9.7648258 -1.8981681
-0.10980514 -11.650255 -1.8453012
-0.21103199 -21.211922 -1.8558943
-0.33512458 -32.543613 -1.7056289
-0.084658131 -7.0294986 -1.8836851
-0.10018954 -8.0847025 -1.8666438
-0.1190097 -9.4699917 -1.8409253
-0.15179703 -11.752512 -1.8615704
-0.19397612 -14.62289 -1.7956231
-0.28450993 -21.16922 -1.8522338
-0.45120409 -32.721977 -1.7150494
-0.11000553 -7.0813136 -1.8976613
-0.12730524 -8.1038103 -1.871143
-0.15751794 -9.8091173 -1.9069452
-0.18993576 -11.700591 -1.8534358
-0.24072249 -14.516969 -1.7827048
-0.36005583 -21.265709 -1.860775
-0.39034453 -22.819344 -1.1960862
-0.13268578 -7.0384178 -1.8862734
-0.44347066 -23.308231 0.40692031
-0.19035108 -9.8242445 -1.9099981
-0.23077622 -11.699856 -1.8534358
-0.43172246 -21.13883 -1.8497934
-0.46909225 -22.773909 -1.1937833
-0.15891784 -7.0571971 -1.8914497
-0.52374905 -23.258562 0.4060826
-0.22558762 -9.7901144 -1.9035107
-0.27453467 -11.736454 -1.8593802
-0.3393499 -14.399833 -1.7685682
-0.50707811 -21.202923 -1.8555458
-0.55362594 -22.815966 -1.1960862
-0.5692808 -23.293495 -0.40671089
-0.18259603 -7.0199065 -1.8816146
-0.61171484 -23.360435 0.40789765
-0.21490751 -8.1526461 -1.8828404
-0.25403193 -9.5733862 -1.8615327
-0.28317067 -10.532853 -1.668843
-0.39680818 -14.664464 -1.801229
-0.63758564 -22.969618 -1.2042505
-0.64332891 -23.031507 -0.40217325
-0.20661126 -7.0443659 -1.8883438
-0.24130584 -8.1304617 -1.8778914
-0.29175302 -9.7726526 -1.9004576
-0.4422411 -14.557907 -1.7883109
-0.65334594 -21.262705 -1.8611236
-0.71784759 -23.099133 -1.2111588
-0.69434142 -22.217768 -0.38800189
-0.22845571 -6.9973021 -1.8759204
-0.26351038 -7.9854889 -1.8445988
-0.32227141 -9.7147284 -1.8893907
-0.38372895 -11.446805 -1.8140143
-0.50199139 -14.820141 -1.8207282
-0.72805625 -21.383881 -1.871931
-0.79368877 -23.074671 -1.2100074
-0.80897039 -23.282404 -0.40664107
-0.25357828 -7.0157681 -1.8810968
-0.29216528 -8.0059414 -1.8495475
-0.35524407 -9.6880398 -1.8844297
-0.43216038 -11.674383 -1.8503071
-0.55357248 -14.814331 -1.8202407
-0.80441773 -21.427 -1.8759401
-0.87075144 -22.979952 -1.2051926
-0.87892473 -22.983698 -0.40147516
-0.27852482 -7.0264215 -1.8842027
-0.318786 -7.9717712 -1.8418993
-0.39181617 -9.7553978 -1.8977863
-0.47122997 -11.631353 -1.8437368
-0.60876626 -14.897595 -1.8307214
-0.87904167 -21.42008 -1.8755915
-0.94955498 -22.942846 -1.2034131
-0.95598197 -22.904568 -0.40014878
-0.30405003 -7.0485678 -1.8904144
-0.9684214 -22.359631 0.39065465
-0.35355234 -8.1302557 -1.8787912
-0.42278504 -9.683362 -1.8840481
-0.51295614 -11.655293 -1.8478041
-0.66648352 -15.024284 -1.8465644
-0.95008147 -21.333286 -1.8682704
-1.0252471 -22.841625 -1.1982843
-1.0380948 -22.949038 -0.40098649
-0.32802168 -7.0339556 -1.886791
-1.0448762 -22.322155 0.39006129
-0.37260154 -7.9304199 -1.8329012
-0.45436323 -9.6347609 -1.8748893
-0.55973256 -11.781687 -1.8681406
-0.71398991 -14.918759 -1.83389
-1.0480613 -21.819403 -1.9111512
-1.1026571 -22.79003 -1.1957721
-1.1304604 -23.196934 -0.40538448
-0.351895 -7.0192618 -1.8831675
-1.1253011 -22.368301 0.3909339
-0.40814203 -8.0847712 -1.8688934
-0.49276006 -9.7272329 -1.8932071
-0.58998591 -11.566597 -1.8343508
-0.77715832 -15.132267 -1.8604575
-1.1218585 -21.769848 -1.907142
-1.1764079 -22.674345 -1.1899104
-1.2197711 -23.352604 -0.40817687
-0.37608531 -7.0122032 -1.8816146
-1.2100338 -22.488039 0.393098
-0.42806131 -7.9295712 -1.8333511
-0.52915359 -9.7705412 -1.9019842
-0.64261287 -11.789327 -1.8700178
-0.8285619 -15.103694 -1.857289
-1.1921964 -21.594503 -1.8921511
-1.2667019 -22.871515 -1.2004824
-1.2874789 -23.100628 -0.40384868
-0.39968297 -6.9741321 -1.8717794
-1.2825755 -22.379866 0.39128298
-0.45473269 -7.9105182 -1.8293018
-1.3303189 -23.071962 1.2111588
-0.56314737 -9.7371769 -1.8958783
-0.66860729 -11.491085 -1.8230875
-0.82634366 -14.159392 -1.7415131
-1.2813479 -21.824907 -1.9127198
-1.3385112 -22.663353 -1.1898057
-1.331097 -22.471184 -0.3929235
-0.42425951 -6.9765515 -1.8728148
-1.3872354 -22.746267 0.39777526
-0.48550779 -7.9379754 -1.8360505
-0.59821391 -9.7527876 -1.8993129
-0.7216087 -11.697675 -1.8562515
-0.87368554 -14.082962 -1.7324947
-1.363091 -21.909788 -1.9205639
-1.4106269 -22.546913 -1.1839441
-1.4243734 -22.639784 -0.39596021
-0.44984978 -6.9943066 -1.8779911
-1.5224785 -23.607357 0.41292396
-0.50956589 -7.8798361 -1.8230033
-1.5028796 -23.177452 1.2172298
-0.6333974 -9.7682724 -1.9027474
-0.74598676 -11.442773 -1.8162043
-1.4432185 -21.960562 -1.9254446
-1.4822149 -22.434237 -1.1782919
-1.5116094 -22.758383 -0.39812428
-0.47988218 -7.075573 -1.9002496
-1.5785593 -23.214851 0.4061524
-0.54078007 -7.9324489 -1.8356007
-0.67030281 -9.8071346 -1.9107615
-0.80041176 -11.650967 -1.8496813
-1.0158769 -14.71222 -1.8107349
-1.5646727 -22.488697 -1.181432
-1.6040152 -22.938486 -0.40137044
-0.50017941 -7.0121918 -1.8836851
-1.6467462 -23.029684 0.40301096
-0.57390016 -8.0063171 -1.8531467
-0.70185882 -9.7675295 -1.9035107
-0.83467466 -11.55944 -1.8356022
-1.0883439 -14.999627 -1.8465644
-1.5956298 -21.93803 -1.9243988
-1.647534 -22.542856 -1.1845721
-1.6777762 -22.846992 -0.39986953
-0.52623957 -7.0315948 -1.889379
-1.7166572 -22.884209 0.40056765
-0.60388887 -8.0314722 -1.8594455
-0.74435866 -9.8766088 -1.9252628
-0.86636829 -11.442212 -1.8174559
-1.0762534 -14.148564 -1.7422442
-1.7268212 -22.544933 -1.1849908
-1.7553724 -22.813082 -0.39938086
-0.55229044 -7.048974 -1.8945554
-1.8002826 -22.925924 0.40140536
-0.63360232 -8.0506849 -1.8643943
-0.76817822 -9.7389059 -1.8989313
-0.90193558 -11.383979 -1.8086954
-1.2012215 -15.094563 -1.8592389
-1.7389263 -21.803217 -1.9135915
-1.8093328 -22.58655 -1.187503
-1.8231245 -22.659317 -0.39679793
-0.57768083 -7.0566306 -1.8971437
-1.8724475 -22.823835 0.39972994
-0.66058308 -8.0348291 -1.8612449
-0.80023444 -9.7126846 -1.8943518
-0.95258152 -11.512661 -1.8296577
-1.1598796 -13.958705 -1.7198203
-1.7978265 -21.590521 -1.8954631
-1.8858368 -22.552233 -1.1860375
-1.9037668 -22.718904 -0.39794978
-0.60000819 -7.0276237 -1.8898968
-1.9430214 -22.757729 0.3986828
-0.70283914 -8.2151089 -1.903536
-0.74389672 -8.6594334 -1.6894228
-0.98634934 -11.45827 -1.8215232
-1.2846211 -14.862556 -1.8316964
-1.8767987 -21.625797 -1.8991235
-1.9497123 -22.4205 -1.1794432
-2.0034075 -22.945198 -0.40203363
-0.6171636 -6.9563203 -1.8712618
-2.141438 -24.089323 0.42213881
-0.71646857 -8.0437336 -1.8643943
-1.040442 -11.612156 -1.8465527
-1.3469883 -14.97463 -1.846077
-1.949755 -21.633345 -1.9003438
-2.0403788 -22.55081 -1.1866657
-2.0563769 -22.68351 -0.39756581
-0.65386277 -7.0887818 -1.9074965
-2.1812699 -23.647999 0.41452956
-0.75013268 -8.116992 -1.8819405
-0.89639759 -9.6628771 -1.8863379
-1.3866798 -14.86335 -1.8329151
-2.0518229 -21.910078 -1.9252702
-2.1420159 -22.830267 -1.2017384
-2.1231709 -22.544798 -0.39526209
-0.68049157 -7.1192665 -1.9162962
-2.2660918 -23.664127 0.4149484
-0.78143859 -8.1453619 -1.8891391
-0.93970597 -9.7771063 -1.9092349
-1.462658 -15.107376 -1.8636261
-2.1319501 -21.94046 -1.9285822
-2.2054384 -22.65567 -1.1929458
-2.1839631 -22.354147 -0.39205086
-0.70371681 -7.0878892 -1.9085318
-0.81006062 -8.1445246 -1.889589
-0.97007501 -9.7188978 -1.8985497
-1.1631671 -11.612417 -1.8484299
-1.5157804 -15.106129 -1.8641136
-2.1111128 -20.96549 -1.8435181
-2.2856498 -22.619614 -1.1914805
-2.3268278 -22.987017 -0.40329021
-0.73260313 -7.1257458 -1.9194021
-0.83650672 -8.1085453 -1.8819405
-0.99672949 -9.6451492 -1.8848113
-1.1973794 -11.547377 -1.8387309
-1.587159 -15.254478 -1.8831252
-2.2995288 -22.063759 -1.9407841
-2.3845384 -22.802193 -1.2015289
-2.409137 -22.998642 -0.40363926
-0.75318241 -7.0828037 -1.9085318
-0.85637176 -8.0398436 -1.8666438
-1.0508355 -9.832921 -1.9222099
-1.2402912 -11.586554 -1.845614
-2.380161 -22.089273 -1.9437474
-3.872051 -35.876133 -1.8911077
-2.4390299 -22.524885 -0.39547154
-0.77856094 -7.0975494 -1.9131904
-0.89274555 -8.1123495 -1.8841901
-1.0337502 -9.3786011 -1.8340561
-1.296142 -11.721555 -1.8678278
-2.461437 -22.118452 -1.9470592
-4.0689473 -36.505527 -1.9250213
-2.508976 -22.438728 -0.39411023
-0.80174059 -7.0696945 -1.9064611
-0.91643822 -8.0685215 -1.8747422
-1.1092334 -9.7356167 -1.9046555
-1.3236183 -11.581307 -1.8462398
-1.7606355 -15.381297 -1.9009181
-2.5434036 -22.151295 -1.9507198
-4.2210021 -36.649101 -1.933395
-2.5907216 -22.459633 -0.39463383
-0.82686168 -7.0706902 -1.9074965
-0.93851304 -8.0012388 -1.8598953
-1.1345053 -9.6575909 -1.890154
-1.3686599 -11.615851 -1.8524972
-2.6354642 -22.26693 -1.9617014
-4.2561369 -35.852711 -1.8921545
-2.7444143 -23.083895 -0.40576845
-0.84968948 -7.0524168 -1.9033554
-0.98044837 -8.1257734 -1.889589
-1.1634938 -9.6145897 -1.8825216
-1.430699 -11.80539 -1.8834713
-1.691452 -13.916306 -1.7212827
-2.7225773 -22.334728 -1.9684995
-4.532804 -37.131016 -1.9604003
-2.8179288 -23.016611 -0.40475622
-0.8733092 -7.0514774 -1.903873
-1.0112077 -8.1416388 -1.8940878
-1.1696838 -9.4041662 -1.8420701
-1.4418254 -11.559222 -1.8449883
-2.8055429 -22.396746 -1.9747747
-0.90450913 -7.1001287 -1.9178492
-1.0364121 -8.1129303 -1.888239
-1.2588049 -9.8401356 -1.9283159
-1.4866904 -11.589386 -1.85062
-1.9349509 -15.042165 -1.8621637
-2.8862484 -22.406578 -1.9765179
-4.7182312 -36.527996 -1.9302548
-2.9985785 -23.151062 -0.40747881
-0.92226481 -7.0432935 -1.9033554
-1.0586362 -8.062892 -1.8774415
-1.2941684 -9.8434668 -1.9298422
-1.4992512 -11.372616 -1.81683
-2.0069568 -15.182917 -1.880444
-2.982223 -22.530678 -1.9883711
-4.8646245 -36.653854 -1.9377912
-0.94967765 -7.0610924 -1.9090494
-0.9922384 -7.3580999 -1.7141271
-1.1619631 -8.6053801 -1.6878965
-1.5423869 -11.39276 -1.8208973
-2.0164199 -14.855189 -1.8407148
-3.0847335 -22.695837 -2.0038848
-5.1031046 -37.448025 -1.9807067
-0.9707135 -7.0406799 -1.9043906
-1.1193634 -8.0979681 -1.8873394
-1.5872177 -11.438456 -1.8290319
-3.1781211 -22.815722 -2.0153892
-5.2029514 -37.256828 -1.9714956
-0.99203712 -7.0142956 -1.8981789
-1.3910452 -9.7985182 -1.9237365
-1.6655445 -11.702728 -1.8722079
-2.1303871 -14.93152 -1.8519267
-5.250865 -36.665085 -1.9411408
-1.0140209 -6.9935832 -1.8935202
-1.1228932 -7.7254734 -1.8023077
-1.4218484 -9.7702885 -1.919157
-1.67302 -11.468144 -1.8356022
-2.1827824 -14.925956 -1.8521705
-3.2875504 -22.42573 -1.9829674
-5.3944764 -36.753242 -1.9467931
-1.0512996 -7.0681634 -1.9147433
-1.2043909 -8.0877295 -1.8877892
-1.353882 -9.069869 -1.7825377
-1.7659055 -11.801867 -1.8900415
-2.1004651 -14.021069 -1.7407818
-3.351018 -22.315603 -1.9742517
-5.6284409 -37.392876 -1.9817535
-1.0672395 -7.0071559 -1.8992143
-1.2390246 -8.1160097 -1.8954376
-1.4724449 -9.6337185 -1.8943518
-1.7900405 -11.684333 -1.8722079
-2.3136361 -15.066922 -1.8716695
-3.3855991 -22.022167 -1.9493253
-5.7491951 -37.309837 -1.978404
-1.0869319 -6.9728465 -1.890932
-1.2755462 -8.1734715 -1.9098345
-1.5100082 -9.6537352 -1.8993129
-1.8425304 -11.766154 -1.886287
-3.4200332 -21.740574 -1.9254446
-5.8859391 -37.373432 -1.9828002
-1.1082251 -6.9577575 -1.8878261
-1.2865599 -8.0592794 -1.8841901
-1.4301645 -8.948822 -1.7615488
-1.8945255 -11.827919 -1.8972374
-3.4481659 -21.455681 -1.9012153
-6.0424099 -37.514351 -1.9913834
-1.1390268 -6.9938879 -1.8986967
-1.338855 -8.2028322 -1.9188325
-1.4585438 -8.9263363 -1.7581142
-1.9192003 -11.719865 -1.8809682
-2.4763784 -15.089313 -1.8775192
-3.6829257 -22.4167 -1.9874995
-6.101932 -37.059467 -1.9683554
-1.159627 -6.9670019 -1.8924849
-1.3649153 -8.1827307 -1.9152331
-1.4913106 -8.9308729 -1.7600222
-1.9323876 -11.547489 -1.8543743
-3.7786386 -22.507845 -1.9967381
-6.1093121 -36.313133 -1.9298362
-1.1787581 -6.9324389 -1.8842027
-1.3918337 -8.1683121 -1.9129838
-2.0156183 -11.791854 -1.8947345
-3.8033044 -22.180323 -1.9688481
-6.3402133 -36.897861 -1.9620752
-1.2072452 -6.9530258 -1.890932
-1.4149925 -8.1326857 -1.9057853
-2.0706921 -11.864531 -1.907562
-2.6873121 -15.381754 -1.9172486
-3.5326619 -20.178856 -1.7922707
-6.5635271 -37.414524 -1.9907553
-1.2232234 -6.9090376 -1.8800616
-5.7222757 -32.287857 0.5723691
-1.4354863 -8.0914917 -1.8972371
-1.719476 -9.6824484 -1.9115247
-2.1003339 -11.803144 -1.8988018
-3.955241 -22.159805 -1.9693711
-6.6861572 -37.384689 -1.9903367
-5.870244 -32.789604 -0.58144438
-1.2423533 -6.8840308 -1.8743677
-5.8015881 -32.115211 0.5696466
-1.4664721 -8.1096983 -1.9026359
-1.7319915 -9.5685081 -1.890154
-2.1750681 -11.992424 -1.9304014
-4.0397587 -22.207333 -1.9747747
-6.6890368 -36.698177 -1.9549574
-5.9882588 -32.788586 -0.58179343
-1.292956 -7.0240464 -1.9137081
-5.9035072 -32.039703 0.56866926
-1.4975982 -8.1198606 -1.9062351
-1.7076417 -9.2496433 -1.8283319
-2.2154796 -11.97699 -1.9291501
-2.8611143 -15.437196 -1.9277295
-4.1187062 -22.200932 -1.975472
-6.9134569 -37.193001 -1.9825908
-6.1019402 -32.76355 -0.58172363
-1.3060623 -6.9587321 -1.8971437
-5.9990659 -31.932426 0.56713343
-1.5309761 -8.1413965 -1.912534
-1.83895 -9.7603769 -1.9306054
-2.2587378 -11.976947 -1.9304014
-3.8846662 -20.519754 -1.8271329
-7.0608969 -37.226284 -1.985731
-6.0976639 -32.11731 -0.57062393
-1.3464547 -7.0316911 -1.9183668
-6.1160641 -31.910225 0.56713343
-1.5556653 -8.1089363 -1.9062351
-1.6783086 -8.7317505 -1.728348
-2.3070991 -11.991866 -1.9341559
-4.2681146 -22.101675 -1.9693711
-7.2321954 -37.380558 -1.995361
-6.2138138 -32.086887 -0.57048422
-1.3670346 -7.000164 -1.9111199
-6.3772197 -32.625511 0.58025759
-1.5741495 -8.0458059 -1.8927382
-1.8657336 -9.5273285 -1.8871011
-2.3270757 -11.861209 -1.9144453
-3.0092371 -15.32405 -1.9174925
-4.3037009 -21.875509 -1.9505454
-7.402029 -37.554955 -2.0060375
-6.343585 -32.155251 -0.57208991
-1.3864752 -6.976644 -1.9059435
-6.3371296 -31.858902 0.56699383
-1.597016 -8.0214291 -1.888239
-1.8977011 -9.523015 -1.8874826
-2.3741314 -11.892171 -1.9207026
-3.0577021 -15.302307 -1.91603
-4.3989029 -21.974428 -1.9606555
-6.4449654 -32.137135 -1.7177709
-6.4139762 -31.953665 -0.56887865
-1.391227 -6.8811178 -1.8810968
-6.4482932 -31.865152 0.56748247
-1.6301839 -8.0485592 -1.8958875
-6.6003575 -32.558117 1.7410082
-1.9339513 -9.5397577 -1.8920621
-2.3824942 -11.731299 -1.895986
-3.0778544 -15.12814 -1.895556
-4.5317755 -22.254524 -1.9869765
-6.5770507 -32.240829 -1.7244699
-6.5791249 -32.193615 -0.57355589
-1.4218581 -6.9083877 -1.8898968
-6.5473804 -31.783691 0.56643528
-1.6535478 -8.0199156 -1.8904886
-6.7212291 -32.570091 1.7428923
-1.9779518 -9.5848637 -1.9023658
-2.4598227 -11.898949 -1.9244571
-3.1890113 -15.399162 -1.9308981
-4.6074123 -22.228817 -1.9861051
-6.7001114 -32.268524 -1.7271914
-6.7167101 -32.291836 -0.57572001
-1.4689342 -7.0130496 -1.9199197
-6.7222939 -32.065956 0.57188046
-1.6927364 -8.0674963 -1.9030858
-6.7552466 -32.167233 1.7225858
-2.0226951 -9.6316986 -1.913051
-2.4679959 -11.731777 -1.8988018
-3.1838031 -15.108226 -1.8957996
-4.7096457 -22.329565 -1.9965637
-7.9505682 -37.630489 -2.0156672
-6.8476076 -32.354271 -0.57725579
-1.5034726 -7.0551152 -1.9328607
-6.8642178 -32.183109 0.57439363
-1.7241411 -8.076786 -1.9066852
-6.8883553 -32.241112 1.7278193
-2.0583549 -9.6341791 -1.9149592
-2.5176127 -11.763656 -1.905372
-4.7884007 -22.316885 -1.9969124
-6.9755816 -32.455276 -1.7397519
-6.9310422 -32.193329 -0.57481247
-1.5072186 -6.9535356 -1.9064611
-7.0011015 -32.272297 0.57641804
-1.7428148 -8.0269175 -1.8963374
-6.9813437 -32.127094 1.7230045
-2.0898864 -9.6173429 -1.913051
-2.5519397 -11.723913 -1.9003662
-3.0029058 -13.772573 -1.7307886
-4.8904829 -22.410992 -2.0068481
-7.073051 -32.35854 -1.7358793
-6.8474865 -31.274273 -0.55882603
-1.5389668 -6.9821901 -1.9157786
-7.1438661 -32.384357 0.57886147
-1.792249 -8.1178341 -1.9192824
-7.1236157 -32.239044 1.7303315
-2.1166687 -9.5793171 -1.9069452
-2.6065073 -11.776653 -1.910378
-4.9924164 -22.500763 -2.0164354
-8.2401962 -37.077248 -1.9905459
-6.9826846 -31.367296 -0.56092036
-1.5548819 -6.939074 -1.9054259
-7.2848706 -32.4841 0.58109534
-1.8171598 -8.0963173 -1.9156833
-7.2361045 -32.213982 1.7303315
-2.1376152 -9.5163212 -1.8958783
-2.6645119 -11.842643 -1.9225799
-3.2434351 -14.392262 -1.811466
-5.0963564 -22.595926 -2.0265453
-8.4391031 -37.356068 -2.0070841
-1.601401 -7.0315523 -1.9323431
-7.420433 -32.555958 0.58284056
-1.8337096 -8.0386257 -1.903536
-2.1791227 -9.545167 -1.9031291
-2.7375371 -11.971919 -1.9451064
-5.1524959 -22.478954 -2.0176554
-8.5774984 -37.36142 -2.0089681
-7.4246693 -32.288303 -0.57830292
-1.6237583 -7.0165091 -1.9297549
-1.882879 -8.1233006 -1.9251312
-2.2062173 -9.5107269 -1.8977863
-2.7676857 -11.912263 -1.9369718
-3.5076053 -15.073038 -1.900187
-5.2399688 -22.49964 -2.0211415
-1.6482408 -7.0107985 -1.9297549
-1.8991649 -8.0654631 -1.9129838
-2.2475076 -9.537365 -1.9046555
-2.8047142 -11.883303 -1.933843
-3.5994709 -15.226843 -1.9211485
-5.2785707 -22.312532 -2.0059764
-8.8758736 -37.459991 -2.0175514
-7.8881516 -33.239643 -0.59631383
-1.6444358 -6.8866229 -1.8971437
-7.6949496 -32.200291 0.57788414
-1.9390913 -8.1080627 -1.9246813
-2.2958658 -9.5924692 -1.9172488
-2.8756471 -11.996383 -1.9538667
-3.670676 -15.289464 -1.9306543
-5.381556 -22.398582 -2.0153892
-8.9981728 -37.393822 -2.0156672
-7.9852266 -33.158867 -0.5953365
-1.6830326 -6.9409199 -1.9137081
-1.9402331 -7.9955354 -1.8994867
-2.311254 -9.5099955 -1.9023658
-2.8958056 -11.906163 -1.9407262
-3.7025638 -15.20006 -1.9209048
-5.3747144 -22.031248 -1.9840133
-7.7275424 -31.651628 -1.7075132
-8.1265726 -33.235683 -0.59722137
-1.7000415 -6.910913 -1.9069788
-1.9881753 -8.0700779 -1.9188325
-2.3493574 -9.528964 -1.9077084
-2.915091 -11.805848 -1.9260213
-3.7270074 -15.07142 -1.9062805
-5.4166274 -21.887592 -1.9726831
-9.2822819 -37.451904 -2.0221567
-1.7321103 -6.9367995 -1.9157786
-2.0064063 -8.0233879 -1.9093846
-2.4040525 -9.60641 -1.9248812
-2.9807768 -11.893322 -1.9419776
-3.7902257 -15.100676 -1.9116427
-5.4905729 -21.858889 -1.9718114
-1.7553647 -6.9269662 -1.9147433
-2.058847 -8.1126661 -1.9323295
-2.4259725 -9.5522919 -1.9157225
-3.0110743 -11.838814 -1.9347818
-3.805186 -14.939231 -1.8928748
-5.2774739 -20.704365 -1.8693165
-9.4486723 -37.014633 -2.0020599
-1.8069558 -7.0274429 -1.9442488
-2.0725741 -8.0488157 -1.9188325
-2.4642005 -9.5627766 -1.9195386
-2.9655101 -11.491592 -1.8797168
-5.4804158 -21.191193 -1.9149859
-9.5527802 -36.884754 -1.9968263
-1.7997795 -6.8995881 -1.9106023
-2.109031 -8.0735836 -1.9264808
-2.4265606 -9.2824984 -1.8649671
-3.065136 -11.708578 -1.9169482
-5.8263564 -22.208754 -2.0087655
-9.9260893 -37.782261 -2.0472779
-1.8446066 -6.9717026 -1.9323431
-2.1317096 -8.0454521 -1.921532
-2.5470026 -9.6060658 -1.9317504
-3.1014245 -11.680624 -1.9141324
-3.9935534 -15.019426 -1.9082304
-5.5974817 -21.036896 -1.9045273
-9.9704914 -37.4193 -2.029484
-1.8604202 -6.9335017 -1.9235432
-2.1744463 -8.0925398 -1.934579
-2.5290298 -9.4056301 -1.8932071
-3.1416664 -11.667819 -1.9138194
-4.0645595 -15.074394 -1.9170049
-5.9656906 -22.109831 -2.0035362
-10.121883 -37.461395 -2.0336707
-1.8587462 -6.8318968 -1.8971437
-2.1868007 -8.0266132 -1.920632
-2.6176171 -9.6013088 -1.9344217
-3.1324308 -11.473842 -1.8837841
-4.1438541 -15.15777 -1.9294356
-5.7620859 -21.062645 -1.9104539
-10.268424 -37.48362 -2.0368111
-1.8882332 -6.8458519 -1.9028376
-2.2319255 -8.0809183 -1.9354788
-2.6479781 -9.58076 -1.932132
-3.2541325 -11.757927 -1.9322786
-4.2126427 -15.200603 -1.9367478
-5.9058561 -21.295835 -1.933463
-10.431265 -37.563015 -2.0430913
-1.9448876 -6.9564309 -1.9354489
-2.2412078 -8.0055218 -1.9192824
-2.6856408 -9.5865812 -1.9351848
-3.3164973 -11.822575 -1.9447935
-4.3102326 -15.344429 -1.9569781
-5.9844699 -21.290434 -1.9348574
-1.9533589 -6.8938394 -1.9199197
-2.2850952 -8.0538921 -1.9327793
-2.7147987 -9.5620403 -1.932132
-3.3669276 -11.843227 -1.9501122
-4.336596 -15.233829 -1.9447912
-6.2192245 -21.832767 -1.9861051
-10.810487 -37.900295 -2.0654912
-2.0093997 -6.9983892 -1.9509782
-2.3298869 -8.1039248 -1.9467264
-2.7492459 -9.5562782 -1.9328952
-3.4077013 -11.829505 -1.9497994
-4.3886437 -15.214784 -1.9443036
-6.1152792 -21.186878 -1.9292796
-11.167857 -38.641335 -2.1079879
-2.0284204 -6.9727821 -1.9458016
-2.3461714 -8.0545816 -1.9368286
-2.8084075 -9.635211 -1.9508314
-3.115809 -10.675983 -1.7614522
-4.3966265 -15.045033 -1.9245608
-6.2283397 -21.299265 -1.9414812
-11.364412 -38.812958 -2.1195018
-2.0494704 -6.9545417 -1.9426959
-2.2427878 -7.6056337 -1.8306518
-2.8153372 -9.5349703 -1.9325136
-4.4324141 -14.982782 -1.9184674
-6.3083091 -21.296497 -1.9432244
-11.361376 -38.330799 -2.0952177
-2.0852227 -6.9902849 -1.9546015
-2.3936918 -8.0141516 -1.9309798
-2.8418818 -9.5086527 -1.9290791
-3.479495 -11.627251 -1.9222668
-6.6249409 -22.096098 -2.0181785
-11.387145 -37.931278 -2.0755396
-2.125813 -7.036593 -1.969613
-2.4205227 -8.002017 -1.9300802
-2.870506 -9.4836426 -1.9260262
-3.5309479 -11.650952 -1.9282113
-6.4565964 -21.264503 -1.9442703
-11.531096 -37.92952 -2.0776329
-2.1401892 -6.9958782 -1.9602956
-2.4296069 -7.9320292 -1.9152331
-2.8696494 -9.3628168 -1.9035107
-3.533926 -11.515807 -1.9078751
-4.6147203 -15.019038 -1.9291918
-6.5799656 -21.401808 -1.9589125
-2.1703124 -7.0068183 -1.9654719
-2.4884501 -8.0240097 -1.9395281
-2.9168608 -9.3996191 -1.913051
-4.6712465 -15.016107 -1.9308981
-6.6262083 -21.287395 -1.9505454
-12.186641 -39.102768 -2.1465073
-2.2068961 -7.03791 -1.9763422
-2.4785028 -7.894423 -1.9102844
-2.9531834 -9.4006186 -1.9153408
-4.7224402 -14.995923 -1.9304106
-7.1747189 -22.769157 -2.0886002
-2.2209296 -6.9970198 -1.9670248
-2.5355542 -7.9785838 -1.9327793
-3.0234609 -9.5081215 -1.9393828
-3.6387422 -11.429231 -1.8997405
-4.8223863 -15.128762 -1.9496659
-7.2529411 -22.740177 -2.0882516
-12.430171 -38.925415 -2.1414828
-2.2471132 -6.9947429 -1.9685777
-2.5735323 -8.0012226 -1.9404278
-3.0620453 -9.5143299 -1.9428172
-3.7628262 -11.677804 -1.9432292
-4.8830872 -15.136395 -1.9528345
-6.973619 -21.603638 -1.9861051
-12.472608 -38.592915 -2.1255727
-2.2601662 -6.9519496 -1.9587426
-2.6050661 -8.0033073 -1.9431273
-2.7693596 -8.5030098 -1.73827
-3.8145897 -11.698402 -1.9488608
-4.9143305 -15.053212 -1.9443036
-6.6085024 -20.230698 -1.8619952
-12.687958 -38.795918 -2.1391799
-2.2838159 -6.942183 -1.958225
-2.6177456 -7.9478927 -1.9318796
-3.1400678 -9.5281496 -1.950068
-3.8584952 -11.694396 -1.9504251
-5.0247536 -15.211262 -1.9669714
-7.3706245 -22.299767 -2.0547836
-12.808242 -38.705891 -2.136668
-2.3123057 -6.9469991 -1.9618485
-2.6551716 -7.9724488 -1.9399779
-3.1565413 -9.4668436 -1.9397644
-3.9178848 -11.743373 -1.9607497
-5.0776849 -15.202046 -1.9679463
-7.169137 -21.438726 -1.9777381
-12.871886 -38.470013 -2.1259913
-2.3414919 -6.957602 -1.9670248
-2.6580954 -7.8892627 -1.9219818
-3.1897991 -9.4619045 -1.9409093
-3.8792579 -11.493798 -1.9213283
-5.1148314 -15.137215 -1.9618529
-7.0449252 -20.83728 -1.9243988
-13.303211 -39.302654 -2.1745594
-2.3676314 -6.9548736 -1.9685777
-2.7095077 -7.9500289 -1.9390782
-3.2380147 -9.4953098 -1.950068
-3.9940298 -11.69891 -1.957934
-5.0861025 -14.880711 -1.9308981
-6.7746296 -19.809637 -1.831665
-13.507605 -39.452496 -2.1854451
-2.3774285 -6.9045548 -1.9566721
-2.7315254 -7.9239411 -1.9350289
-3.2301705 -9.3651667 -1.9256444
-4.0651445 -11.772655 -1.9726388
-5.1847124 -14.997949 -1.9484472
-7.5549417 -21.842033 -2.0220132
-2.4193044 -6.9472961 -1.9711659
-2.7245276 -7.814991 -1.9107343
-3.3074586 -9.4817419 -1.9519762
-4.0730009 -11.663281 -1.9566824
-5.2272058 -14.951652 -1.9447912
-7.5061488 -21.458204 -1.9888941
-2.4396899 -6.9278769 -1.9680601
-2.7848346 -7.8991647 -1.9336793
-3.2967794 -9.3460913 -1.9264078
-4.0900078 -11.581939 -1.9454193
-5.270103 -14.907111 -1.9413787
-7.7524238 -21.916483 -2.0338664
-14.145349 -39.945232 -2.2208242
-2.4645057 -6.9211383 -1.9685777
-2.6043413 -7.3098016 -1.7915101
-3.3907216 -9.5064974 -1.9618982
-4.1124582 -11.523661 -1.9379103
-5.0857558 -14.235272 -1.8560703
-13.67747 -38.220718 -2.1274569
-2.4900601 -6.9201984 -1.9706483
-2.8484435 -7.9075274 -1.9404278
-3.3862815 -9.3954659 -1.9412909
-4.1218171 -11.423761 -1.9235184
-5.4719319 -15.149081 -1.9776958
-8.0842638 -22.369129 -2.0809305
-14.420994 -39.859295 -2.2214522
-2.5307117 -6.9568505 -1.9835893
-2.8640256 -7.8645763 -1.9323295
-3.3908272 -9.3061132 -1.9252628
-4.1237631 -11.305381 -1.9059978
-5.5656319 -15.241771 -1.9923203
-8.188282 -22.411884 -2.0875545
-14.458501 -39.531101 -2.2059608
-2.5569797 -6.9534144 -1.9851422
-2.890115 -7.8508739 -1.9314297
-3.4178629 -9.2794828 -1.9222099
-4.1912189 -11.366907 -1.9188254
-5.564497 -15.075129 -1.9730648
-7.4975204 -20.301098 -1.8933713
-14.596408 -39.480389 -2.2059608
-2.589987 -6.9679866 -1.9918715
-2.9406073 -7.9028349 -1.9467264
-3.4790032 -9.3447714 -1.938238
-4.0935898 -10.983859 -1.8565645
-8.2219143 -22.025654 -2.0568755
-15.012381 -40.173817 -2.2476203
-2.6061406 -6.937202 -1.9856598
-2.9681766 -7.8925219 -1.9467264
-3.5136743 -9.3380823 -1.9393828
-4.2238202 -11.213515 -1.8978633
-8.3634481 -22.168322 -2.072912
-15.121475 -40.03896 -2.2430146
-2.6598256 -7.0057235 -2.0079181
-2.9265151 -7.7041063 -1.9026359
-4.3593225 -11.457924 -1.9416648
-5.6614981 -14.864913 -1.9530783
-8.4521341 -22.168783 -2.0757012
-15.084748 -39.544464 -2.2181027
-2.6816585 -6.993257 -2.0068829
-2.9994819 -7.8139176 -1.9323295
-3.5553336 -9.2571354 -1.9275526
-4.3652654 -11.354134 -1.9266472
-5.7183428 -14.858027 -1.9547845
-8.6125574 -22.354805 -2.0959213
-15.146542 -39.294025 -2.2070074
-2.7051775 -6.9779778 -2.0053301
-3.0380142 -7.8324699 -1.9395281
-3.5935037 -9.255023 -1.9298422
-4.3825202 -11.275457 -1.9160095
-5.7586617 -14.808375 -1.9508847
-8.7873869 -22.5734 -2.1192791
-15.277413 -39.204746 -2.2051234
-2.7041545 -6.9037366 -1.9866952
-3.0901766 -7.8811541 -1.9543748
-3.6035604 -9.1857653 -1.918012
-4.4897242 -11.432928 -1.9454193
-5.7569776 -14.644914 -1.9321167
-8.2623177 -21.007366 -1.9749491
-15.888289 -40.355431 -2.2729506
-2.7566705 -6.9661074 -2.0074008
-3.1004446 -7.8268361 -1.9435771
-3.6356032 -9.173131 -1.918012
-4.508481 -11.363936 -1.9363459
-5.8600821 -14.755717 -1.9494221
-8.1781549 -20.582157 -1.9376464
-2.7451143 -6.8667507 -1.9815186
-3.144398 -7.8575788 -1.9539249
-3.6333044 -9.0747223 -1.900076
-4.5606132 -11.379302 -1.9416648
-5.9196868 -14.755439 -1.9521034
-8.7204838 -21.725752 -2.0481601
-15.840511 -39.424389 -2.2266858
-2.7697897 -6.8589187 -1.9820364
-3.1542783 -7.8031936 -1.9431273
-3.7061799 -9.1639061 -1.9214467
-4.595118 -11.350496 -1.9394747
-5.9622083 -14.712607 -1.9491785
-8.5073004 -20.982468 -1.9808756
-2.7830398 -6.8264399 -1.9753071
-3.1948638 -7.8287764 -1.9521253
-3.746196 -9.1751938 -1.9264078
-4.642447 -11.358967 -1.943542
-6.0327625 -14.746037 -1.9562467
-8.0621014 -19.696598 -1.8619952
-2.8164129 -6.8399062 -1.9820364
-3.19557 -7.7568769 -1.9368286
-3.7669728 -9.1348372 -1.9206835
-4.672555 -11.325248 -1.9404132
-6.0232821 -14.584672 -1.937479
-8.9696178 -21.697405 -2.0540864
-2.8464944 -6.8483682 -1.9872128
-3.2308614 -7.7654662 -1.9417773
-3.7927184 -9.1114206 -1.9183939
-4.6938252 -11.265108 -1.9329045
-6.1994743 -14.864026 -1.977452
-8.9439774 -21.423269 -2.0310774
-2.8573637 -6.8040471 -1.9773775
-3.2541742 -7.7451582 -1.9395281
-3.8329377 -9.1137457 -1.9218283
-4.7810678 -11.357066 -1.9516766
-6.2744389 -14.897181 -1.9847643
-8.9536915 -21.237701 -2.0164354
-2.8848677 -6.8029246 -1.9799658
-3.2886312 -7.7475295 -1.9431273
-3.8823771 -9.1418734 -1.9306054
-4.7874537 -11.262136 -1.9382232
-6.3274412 -14.870429 -1.9842769
-9.017415 -21.171747 -2.0132976
-17.71911 -41.582092 -2.3688302
-2.9082606 -6.7887535 -1.9789305
-3.2565422 -7.5980835 -1.9084847
-3.9205027 -9.1384058 -1.9328952
-4.8380532 -11.266294 -1.9419776
-6.3111391 -14.689574 -1.9630717
-9.1983128 -21.389065 -2.037004
-17.81612 -41.388454 -2.3615031
-2.9319401 -6.7785602 -1.9789305
-3.3571489 -7.7542009 -1.9507756
-3.9430137 -9.1030483 -1.9283159
-4.8592763 -11.207654 -1.9347818
-6.3815331 -14.704584 -1.9681902
-9.2284822 -21.254484 -2.0272424
-17.917498 -41.227097 -2.3558509
-2.9648607 -6.7895298 -1.9851422
-3.3100491 -7.5728006 -1.9080348
-3.9936426 -9.1323996 -1.9374746
-4.8769822 -11.141764 -1.9263341
-6.4790258 -14.787677 -1.9823269
-9.1714363 -20.922876 -1.9986554
-18.165615 -41.402069 -2.3694582
-2.9628274 -6.7208047 -1.9680601
-3.3978271 -7.7002645 -1.9431273
-3.958102 -8.9657412 -1.905037
-4.9797187 -11.269219 -1.9513638
-6.328166 -14.31403 -1.921636
-8.5720072 -19.371212 -1.8532797
-18.339144 -41.404148 -2.3732264
-2.97175 -6.6809359 -1.9592602
-3.4066987 -7.6515694 -1.9336793
-4.010179 -9.0027819 -1.9157225
-5.0049949 -11.22558 -1.9466707
-6.5890899 -14.771576 -1.985983
-9.2730274 -20.769001 -1.9899398
-18.401371 -41.17535 -2.3635967
-2.9962614 -6.6763315 -1.9608132
-3.4136856 -7.5993447 -1.9233315
-4.0907125 -9.1022491 -1.9397644
-5.006537 -11.129656 -1.9329045
-6.6707659 -14.815458 -1.9950013
-9.6004362 -21.312178 -2.0450222
-18.644535 -41.350792 -2.3772039
-3.0163591 -6.6587934 -1.9587426
-3.5045705 -7.7293682 -1.9593236
-4.0989399 -9.0360661 -1.9286975
-5.0714884 -11.169669 -1.9429164
-6.7290115 -14.80654 -1.9969513
-9.4883995 -20.868637 -2.0056279
-7.155302 -15.722687 -0.90530741
-3.0363722 -6.6411963 -1.9566721
-3.5055799 -7.6603847 -1.944927
-4.1100264 -8.9770756 -1.919157
-5.0981026 -11.124961 -1.9382232
-6.7996902 -14.82446 -2.0025573
-9.7809582 -21.304497 -2.0509489
-7.2084723 -15.693986 -0.90509808
-3.0655513 -6.6405463 -1.959778
-3.2520361 -7.0412769 -1.7906104
-4.1964488 -9.0777855 -1.9439622
-5.1546044 -11.140263 -1.9441677
-6.855566 -14.809642 -2.0037761
-7.2508211 -15.634846 -0.90321404
-3.0585253 -6.5650134 -1.9406252
-4.2372384 -9.0826521 -1.9481598
-5.1859388 -11.106094 -1.941352
-6.9064374 -14.77722 -2.0028009
-9.8408422 -21.046185 -2.0326462
-7.2833409 -15.562407 -0.90049255
-3.1143007 -6.6242285 -1.9613309
-3.6184654 -7.6896334 -1.962023
-3.9168699 -8.3200006 -1.7874987
-5.2583523 -11.159403 -1.9538667
-6.9706798 -14.779955 -2.0064571
-9.9491014 -21.085587 -2.039793
-7.3137383 -15.486321 -0.89756179
-7.6519594 -16.187845 -0.3125377
-3.1224999 -6.5818996 -1.9520133
-3.6778853 -7.7456102 -1.9795692
-4.3072839 -9.0670376 -1.951213
-5.2896423 -11.124922 -1.9510508
-6.8354106 -14.362986 -1.9530783
-10.002092 -21.007551 -2.0356095
-7.1220126 -14.945041 -0.86762559
-7.6791492 -16.09967 -0.31135091
-3.1554656 -6.5918703 -1.958225
-3.7074261 -7.7379971 -1.980919
-7.3458319 -15.325072 0.89065343
-4.3389077 -9.0519466 -1.951213
-5.3335681 -11.117076 -1.9529281
-10.225478 -21.284998 -2.0659397
-7.1879892 -14.948887 -0.86930031
-7.4239817 -15.425892 -0.29882011
-3.1507301 -6.5234094 -1.9411429
-3.7013369 -7.6565838 -1.9633728
-7.1845102 -14.861875 0.86511344
-4.3944125 -9.0862322 -1.9618982
-7.4220862 -15.339659 1.4908861
-6.6864295 -13.806941 -1.8836126
-10.20239 -21.04837 -2.0464168
-7.1573048 -14.752996 -0.85935646
-7.6977496 -15.85993 -0.30772081
-3.2180274 -6.6067114 -1.9690953
-7.9749341 -16.365534 0.3177734
-3.6993799 -7.5882139 -1.9489759
-7.2153754 -14.800267 0.86291534
-4.4107499 -9.0433779 -1.9557924
-7.4589353 -15.286313 1.4880972
-7.1006713 -14.539209 -1.9867141
-10.137383 -20.738766 -2.0195727
-7.2140889 -14.745328 -0.86029857
-7.7019467 -15.735535 -0.30580106
-3.2271428 -6.5699944 -1.9613309
-7.3306665 -14.917593 0.2901288
-3.6780956 -7.4814677 -1.9246813
-7.4027438 -15.050992 0.87903482
-4.4329162 -9.012845 -1.9523578
-7.4761596 -15.193562 1.4814733
-5.0863819 -10.33234 -1.8240261
-7.1312008 -14.47338 -1.9811082
-10.310172 -20.906963 -2.0394444
-7.2585282 -14.712368 -0.85977519
-7.7833886 -15.762342 -0.3068482
-3.2632129 -6.5823541 -1.9685777
-7.3569326 -14.839956 0.28911656
-3.7596037 -7.5803146 -1.9534749
-7.3433814 -14.799629 0.86584616
-4.497344 -9.059845 -1.966096
-7.5477481 -15.198177 1.4846109
-5.4933729 -11.056635 -1.9554311
-7.6499367 -15.3972 2.1110208
-7.1728435 -14.430623 -1.9786707
-7.7331829 -15.544321 -1.5189503
-7.2830253 -14.626664 -0.85632104
-7.7126427 -15.482702 -0.30192664
-3.2714818 -6.5415492 -1.959778
-7.4658561 -14.921984 0.29124579
-3.7917213 -7.5751982 -1.9557245
-7.681066 -15.338732 0.89902717
-4.1465502 -8.280467 -1.8000921
-7.5882602 -15.1468 1.4821705
-5.5416679 -11.056819 -1.9588726
-7.7267833 -15.40987 2.1166267
-7.2345877 -14.42198 -1.9811082
-7.7775879 -15.490946 -1.51651
-7.2847319 -14.50299 -0.85056406
-7.8896947 -15.693736 -0.30660388
-3.2797666 -6.4984717 -1.9504604
-7.5809669 -15.020796 0.2936891
-3.7917931 -7.5097289 -1.9422275
-7.4445906 -14.73779 0.86532277
-4.5762272 -9.0554667 -1.9722018
-7.6608047 -15.152669 1.4854825
-5.5794811 -11.031145 -1.957934
-7.7617092 -15.34561 2.1115084
-7.2750273 -14.377155 -1.9784272
-7.7857041 -15.373051 -1.50762
-7.2999139 -14.401372 -0.84616786
-7.5347266 -14.858184 -0.29079199
-3.3100598 -6.5047774 -1.9556367
-7.7857676 -15.293628 0.29955313
-3.8206353 -7.5016575 -1.9435771
-7.4860201 -14.692138 0.86417139
-4.5705819 -8.9702692 -1.9569372
-7.7155323 -15.136058 1.486354
-5.6025705 -10.986186 -1.953241
-7.7340393 -15.159275 2.0895717
-7.3197536 -14.341063 -1.9769646
-7.8683505 -15.409256 -1.5137209
-7.3149099 -14.313061 -0.84239966
-7.481822 -14.627056 -0.28677794
-3.35921 -6.5447435 -1.9711659
-7.8400178 -15.268134 0.29958799
-3.8779638 -7.548943 -1.9593236
-7.5664706 -14.722762 0.86752087
-4.6207094 -8.9909296 -1.9649512
-7.5150552 -14.616444 1.4378954
-5.6444993 -10.973588 -1.9544924
-7.8150625 -15.186907 2.0971277
-7.3597713 -14.296013 -1.9742836
-7.888341 -15.316156 -1.5072714
-7.3648243 -14.287442 -0.84239966
-7.5621734 -14.657718 -0.2878949
-3.3562794 -6.4832258 -1.9561545
-7.8840694 -15.222918 0.29923895
-3.8370533 -7.4055905 -1.925581
-7.7613454 -14.979553 0.88416374
