# .PCD v0.7 - Point Cloud Data file format
VERSION 0.7
FIELDS x y z
SIZE 4 4 4
TYPE F F F
COUNT 1 1 1
WIDTH 1554
HEIGHT 1
VIEWPOINT 0 0 0 1 0 0 0
POINTS 1554
DATA ascii
8.5311337 9.2807884 -0.22003995
5.4073725 5.8640199 -2.1373277
8.5511227 9.2732573 0.22017956
6.2180705 6.7408199 -2.1172395
8.5669622 9.2839298 0.66204989
7.3294101 7.9400263 -2.1004255
8.8961058 9.6304979 -2.0765114
8.5414219 9.2432976 -1.5453033
8.5584736 9.2552652 -1.1028687
8.5622816 9.252903 -0.66068918
8.5675507 9.2553568 -0.22014466
5.4283948 5.8498363 -2.1383629
8.6063137 9.2712317 0.22080785
6.2430439 6.7230172 -2.118139
8.601778 9.2598619 0.66236389
7.3463001 7.9083328 -2.0981357
8.9236298 9.5996056 -2.0758855
8.600419 9.2454472 -1.550422
8.6010828 9.2429161 -1.1046119
8.6158056 9.2522697 -0.66257328
8.6254587 9.256155 -0.22084275
5.4408689 5.822381 -2.135257
8.6604757 9.2645054 0.22136633
6.2651405 6.6997614 -2.1176891
8.674983 9.2735338 0.6655041
7.3819094 7.8912411 -2.1004255
8.9584332 9.5698433 -2.0761983
8.6489267 9.2327509 -1.5533468
8.6414661 9.2215614 -1.1056577
8.6740103 9.2498169 -0.66456205
8.674139 9.2434864 -0.22126161
5.466454 5.8089828 -2.1373277
8.7119493 9.2546034 0.221855
6.2844796 6.6735969 -2.1163394
8.7209949 9.2577362 0.66655082
7.4094081 7.865427 -2.1004255
8.9592609 9.5040188 -2.0686896
8.7028961 9.2256107 -1.5572467
8.7036886 9.223218 -1.1094925
8.7213278 9.2354584 -0.66571343
8.7324505 9.2407646 -0.2219248
5.4827132 5.7856579 -2.1357749
8.7607117 9.2415495 0.22227386
6.2996898 6.6431365 -2.1136403
8.7697535 9.2446232 0.66780686
7.4557371 7.8594542 -2.1057682
8.9393396 9.4168148 -2.0564878
8.7541895 9.2153225 -1.5606589
8.7440596 9.2014523 -1.1105385
8.7548914 9.2064047 -0.66581815
8.7798157 9.2261639 -0.22230875
5.5095425 5.7734728 -2.1383629
8.8108664 9.2297182 0.22272763
6.3255343 6.6239228 -2.1145399
8.8127747 9.2284918 0.66874892
7.4871969 7.8376384 -2.1069131
8.9393988 9.3512821 -2.0489788
8.791791 9.1904488 -1.5616339
8.8202076 9.2169342 -1.1161164
8.8201256 9.2104092 -0.66833019
8.8352594 9.222991 -0.22293703
5.5296607 5.7542071 -2.1383629
8.8677483 9.2278461 0.2233908
6.3528686 6.6085277 -2.1163394
8.8726254 9.2264643 0.67084235
7.4968104 7.793067 -2.1019521
8.9374886 9.2874231 -2.0414701
8.8552628 9.1955614 -1.5674837
8.8675385 9.201869 -1.1180339
8.885272 9.2170601 -0.67094702
8.8785105 9.2036057 -0.22321628
5.5433412 5.7302828 -2.1362925
8.9193773 9.2169523 0.22387949
6.3786106 6.5891104 -2.1172395
8.9381208 9.2298717 0.67335445
7.5253453 7.7709818 -2.1027153
8.9176168 9.202261 -2.0295811
8.9121857 9.1902447 -1.5718709
8.9118795 9.1867104 -1.119777
8.9382601 9.2074814 -0.67251712
8.9412346 9.2041149 -0.22398418
5.5687032 5.7164316 -2.1383629
8.9738235 9.2086773 0.22443795
6.3988471 6.5640182 -2.1163394
8.98981 9.2186327 0.67481989
7.5606518 7.753098 -2.105005
9.1924944 9.4199057 -2.0846457
8.966404 9.1817999 -1.5757707
8.9759083 9.1883316 -1.1237862
8.9898958 9.1962185 -0.6739825
8.9970837 9.1971474 -0.22457758
5.5899725 5.6983414 -2.1388805
9.0227242 9.1944218 0.22485681
6.4189916 6.5388594 -2.1154397
9.0401201 9.2057276 0.67618066
7.5931664 7.7322679 -2.1065314
9.229476 9.391984 -2.0855846
9.020668 9.1730938 -1.5796705
9.0163116 9.1654634 -1.1248319
9.0317459 9.1747456 -0.67471522
9.0403624 9.1770792 -0.22485681
5.6111889 5.6801672 -2.1393983
9.0772533 9.185626 0.22541527
6.448626 6.5233436 -2.1176891
9.0820312 9.1840544 0.67691332
7.6228738 7.7085052 -2.1072946
9.2524748 9.349884 -2.0833945
9.0666037 9.1556511 -1.5821079
9.076293 9.1622467 -1.1283183
9.0890312 9.1686935 -0.67659932
9.0990925 9.1724463 -0.22552
5.6282582 5.657805 -2.1383629
9.1374674 9.1822395 0.22611338
6.4672351 6.4966493 -2.1163394
9.1337681 9.1721077 0.67837876
7.6469665 7.6790657 -2.1065314
9.2976074 9.3301201 -2.0862103
9.1265402 9.1520634 -1.5869827
9.1279211 9.1502533 -1.1307586
9.1491985 9.1651821 -0.67869276
9.1451893 9.1547737 -0.22586904
5.6452379 5.635396 -2.1373277
9.1892824 9.1700602 0.22660203
6.4940133 6.4781618 -2.1176891
9.1925964 9.1669664 0.68036753
7.6820641 7.6606455 -2.1088212
9.3259239 9.2934227 -2.0852716
9.1668682 9.1285553 -1.5884452
9.1739283 9.1323881 -1.1325017
9.2037888 9.1557293 -0.68036753
9.205451 9.1509924 -0.22656713
5.6635046 5.6142945 -2.1368101
9.2453814 9.1618586 0.22719543
6.519352 6.4582014 -2.1185889
9.2655106 9.1786013 0.68350762
7.7143402 7.6393065 -2.1103475
9.3611126 9.2635937 -2.0858974
9.2478971 9.1483622 -1.5972198
9.2411718 9.1353302 -1.1368595
9.2598495 9.1474047 -0.68214691
9.2599382 9.1443005 -0.22716053
5.688972 5.6022615 -2.1393983
9.294241 9.1493845 0.2276492
6.5323997 6.4283433 -2.1158895
9.3015938 9.1534271 0.68392634
7.7452273 7.6191921 -2.1118741
9.4002314 9.2408113 -2.0877745
9.2895088 9.1287775 -1.5991696
9.2913141 9.1241808 -1.1392999
9.3043871 9.13064 -0.68319362
9.3201866 9.142952 -0.22789353
5.7102823 5.5860653 -2.1404335
9.3516922 9.1450796 0.22831239
6.5592566 6.4120936 -2.1176891
9.3592043 9.1460276 0.68581045
7.7676444 7.5907192 -2.1111107
9.4265871 9.2054453 -2.0868361
9.3412046 9.1157074 -1.602582
9.3614559 9.1322727 -1.1441805
9.3732252 9.1373796 -0.68601978
9.3792629 9.1368723 -0.22855672
5.7311306 5.5674462 -2.1409512
9.4108171 9.1388474 0.22897558
6.5815978 6.3891597 -2.1176891
9.4183025 9.1397305 0.68779916
7.7940922 7.5635605 -2.1111107
9.481349 9.1944895 -2.0918419
9.3872261 9.096858 -1.6050195
9.4090166 9.11479 -1.146098
9.4251566 9.1240501 -0.68748522
9.4254694 9.1179829 -0.22890575
5.7449694 5.5420399 -2.1388805
9.4599314 9.1226006 0.22939444
6.6108747 6.3729115 -2.1199389
9.4731617 9.1289711 0.68947399
7.8289299 7.5444794 -2.1134005
9.5076923 9.1558571 -2.0905905
9.4532537 9.0970669 -1.6108691
9.4551325 9.095706 -1.1478411
9.4799871 9.1132393 -0.68915993
9.4716625 9.098876 -0.22925481
5.7698565 5.5273027 -2.1409512
9.5061626 9.1033516 0.22974348
6.6302652 6.3470984 -2.1190388
9.5251665 9.1151867 0.69093937
7.8637228 7.5252552 -2.1156902
9.5424519 9.1253414 -2.0912163
9.5165224 9.0941877 -1.6162314
9.5141993 9.0887909 -1.151153
9.5305195 9.0980215 -0.69052064
9.5323067 9.0933628 -0.2299529
5.7835178 5.5018005 -2.1388805
9.5755606 9.1059389 0.23065101
6.6453176 6.3172045 -2.1167896
9.5887794 9.1121483 0.69324213
7.8984838 7.5058722 -2.11798
9.5742455 9.091979 -2.0912163
9.5770102 9.0882397 -1.6211061
9.573329 9.0815811 -1.154465
9.5839643 9.0853081 -0.69209075
9.5988264 9.0930452 -0.23079063
5.8167324 5.4948435 -2.144057
9.6261816 9.0903139 0.23110476
6.6673298 6.2939677 -2.1167896
9.6437731 9.1005516 0.6949169
7.9246383 7.4782534 -2.11798
9.6116753 9.063921 -2.0924675
9.6086693 9.0547619 -1.6211061
9.6455812 9.086359 -1.1593457
9.6548796 9.088768 -0.6949169
9.6581841 9.0855141 -0.23145382
5.8288312 5.4678979 -2.1414688
9.6928654 9.0894833 0.23194249
6.6921039 6.2733192 -2.1176891
9.6957579 9.0890083 0.69648695
7.9478273 7.4478621 -2.1172168
9.6403751 9.0276127 -2.0918419
9.6808052 9.0591421 -1.6279309
9.6743317 9.0499086 -1.1589971
9.7040567 9.0713749 -0.69617295
9.7028723 9.0670872 -0.23180287
5.8394027 5.4396162 -2.1383629
9.7405148 9.0736437 0.23236135
6.7185712 6.2564101 -2.119489
9.7478848 9.0741663 0.69795239
7.9895883 7.4347835 -2.1214147
9.6572399 8.9834871 -2.0890262
9.7427816 9.0567198 -1.633293
9.7452698 9.0527029 -1.1637034
9.7633591 9.0663242 -0.69826639
9.7696371 9.065814 -0.23264058
5.8644977 5.426784 -2.1409512
9.7985487 9.0640326 0.23298962
6.7375088 6.2302713 -2.1185889
9.8072529 9.0689087 0.70004582
8.0185232 7.4122481 -2.1225593
9.7015963 8.9617872 -2.0918419
9.8005896 9.0468941 -1.6376804
9.8030596 9.0460062 -1.1670153
9.8213778 9.0565557 -0.70015049
9.8246441 9.0564051 -0.23323396
5.8890944 5.4115105 -2.1430218
9.8565273 9.0571995 0.23365282
6.758131 6.2078962 -2.1185889
9.863862 9.0575819 0.70182526
8.0501318 7.3895254 -2.1240859
9.729804 8.9282331 -2.0915291
9.8451653 9.0277624 -1.6401178
9.8624887 9.0373039 -1.1703273
9.8690233 9.0401325 -0.70140654
9.8901262 9.0531082 -0.23403677
5.9036674 5.387012 -2.1414688
9.9192076 9.0479622 0.23435092
6.7779603 6.1804571 -2.1176891
9.9176559 9.0402069 0.70329064
8.0729771 7.3587327 -2.1233225
9.7683058 8.8978291 -2.0927804
9.916358 9.0263577 -1.6464549
9.9160767 9.0229378 -1.1729419
9.9331255 9.032115 -0.70360464
9.940999 9.032938 -0.23445563
5.9253006 5.3689647 -2.1425042
9.9877806 9.0468464 0.23522353
6.8023806 6.1593771 -2.1185889
9.9772882 9.0309963 0.70527941
8.0986156 7.3305058 -2.1233225
9.790513 8.8557291 -2.0909033
9.9772568 9.0183125 -1.6513296
9.9815111 9.0189934 -1.1769512
10.003132 9.0321903 -0.70632613
9.987318 9.0115757 -0.23480467
5.9382601 5.343081 -2.1404335
10.03417 9.0252981 0.23557259
6.8252869 6.1368995 -2.1190388
10.041429 9.0254879 0.70758218
8.1329136 7.3100672 -2.1256123
9.8287163 8.8280973 -2.0924675
10.038224 9.0099478 -1.6562046
10.027765 8.9974003 -1.1786942
10.06137 9.0212154 -0.70821023
10.055944 9.0100212 -0.2356773
5.9568734 5.3223214 -2.1404335
10.092456 9.0141964 0.23620087
6.8481226 6.1143336 -2.119489
10.107142 9.0209732 0.70998967
8.1613083 7.2842493 -2.1263754
9.8653679 8.7989969 -2.0937192
10.093323 8.9959879 -1.6601044
10.094811 8.994154 -1.1828777
10.116668 9.007287 -0.709885
10.123192 9.0067635 -0.23651502
5.9783044 5.3040609 -2.1414688
10.152287 9.0041199 0.23686406
6.8606768 6.0826335 -2.1167896
10.168387 9.0152283 0.71218777
8.1955004 7.2635317 -2.1286652
9.898982 8.7671232 -2.0943449
10.150023 8.9799824 -1.1856667
10.168994 8.9904404 -0.71135038
10.179972 8.9969816 -0.23714329
6.0054812 5.2908211 -2.1445746
10.2226 9.0060968 0.23780648
6.8866577 6.065002 -2.1185889
10.211784 8.9902401 0.71302515
8.2296495 7.2426605 -2.130955
9.9250364 8.731636 -2.0937192
10.240793 9.0030956 -1.6742412
10.223216 8.9813185 -1.1905475
10.239268 8.9922562 -0.71417654
10.233859 8.9811802 -0.23766688
6.0157261 5.264514 -2.1419864
10.288595 9.0006399 0.23860931
6.9092522 6.0422106 -2.1190388
10.303255 9.0071182 0.71721202
8.2447548 7.2075748 -2.1286652
9.9643755 8.7047434 -2.0955963
10.3245 9.0129824 -1.682772
10.296474 8.9853592 -1.1956024
10.600256 9.2439337 -0.73709965
10.302838 8.9782429 -0.23853949
6.0311456 5.2409534 -2.1409512
10.35316 8.9935236 0.2393772
6.9347177 6.0218873 -2.1203887
10.354234 8.9881258 0.71857274
8.2817202 7.1890535 -2.1317184
9.9857492 8.6621389 -2.0937192
10.564394 9.1576252 -1.7166517
10.676243 9.2447939 -0.74013513
10.526163 9.1084003 -0.2429724
6.0508676 5.2211289 -2.1414688
10.708534 9.2368345 0.24684684
6.949791 5.9925551 -2.1185889
10.518676 9.0666761 0.72778392
8.3127136 7.1652255 -2.1332448
10.018916 8.6298094 -2.0943449
10.60683 9.129755 -1.7183578
10.685172 9.1939497 -1.2332537
10.726624 9.223094 -0.74139124
10.674674 9.1719561 -0.24566007
6.0675902 5.1987171 -2.1409512
10.743744 9.2020082 0.24691665
6.9662271 5.9644556 -2.1172395
10.708069 9.1649656 0.73866975
8.3406601 7.1387162 -2.1340079
10.054985 8.5999184 -2.0955963
10.641646 9.0952616 -1.7188454
10.649036 9.0983524 -1.2254097
10.786088 9.2089453 -0.74327534
10.727926 9.1528072 -0.24614875
6.0915852 5.1825147 -2.1430218
10.71944 9.1165123 0.24562517
6.9988842 5.9501982 -2.1208386
10.637976 9.0440216 0.7317614
8.3655272 7.109561 -2.1340079
10.089462 8.5686007 -2.096535
10.624899 9.0169544 -1.7110457
10.68833 9.0675678 -1.2262813
10.665822 9.0420818 -0.73280811
10.68652 9.0564137 -0.24450821
6.1052117 5.1574774 -2.1414688
10.719062 9.0551033 0.24492706
7.0245314 5.9319873 -2.1226382
10.689314 9.0235901 0.73312211
8.390295 7.0803137 -2.1340079
10.125369 8.5414658 -2.0980992
10.654744 8.9816675 -1.7110457
10.683343 8.9993982 -1.2220978
10.622419 8.9449091 -0.72778392
10.682874 8.9894457 -0.24370541
6.1222801 5.1372046 -2.1414688
10.72609 8.9970722 0.2443686
7.051167 5.9124403 -2.1244378
10.729933 8.9939165 0.73375016
8.4137268 7.0524535 -2.1340079
10.156635 8.5073404 -2.098412
10.664722 8.9265804 -1.7076334
10.681036 8.9370737 -1.2184372
10.707209 8.9526119 -0.7314474
10.751015 8.9828749 -0.24454312
6.1431432 5.1182771 -2.1425042
10.74821 8.9518995 0.24415916
7.077754 5.8927774 -2.1262374
10.762796 8.9576874 0.73385483
8.4503622 7.0330892 -2.1370609
10.89128 9.0613966 1.239529
10.178679 8.465517 -2.0968478
10.692762 8.8867636 -1.7071459
10.695313 8.8857288 -1.2165198
10.721488 8.9011507 -0.73029602
10.749989 8.9184752 -0.24381012
6.1609731 5.0968008 -2.1425042
10.774771 8.9105005 0.24405445
7.0982795 5.8680372 -2.1262374
10.800159 8.9251509 0.73427355
8.4824305 7.0098009 -2.1389689
10.223396 8.4425154 -2.0999765
12.72025 10.49696 -2.0249813
6.193656 5.0875249 -2.1476805
7.1322775 5.8543487 -2.1302865
8.5022945 6.9764104 -2.1378241
10.246696 8.4017649 -2.0987251
12.756811 10.452497 -2.0249813
12.891857 10.559379 -1.4579412
12.931691 10.584476 -0.87579
36.923294 30.199846 -0.83261943
6.2023931 5.0585489 -2.1445746
7.1692853 5.8429608 -2.1352355
8.5281162 6.9479308 -2.1382058
10.288215 8.375926 -2.101228
12.804002 10.416669 -2.0266874
12.959552 10.539457 -1.4614276
12.99956 10.564459 -0.87788337
36.922924 29.985062 -0.83024591
6.2170119 5.0344348 -2.1435394
7.1669126 5.7995138 -2.1284869
8.5553722 6.9205875 -2.1389689
10.315851 8.3387222 -2.100915
33.312107 26.917892 5.2586627
12.841832 10.373156 -2.026931
13.033461 10.524198 -1.4656109
6.2495995 5.0248122 -2.1487157
7.1825571 5.7707977 -2.1271372
8.5963106 6.9042106 -2.1431668
10.337196 8.2964773 -2.0993509
33.309845 26.724447 5.2435508
12.885704 10.334478 -2.0281496
13.188262 10.573353 -1.4788586
36.791061 29.454096 -0.8226366
6.2686129 5.0041695 -2.1492336
7.2087498 5.7505536 -2.1289368
8.6203594 6.8741589 -2.1431668
10.37536 8.2677317 -2.101228
12.91549 10.284486 -2.0271747
21.748755 17.312149 -2.4319937
36.762135 29.220999 -0.81970465
6.2784739 4.9762568 -2.1466453
7.2348909 5.7301927 -2.1307364
8.6504612 6.8488989 -2.1446934
10.410356 8.2363644 -2.1024795
12.954417 10.241812 -2.0276623
21.827814 17.250944 -2.4340856
36.647404 28.942408 -2.4473341
36.732063 28.988426 -0.81677264
6.2912498 4.950727 -2.1450922
7.2671061 5.7145381 -2.1343358
8.6635103 6.8101711 -2.1420219
10.443706 8.2036333 -2.1034181
12.994778 10.200204 -2.0283935
21.909847 17.191858 -2.4365258
36.591049 28.691063 -2.4368672
36.666168 28.729303 -0.81307268
6.2978377 4.9204092 -2.1414688
7.2870049 5.6891418 -2.1343358
8.7042551 6.7931724 -2.1462197
10.462926 8.1598463 -2.1015408
13.033438 10.157217 -2.0288811
21.935133 17.088352 -2.4326911
36.539684 28.445368 -2.4268186
36.643127 28.50536 -0.81035018
6.3226066 4.9043174 -2.144057
7.3129816 5.6684437 -2.1361351
8.7341213 6.7675591 -2.1477461
10.500719 8.1305275 -2.1034181
13.082942 10.122597 -2.0310745
22.023022 17.033615 -2.4358287
36.509167 28.217503 -2.4182353
36.612637 28.277039 -0.80748796
6.325911 4.8716102 -2.1393983
7.3358107 5.6452603 -2.1370349
8.7639151 6.7418203 -2.1492727
10.525902 8.0914183 -2.1027923
13.113286 10.076739 -2.0305872
22.106045 16.974842 -2.4384432
36.46484 27.980452 -2.4088149
36.560211 28.043526 -0.8042767
6.3543086 4.8599935 -2.1435394
7.3622336 5.6268177 -2.1392844
8.7831049 6.7103343 -2.1485093
10.562099 8.0636568 -2.1046696
13.149789 10.035604 -2.0310745
22.155882 16.896605 -2.437746
36.411274 27.748011 -2.3991852
36.528938 27.8276 -0.80155414
6.3780808 4.844739 -2.1461277
7.3901653 5.6094432 -2.141984
8.8064766 6.6796327 -2.1485093
10.598224 8.0357513 -2.1065466
13.191073 9.9944344 -2.0320497
22.252848 16.848032 -2.4419296
36.390041 27.53158 -2.3914394
36.482319 27.591352 -0.79841268
6.3957958 4.8213282 -2.1461277
7.4169006 5.5870113 -2.1437836
8.8434458 6.6567583 -2.1515625
10.627603 7.9968553 -2.1065466
13.229199 9.9472141 -2.0322933
22.317638 16.768744 -2.4422781
36.375713 27.311663 -2.383903
36.452049 27.35903 -0.79555053
6.4211569 4.8036413 -2.1487157
7.443572 5.5644546 -2.1455832
8.8792086 6.6352515 -2.1546154
10.650516 7.9531136 -2.1052952
13.283067 9.9117222 -2.0349743
22.388817 16.700264 -2.4436727
36.329903 27.079493 -2.3746917
36.42379 27.129675 -0.79275817
6.450295 4.790411 -2.1528571
7.4692092 5.5430851 -2.1473827
8.9086237 6.6088929 -2.1561418
10.686142 7.9217772 -2.1068597
13.308017 9.8582029 -2.0335121
22.478989 16.645741 -2.4471588
36.279716 26.845579 -2.3652713
36.399273 26.914392 -0.79017514
6.4778628 4.7758889 -2.1564806
7.4963589 5.5227561 -2.1496322
8.9253178 6.5730972 -2.1546154
10.72805 7.8949623 -2.1096754
13.35343 9.8234234 -2.0354621
22.536963 16.567165 -2.4471588
36.221893 26.607637 -2.3554323
36.365826 26.703598 -0.78752238
6.496779 4.7566681 -2.1575158
7.5224962 5.5036173 -2.1518817
8.9470654 6.5434651 -2.1546154
10.763743 7.8663344 -2.1115527
13.384327 9.7779188 -2.0352182
22.601437 16.499382 -2.4482048
36.184067 26.395573 -2.3472679
36.295841 26.467381 -0.78410172
6.5156403 4.7373714 -2.158551
7.5517411 5.4866619 -2.1550312
8.9702988 6.5149198 -2.1549969
10.788169 7.8294382 -2.1112397
13.419982 9.7323084 -2.0354621
22.665701 16.431364 -2.4492507
36.174358 26.205126 -2.3409877
36.268147 26.253746 -0.78151876
6.5446701 4.7236409 -2.1626918
7.5755877 5.4636893 -2.1563809
9.0073204 6.4938984 -2.1584315
10.818637 7.7940454 -2.1118655
13.473207 9.6993189 -2.0383868
22.774666 16.389391 -2.4548287
36.15535 25.999393 -2.3338699
36.229641 26.033659 -0.7787264
6.5799651 4.7142673 -2.1689036
7.5835228 5.4292693 -2.1532316
9.0363207 6.4669857 -2.1599579
10.85542 7.7631254 -2.1137428
13.506975 9.6522379 -2.0383868
22.854042 16.319696 -2.4569204
36.106079 25.773245 -2.324868
36.238903 25.848965 -0.77698112
6.6066456 4.6968365 -2.1720095
7.5976634 5.3993759 -2.1518817
7.8306231 5.5608249 -1.8668753
10.898298 7.7335763 -2.1165586
13.543827 9.6073246 -2.0388744
22.975885 16.285912 -2.4638927
36.076439 25.55299 -2.3169129
36.208134 25.636808 -0.77439815
6.6356263 4.6826582 -2.1761506
7.6205873 5.3737411 -2.1527817
10.936534 7.7034469 -2.1187487
23.169474 16.30191 -2.4785349
36.080452 25.36718 -2.31147
36.156708 25.411364 -0.77139634
6.6574483 4.6650615 -2.1782212
7.6415563 5.3506775 -2.1536813
7.8457761 5.4916339 -1.8615327
7.8848181 5.5148611 -1.5239848
7.8969078 5.521265 -1.1831076
7.9099054 5.5262427 -0.84419054
7.947547 5.5484142 -0.50797284
7.9926476 5.5778255 -0.17012605
6.6887388 4.6539941 -2.1833978
8.0211029 5.5789638 0.17054491
7.6496596 5.3186312 -2.1509819
7.8487754 5.4530087 -1.8577164
8.0814266 5.6146455 0.86092436
8.1059589 5.627501 1.2116251
8.0158319 5.5566363 1.8958783
6.7280097 4.6448116 -2.1906445
7.6642885 5.28724 -2.1496322
7.9875932 5.5082159 0.50849622
7.8994203 5.4453778 -1.8649671
8.0166492 5.5261884 0.85186017
8.0349836 5.5346909 1.1979758
8.0854483 5.5652919 1.5546459
7.9541717 5.4728875 -0.84471345
7.9672971 5.4778218 -0.50671679
7.974678 5.4808469 -0.16890439
6.7625213 4.6321273 -2.1963384
8.0106325 5.4849925 0.16946286
7.6948714 5.26682 -2.1527817
7.9443059 5.4355063 -1.8710731
11.065852 7.5656109 -2.1231289
13.724184 9.376049 -2.0408242
23.858799 16.293695 -2.5276906
8.0991678 5.5290208 1.9061821
35.86031 24.471413 -2.2752535
6.7850366 4.6128426 -2.1984091
7.7196579 5.2443056 -2.1545811
9.2187014 6.2603207 -2.1660638
11.095464 7.5291529 -2.1237545
13.760115 9.3303175 -2.0413115
23.974909 16.250551 -2.5339661
8.1021643 5.4897041 1.9023658
35.869442 24.294575 -2.2704387
35.959782 24.337437 -0.75792313
6.8091049 4.5945311 -2.2009974
7.7573056 5.230402 -2.1599801
9.2339849 6.2237167 -2.1645374
8.53934 5.7533526 0.90084171
11.108569 7.4815512 -2.1212516
8.5808697 5.7769852 1.2701224
13.800858 9.2912903 -2.0427742
24.186884 16.271296 -2.5503514
8.1391964 5.4734421 1.9065636
35.847946 24.097898 -2.2637396
36.003773 24.193527 -0.75715524
6.8483791 4.5880532 -2.2087619
7.7875609 5.2133236 -2.1635792
9.2643642 6.1996107 -2.1668272
11.126748 7.4402833 -2.1200001
13.841497 9.2520885 -2.0442364
24.363302 16.272907 -2.5632503
35.814693 23.903503 -2.2566221
12.928416 8.625453 -0.2712802
6.8892913 4.5824375 -2.2170439
7.8177924 5.1960979 -2.1671786
9.3006687 6.1770062 -2.1702616
8.5358181 5.6690335 0.89648396
11.151361 7.4033418 -2.1200001
13.883637 9.2102976 -2.0456991
8.560689 5.6769495 1.6269187
24.476423 16.225187 -2.5691769
35.754711 23.683495 -2.2476203
12.918431 8.553772 -0.27044249
6.9253888 4.5699263 -2.2232556
7.8693233 5.1888628 -2.1761765
9.3330812 6.1493592 -2.1725514
8.4034748 5.5368624 0.88044727
11.178424 7.3624172 -2.1200001
8.41607 5.5409546 1.2372177
13.127994 8.6398888 -1.9296793
8.4263134 5.543479 1.597509
24.96521 16.417814 -2.6141493
35.721104 23.473307 -2.2400839
12.902896 8.4756289 -0.26946515
6.9485593 4.5487437 -2.2253263
7.9062266 5.1717215 -2.1811254
9.3440523 6.1075935 -2.1698802
8.3753462 5.4744143 0.87539226
11.210292 7.3246398 -2.1209388
8.3980999 5.4850979 1.2316117
13.179517 8.6047411 -1.9326042
8.4052181 5.4855695 1.5896872
25.078627 16.361019 -2.6197271
13.169292 8.584959 -0.82387269
12.893672 8.4020691 -0.26862743
6.9781466 4.5316601 -2.2294674
7.933301 5.1480141 -2.1833749
9.3811989 6.0829201 -2.1733146
8.3635912 5.4230866 0.87208033
11.24535 7.2888775 -2.122503
8.3964882 5.4402504 1.2284431
13.215967 8.5596113 -1.9333354
8.3921022 5.4332561 1.5834299
25.12504 16.260338 -2.6183329
13.116813 8.4824076 -0.81863916
12.900867 8.3395596 -0.26813877
7.013453 4.5233288 -2.2361965
7.9543509 5.1262307 -2.1847248
9.4025087 6.0571828 -2.174078
8.3889647 5.4021764 0.87295192
11.253245 7.2438874 -2.1196871
8.4051905 5.4084759 1.2272245
13.264676 8.5354013 -1.9367478
8.4098492 5.4093986 1.5837427
25.126247 16.155552 -2.6134522
13.104958 8.4196978 -0.81633633
12.915458 8.2947636 -0.26792935
7.0430555 4.5094228 -2.2408552
7.9663801 5.0966754 -2.1833749
9.4308109 6.0312595 -2.1759858
8.4202633 5.3829107 0.87434638
11.278869 7.2075968 -2.1200001
8.4280968 5.383781 1.2279556
13.266138 8.4742718 -1.932848
8.427742 5.3814783 1.5837427
25.287165 16.140753 -2.624608
13.075555 8.339674 -0.81277746
12.88219 8.213191 -0.26667276
7.0873194 4.5046935 -2.2501729
7.9881749 5.0733628 -2.1847248
9.4524193 6.0010028 -2.1763675
8.4380655 5.3549604 0.87434638
11.302711 7.1701517 -2.1200001
8.4509344 5.3589902 1.2286868
13.314083 8.4396 -1.9355291
8.4514809 5.3552008 1.5846813
8.5780106 5.4332771 1.9737284
13.052513 8.2642183 -0.80963731
12.849947 8.1296806 -0.2654162
7.1250257 4.4920826 -2.2569022
8.0190239 5.0537615 -2.188324
9.4776726 5.9684124 -2.1771307
8.4525757 5.3208141 0.8738234
11.343964 7.1381435 -2.1228158
8.4679108 5.3283987 1.2284431
13.395551 8.4258423 -1.9430851
8.4684515 5.3246136 1.5843685
13.31111 8.3662367 -1.3754919
8.5097589 5.3464475 1.9535027
13.045507 8.1929502 -0.80733454
7.1488528 4.4723053 -2.2594905
8.0374937 5.0243344 -2.188324
9.5067739 5.9404917 -2.1790388
8.4491291 5.2775578 0.87155735
11.370484 7.0995498 -2.1231289
8.4856977 5.2962766 1.2281992
13.33371 8.3188982 -1.9296793
8.4836302 5.2929349 1.5837427
13.299658 8.2944202 -1.3713084
13.087585 8.155817 -0.80817193
12.921666 8.0492897 -0.26573035
13.768678 8.5735826 4.3460898
7.1726265 4.4524193 -2.2620785
13.43549 8.3401022 0.27602726
8.0623894 5.0027924 -2.1905735
13.498409 8.3726244 0.83245581
9.5374622 5.9134798 -2.1813285
8.4488735 5.236485 0.86963999
11.393964 7.0618081 -2.1231289
8.4694662 5.2471967 1.2233245
13.334224 8.2579117 -1.9257796
8.4785423 5.2487307 1.5793626
13.323449 8.2447968 -1.3707855
8.4925337 5.2553368 1.9412909
13.121351 8.1165762 -0.80859059
13.527347 8.3579273 4.2606792
7.1824169 4.425571 -2.2605255
13.427064 8.2700768 0.27525935
8.0748253 4.9715509 -2.1892235
13.469714 8.2898712 0.82889694
9.5687227 5.8890247 -2.1839998
8.4373436 5.1906881 0.86667669
11.403402 7.0126762 -2.1203129
8.4522133 5.195775 1.218206
13.242887 8.1375227 -1.9084741
8.4732485 5.2046261 1.5749824
13.364296 8.2089138 -1.37218
8.4740143 5.2030654 1.9328952
13.181949 8.0905724 -0.81057936
13.627178 8.3605633 3.6909969
13.58444 8.3278179 4.2694788
7.1862845 4.3934169 -2.2569022
8.0971193 4.946384 -2.1905735
13.459366 8.2188597 0.82648951
9.6009512 5.8627477 -2.1866713
8.6118689 5.2567034 0.88271332
11.434555 6.9769459 -2.1215644
8.6245213 5.2603006 1.2403862
13.44579 8.1976805 -1.9335792
8.5807638 5.2295036 1.5915645
13.396271 8.1642904 -1.3725287
8.4837437 5.168345 1.9309872
13.419931 8.1722794 -0.82345402
13.60967 8.2845764 3.6783998
13.669548 8.3144789 4.2870789
7.1916652 4.3622956 -2.2537963
8.1226683 4.9231377 -2.1928227
13.534093 8.1997738 0.82931566
9.6163187 5.826149 -2.1855264
8.7102604 5.275125 0.89090598
11.47405 6.9461937 -2.1243804
8.7260504 5.2805204 1.2523295
13.600008 8.2267361 -1.9516157
8.713913 5.269021 1.6128395
13.477543 8.1494331 -1.3779322
13.634698 8.2412119 3.0968304
13.527006 8.172905 -0.82826895
13.655189 8.2470903 3.6828988
13.246781 7.9972773 -0.27009344
13.638936 8.2307882 4.2684436
7.2018843 4.3341751 -2.2522435
13.615742 8.1908703 0.27735364
8.1464815 4.898777 -2.1946225
13.617414 8.1854038 0.83266515
9.6466951 5.7986121 -2.1878161
8.7593622 5.2631569 0.89404356
11.486369 6.8989873 -2.1221902
8.7665529 5.2633138 1.2554981
13.626943 8.1781874 -1.9513721
8.7678213 5.2599182 1.6194097
26.928087 16.154474 -2.7473233
13.702106 8.2167931 3.1056075
35.345596 21.187439 -2.1596959
13.720671 8.2214069 3.6927965
13.250597 7.9366059 -0.26960477
13.790241 8.2565622 4.3067493
7.215312 4.3080168 -2.2517259
8.165206 4.8713069 -2.1950724
9.6803684 5.7729454 -2.1908689
11.51717 6.8628922 -2.1234417
13.621292 8.1102629 -1.9464973
27.097315 16.127625 -2.7588279
35.319767 21.004725 -2.1536248
13.724543 8.1555176 4.277761
7.2303028 4.2828097 -2.2517259
8.1779633 4.8422155 -2.1941726
9.7105942 5.7451234 -2.1931586
11.550069 6.8306918 -2.1253188
13.750655 8.125638 -1.9611217
27.266682 16.099791 -2.7703323
35.289471 20.828594 -2.1475537
35.382862 20.867065 -0.71701467
13.727963 8.0928469 4.2699966
7.2461319 4.2597866 -2.2522435
8.2048988 4.8195596 -2.196872
9.73806 5.7178588 -2.1950669
11.577251 6.7923298 -2.1259446
13.778933 8.0775928 -1.9611217
27.3846 16.040773 -2.7766075
35.24131 20.634649 -2.1402268
35.338112 20.674768 -0.71464115
14.641629 8.5627422 4.5448627
7.2500124 4.2263908 -2.24862
8.228406 4.7948155 -2.1986716
9.7538586 5.6791663 -2.1939218
11.602067 6.7498536 -2.1259446
13.788172 8.018465 -1.9584407
27.623032 16.051184 -2.7950845
35.213074 20.445166 -2.1339464
35.295921 20.485033 -0.71233743
7.2580323 4.1971874 -2.2465494
8.2560482 4.7704768 -2.201371
13.353873 7.7160821 0.80827659
9.7872257 5.6529379 -2.196975
13.360235 7.7135391 1.3496938
11.622134 6.7073412 -2.1253188
15.358281 8.8563938 -2.1768305
27.768648 16.006409 -2.8041487
35.187305 20.266312 -2.1280849
35.263237 20.301828 -0.71024317
7.2676134 4.168941 -2.2449965
8.2684393 4.7411351 -2.2004712
13.368598 7.6624646 0.80754387
9.813714 5.6226406 -2.1985013
13.457963 7.7074556 1.3568406
11.642597 6.6677847 -2.125006
15.366893 8.7935801 -2.1739056
27.897007 15.950912 -2.81147
35.188427 20.111843 -2.1241074
35.264427 20.138954 -0.70884693
7.2797189 4.1438637 -2.2444789
8.2866344 4.7132053 -2.2009211
13.365746 7.5989747 0.8057645
9.8459587 5.5978312 -2.2015543
13.559668 7.7060962 1.3645103
11.669238 6.6290522 -2.1256318
15.40785 8.7457676 -2.1753678
28.032921 15.905512 -2.8198366
35.181961 19.945555 -2.1195018
35.261429 19.974346 -0.70738095
7.2958202 4.1193786 -2.2449965
8.2945499 4.6794605 -2.1986716
13.364352 7.5365791 0.80408967
9.8688583 5.5653596 -2.2023175
13.664588 7.7027397 1.3723543
11.700913 6.5931239 -2.1271961
15.424449 8.6841354 -2.173418
28.317467 15.936541 -2.8428459
35.126034 19.752132 -2.1119652
35.191463 19.772783 -0.70458853
7.3017287 4.0891647 -2.2424083
8.3125343 4.6514325 -2.1991215
13.368358 7.4805126 0.80283368
9.8865128 5.5299158 -2.201936
11.720407 6.5503154 -2.1265705
15.447734 8.6263742 -2.1724429
28.404238 15.855084 -2.8459837
35.100578 19.576857 -2.1063132
35.186981 19.617016 -0.70319241
7.3092017 4.0599017 -2.2403376
8.3313198 4.6257353 -2.2000213
9.9143372 5.5001359 -2.2038438
11.738608 6.5094995 -2.1259446
15.479726 8.5770264 -2.1729305
28.473358 15.763551 -2.847378
35.081409 19.413954 -2.1012888
35.153748 19.437941 -0.70116788
7.3260083 4.0375075 -2.2413731
8.3440027 4.5947428 -2.1991215
9.9445601 5.4738569 -2.2065153
11.757798 6.4665771 -2.1253188
15.530449 8.5344076 -2.1758554
28.738514 15.786073 -2.868644
35.040417 19.231791 -2.094799
35.137211 19.268982 -0.69949245
7.3485327 4.0165405 -2.2439611
8.3582792 4.5646563 -2.1986716
9.9773951 5.4466343 -2.2095683
11.790703 6.4311733 -2.1271961
15.535746 8.4668417 -2.1724429
28.79344 15.685667 -2.868644
34.963493 19.031055 -2.0862162
35.084805 19.081236 -0.69711888
7.3591113 3.9890254 -2.2429259
8.3810177 4.5391626 -2.2004712
9.9911671 5.4089661 -2.2084234
11.823506 6.3956127 -2.1290734
15.568692 8.4144583 -2.1729305
29.146023 15.746049 -2.898277
34.952366 18.867174 -2.0816104
35.038563 18.897888 -0.69488502
7.3610802 3.9569082 -2.2393024
8.412262 4.5181808 -2.2045202
10.015177 5.3768463 -2.2095683
11.852721 6.3580399 -2.1303248
15.594472 8.3581829 -2.1724429
29.660942 15.890719 -2.9439464
34.919411 18.692257 -2.0757489
35.012623 18.726433 -0.69306999
7.362916 3.9248264 -2.2356789
8.4451809 4.4979515 -2.2090194
10.039083 5.3446183 -2.2107131
11.873097 6.315702 -2.1300118
15.627057 8.305563 -2.1729305
29.665195 15.759999 -2.9388916
34.910347 18.53093 -2.0713527
34.978848 18.551622 -0.69111532
7.3799858 3.900908 -2.2367141
8.4608307 4.4684424 -2.2090194
10.080248 5.3214602 -2.2156742
11.893325 6.273294 -2.129699
15.673516 8.2602148 -2.1753678
29.705929 15.648916 -2.9374971
34.86171 18.349409 -2.0646536
34.979675 18.39591 -0.68985873
7.3935571 3.8751249 -2.2367141
8.4832811 4.4424992 -2.2108188
10.10398 5.2889752 -2.216819
11.911648 6.2299118 -2.1290734
15.69522 8.2017727 -2.1743929
29.68973 15.508236 -2.9305246
34.840561 18.183241 -2.0596294
34.926655 18.212664 -0.68755502
7.4018955 3.846622 -2.2351615
8.5056562 4.41645 -2.2126186
10.117152 5.250957 -2.2156742
11.938584 6.1910191 -2.1300118
15.727277 8.1487656 -2.1748805
29.683535 15.373343 -2.924598
34.811581 18.013792 -2.0541863
34.894093 18.041052 -0.68567014
7.4204302 3.8234136 -2.2367141
8.5383463 4.3956552 -2.2171178
10.126691 5.2111201 -2.2137661
11.968905 6.1538272 -2.1315763
15.766222 8.0992556 -2.176343
29.651951 15.225945 -2.9162312
34.792511 17.85022 -2.0493715
34.874992 17.877184 -0.68406457
7.4165287 3.7886977 -2.2315381
8.5623178 4.3702507 -2.219367
10.153565 5.1801982 -2.2156742
11.983275 6.1084185 -2.1303248
15.797931 8.0459852 -2.1768305
29.630339 15.084387 -2.9089103
34.786945 17.694277 -2.0453939
34.887268 17.729961 -0.68308723
7.4366007 3.7662787 -2.2336085
8.5775213 4.3403339 -2.219367
10.185599 5.1518149 -2.2187271
12.004527 6.0665488 -2.1303248
15.820983 7.9917583 -2.176343
29.633011 14.955721 -2.9040291
34.762901 17.529566 -2.0403697
34.838734 17.56016 -0.6809929
7.4473228 3.740732 -2.2330909
8.598834 4.3153639 -2.2211666
10.199118 5.1162515 -2.2179639
12.028109 6.0284796 -2.1309505
15.843845 7.9374747 -2.1758554
29.600487 14.816357 -2.8960109
34.713669 17.360582 -2.0340893
34.818077 17.405201 -0.67945713
7.4596877 3.7160132 -2.2330909
8.6322851 4.2963829 -2.2261157
10.216028 5.0823989 -2.2179639
12.049804 5.9894357 -2.1312635
15.878572 7.8856492 -2.1768305
29.58777 14.681068 -2.8897357
34.685154 17.202782 -2.0290651
34.781857 17.235617 -0.67757225
7.4697919 3.6869388 -2.2320557
8.6682014 4.2765684 -2.2315145
10.238109 5.0466595 -2.2187271
12.073446 5.946106 -2.1315763
15.895313 7.8249173 -2.1753678
29.553026 14.535482 -2.8813689
34.661934 17.033266 -2.0240412
34.762836 17.0753 -0.67603642
7.4704704 3.654897 -2.2284322
8.7048264 4.2550406 -2.2369132
10.269776 5.0177836 -2.2217801
12.076373 5.8952684 -2.1284475
15.916751 7.7631202 -2.1743929
29.535522 14.399061 -2.8747449
34.634995 16.870178 -2.0190167
34.717949 16.903088 -0.67401195
7.4849224 3.6296389 -2.2289498
8.739933 4.2363486 -2.2423122
10.290764 4.9836135 -2.2225432
12.099414 5.8569074 -2.1290734
15.953131 7.715477 -2.1758554
29.513847 14.261209 -2.8677726
34.608017 16.715263 -2.0142016
34.697495 16.743567 -0.67247611
7.5021391 3.6073108 -2.2305026
8.772234 4.214251 -2.2468112
10.310772 4.9511623 -2.2233064
12.121567 5.8154879 -2.1293862
15.972803 7.6563144 -2.1748805
29.495169 14.12539 -2.8611488
34.565273 16.546074 -2.0083401
34.661926 16.577473 -0.67066109
7.5118213 3.57813 -2.2294674
8.8150415 4.19701 -2.2540095
11.904549 5.6654344 0.69093937
10.321757 4.9099674 -2.2217801
12.146367 5.7727194 -2.1300118
15.988672 7.5954051 -2.173418
29.493895 13.998434 -2.8562682
34.542675 16.379902 -2.0035253
34.647297 16.422127 -0.66926491
7.5172763 3.5485897 -2.2273967
12.402597 5.8520904 0.2393772
8.8162661 4.1580205 -2.2504103
10.338833 4.87391 -2.2217801
12.164659 5.7294412 -2.129699
16.02359 7.5401292 -2.1743929
29.459646 13.856379 -2.8482494
34.523716 16.223555 -1.9991291
34.606674 16.255165 -0.66738003
7.5138702 3.5149589 -2.222738
8.8088217 4.1188583 -2.2450116
10.359342 4.8394499 -2.2225432
12.18538 5.689908 -2.1300118
16.0557 7.4903116 -2.1753678
29.428373 13.716432 -2.84058
34.499477 16.072721 -1.9946282
34.590687 16.100523 -0.66598386
7.525486 3.4900208 -2.222738
8.8231449 4.0880866 -2.2450116
10.389585 4.8116674 -2.2255962
12.108356 5.6025472 -2.113117
12.034736 5.5633769 -1.6279309
12.056435 5.5708609 -1.1619604
34.506413 15.929585 -1.9918021
34.596676 15.963951 -0.66507632
7.5393777 3.4645388 -2.2232556
12.145037 5.5809588 0.23330377
8.811862 4.0474157 -2.238713
10.413454 4.7786493 -2.2271228
12.015549 5.5112996 -2.0937192
16.124361 7.3891211 -2.1778054
12.057692 5.5204444 -1.1602172
12.086312 5.5309968 -0.69659162
12.108444 5.5360146 -0.23239625
7.5455499 3.4371173 -2.2217028
12.171722 5.5418472 0.23344338
8.8241634 4.0158224 -2.2382631
12.16246 5.532506 0.70025522
10.416734 4.7384028 -2.2244515
12.239729 5.5624914 -2.1293862
16.139208 7.3278704 -2.176343
29.382986 13.32871 -2.8228002
34.574013 15.676209 -1.9894991
34.656284 15.69891 -0.66409898
7.5563369 3.4086421 -2.2211852
8.8399019 3.9858031 -2.238713
12.263639 5.5269418 0.70496535
10.437612 4.7018018 -2.2252147
12.260034 5.5175962 -2.1293862
16.175554 7.2763715 -2.1778054
29.349373 13.190135 -2.8151305
34.558372 15.516637 -1.9853123
34.637894 15.545097 -0.66270274
7.5487876 3.3735762 -2.2154911
12.247583 5.4709187 0.23414148
8.8455563 3.9493973 -2.2364633
12.333057 5.5039358 0.70779151
10.466509 4.6709418 -2.227886
12.277416 5.4739594 -2.1290734
16.194859 7.213809 -2.1768305
29.344276 13.064908 -2.8102498
34.539314 15.363463 -1.9811254
34.628849 15.388812 -0.66144621
7.5587516 3.3464212 -2.2149734
8.841464 3.9106202 -2.2319643
12.401518 5.4826536 0.71061772
10.475568 4.6312003 -2.2263594
12.285604 5.4262896 -2.1271961
16.219944 7.1572299 -2.1768305
29.324062 12.933471 -2.8039744
34.512321 15.207362 -1.9765199
34.612808 15.237215 -0.66011983
7.5668497 3.3184621 -2.2139382
12.28548 5.3852806 0.23414148
8.846137 3.8758211 -2.2297149
12.442534 5.4489417 0.71187371
10.509656 4.6024785 -2.2301757
12.304471 5.3833685 -2.1271961
16.266653 7.1101122 -2.1797554
29.310614 12.8055 -2.7983966
34.473667 15.046858 -1.9712863
34.581474 15.079526 -0.6585142
7.5890155 3.2966518 -2.2170439
8.8703375 3.8495753 -2.2324142
10.514847 4.5610843 -2.227886
12.326814 5.3419528 -2.1278217
16.295017 7.0548606 -2.1802428
29.307592 12.682528 -2.7938643
34.448986 14.893133 -1.9668901
34.520073 14.909587 -0.65635008
7.5916052 3.2663217 -2.2144558
8.8747702 3.8147385 -2.2301648
10.534313 4.5258999 -2.2286491
12.3472 5.299674 -2.1281347
16.323193 6.999506 -2.1807303
29.311396 12.562886 -2.7900295
34.438343 14.746055 -1.9633311
34.503143 14.766696 -0.65509355
7.5905199 3.2345028 -2.2108324
8.8963346 3.7891076 -2.2324142
12.110236 5.1554618 0.68978798
10.560885 4.4937153 -2.2309389
12.355617 5.254837 -2.1265705
16.342657 6.9437876 -2.1802428
29.289049 12.432462 -2.7837543
34.417179 14.602154 -1.9593538
34.473473 14.611822 -0.65355772
7.5958648 3.2070575 -2.2092795
8.9166899 3.7610574 -2.2342138
12.126316 5.1123843 0.68968332
10.579349 4.4601917 -2.2317021
12.361142 5.2063046 -2.1243804
16.381435 6.8928537 -2.1821926
29.300726 12.322914 -2.7809653
34.405334 14.455612 -1.9557949
34.450508 14.460447 -0.65216148
7.6159248 3.1842511 -2.2118676
8.9063873 3.7201474 -2.2283652
12.180948 5.0854163 0.69177675
10.602099 4.4262633 -2.2332287
12.381063 5.1638875 -2.1246932
16.405399 6.8356252 -2.1821926
29.303097 12.203714 -2.7771306
34.348637 14.290919 -1.9497238
34.434307 14.312466 -0.65090495
7.6216373 3.1554315 -2.2103145
8.9139175 3.6867988 -2.2270155
10.617484 4.3892303 -2.2332287
12.40449 5.1228967 -2.1256318
16.421818 6.7752934 -2.1812177
29.334469 12.096788 -2.7760847
34.350296 14.151161 -1.9470025
34.381725 14.157091 -0.64902014
7.6326065 3.1288059 -2.2103145
8.9260931 3.6572206 -2.2270155
10.625473 4.349164 -2.2317021
12.425069 5.0832267 -2.1262577
16.44787 6.7223048 -2.1817052
29.335932 11.977756 -2.7722497
34.311966 14.002466 -1.9421874
34.364273 14.009803 -0.64776349
7.6339912 3.0998418 -2.2077267
8.9406099 3.6267748 -2.2274654
10.658033 4.3212786 -2.2355182
12.429916 5.0346417 -2.1240675
16.489637 6.6722918 -2.1841426
29.384956 11.878261 -2.7729471
34.29768 13.857163 -1.9386288
34.331375 13.85684 -0.64622766
7.6381307 3.0689616 -2.2056561
8.9387503 3.5897319 -2.2238662
10.653755 4.274147 -2.2313204
12.440955 4.9861012 -2.1228158
16.509142 6.6132183 -2.183655
29.44104 11.781529 -2.7743416
34.26292 13.697265 -1.9338137
34.32383 13.714648 -0.64518058
7.6487975 3.0422788 -2.2056561
8.946413 3.5547891 -2.2225163
10.670436 4.2376542 -2.2317021
12.461953 4.944109 -2.1234417
16.536961 6.5541234 -2.1841426
29.480127 11.677976 -2.7741673
34.228817 13.545238 -1.9292083
34.325512 13.569646 -0.64427304
7.6611662 3.0162742 -2.2061737
8.9424458 3.5171168 -2.2184672
10.69247 4.2032623 -2.2332287
12.477299 4.8998532 -2.1231289
16.541258 6.4891129 -2.1817052
29.62459 11.615721 -2.7839286
34.220093 13.403828 -1.9260681
34.309361 13.424962 -0.64308631
7.6608496 2.9853029 -2.2030678
8.9637489 3.4894171 -2.220717
10.696099 4.1616392 -2.2309389
12.492484 4.8555565 -2.1228158
16.59712 6.4442625 -2.1860926
29.746679 11.543963 -2.7915986
34.2015 13.259018 -1.9224045
34.267914 13.277886 -0.64148062
7.6658168 2.9564559 -2.201515
8.977088 3.4603758 -2.2211666
10.741709 4.1362681 -2.2374265
12.493767 4.8084297 -2.1203129
16.610985 6.3863425 -2.1851175
29.831436 11.457193 -2.7957821
34.181885 13.121201 -1.9188457
34.250568 13.133852 -0.6402939
7.6773834 2.9317055 -2.2020326
8.9781876 3.4248488 -2.2184672
10.755367 4.1006212 -2.2374265
12.506785 4.7633791 -2.1196871
16.640596 6.3311481 -2.1860926
29.992178 11.404952 -2.8072865
34.143452 12.969894 -1.9141355
34.232643 12.990086 -0.63910717
7.682148 2.9028459 -2.2004797
8.9809732 3.3900447 -2.2162178
10.782472 4.0679064 -2.2400978
12.527035 4.7210832 -2.1203129
16.662598 6.2730184 -2.1860926
30.139959 11.340878 -2.8173964
34.11935 12.824623 -1.9102625
34.210381 12.845213 -0.63785052
7.692235 2.8760104 -2.2004797
8.9982281 3.3607223 -2.2175674
10.789248 4.0274992 -2.2385712
12.543437 4.6773295 -2.1203129
16.68067 6.2134256 -2.1856048
30.254051 11.263412 -2.824369
34.083416 12.675502 -1.9057617
34.204052 12.71359 -0.63694304
7.6967897 2.8471324 -2.1989267
9.0074968 3.3301866 -2.2171178
10.801398 3.9891357 -2.2381897
12.568146 4.6391253 -2.1218774
16.704906 6.159462 -2.1860926
30.442751 11.212819 -2.8383138
34.069023 12.541729 -1.9026215
7.6862345 2.8142848 -2.1932325
9.0099144 3.2953787 -2.2148681
10.82932 3.9586842 -2.2412426
12.582405 4.5945511 -2.1215644
16.741224 6.1065507 -2.1880424
30.532179 11.130919 -2.8431945
34.056301 12.40222 -1.8994814
34.105648 12.413449 -0.63352239
7.6941962 2.7867777 -2.1927149
9.0079679 3.2608373 -2.2117188
10.848613 3.922859 -2.2423875
12.590143 4.5501122 -2.1203129
16.776323 6.0563893 -2.1899924
30.657061 11.05537 -2.8512127
34.029598 12.264827 -1.8957131
34.109257 12.280106 -0.63278937
7.7033949 2.7612493 -2.1927149
9.000947 3.2228062 -2.2072196
10.86341 3.8875258 -2.242769
12.628269 4.5141182 -2.1240675
16.797361 5.9977961 -2.1899924
30.87562 11.012538 -2.8679469
34.000717 12.120473 -1.8917356
34.099171 12.142176 -0.63181204
7.7152834 2.7336428 -2.1932325
9.0084696 3.1900642 -2.20632
10.877584 3.8476858 -2.242769
12.622378 4.4599085 -2.1203129
16.806961 5.935163 -2.1885297
31.026611 10.944453 -2.8784056
34.003468 11.981179 -1.8894329
34.052704 11.991845 -0.63017148
7.7156644 2.7034993 -2.1906445
9.0219393 3.157671 -2.2067699
10.879831 3.8058002 -2.2404792
12.682625 4.4314556 -2.1278217
16.834223 5.8754883 -2.189261
31.207596 10.885963 -2.8916531
33.950775 11.829578 -1.8841994
34.026539 11.842642 -0.62888002
7.717751 2.6740215 -2.1885738
9.0421152 3.1293435 -2.2090194
10.878205 3.7626672 -2.2374265
12.698018 4.3871546 -2.1278217
16.860262 5.8186288 -2.1899924
31.264242 10.783449 -2.8933964
33.920105 11.686264 -1.8802218
34.007164 11.70298 -0.62776303
7.7416601 2.652072 -2.1927149
9.0363874 3.0920894 -2.2049701
10.891274 3.7246692 -2.2374265
12.733814 4.3498363 -2.1312635
16.878593 5.7590942 -2.1897485
31.414829 10.712856 -2.9038548
33.922882 11.5549 -1.8781283
33.987232 11.563582 -0.6266461
7.7563596 2.626893 -2.194268
9.0323591 3.0555296 -2.201371
10.89677 3.6841109 -2.2358999
12.767638 4.3116775 -2.1343923
16.887306 5.6963391 -2.1882861
31.53133 10.629856 -2.911176
33.883511 11.409655 -1.8737321
33.970531 11.425739 -0.62559897
7.7572474 2.6000547 -2.1921973
9.041913 3.0271404 -2.201371
10.889672 3.6436319 -2.2320838
12.833577 4.2890801 -2.1431525
16.905117 5.6432614 -2.1882861
31.660919 10.55674 -2.9198918
33.847187 11.279146 -1.8697546
33.924667 11.291812 -0.62409806
7.7483859 2.5655353 -2.187021
9.0505753 2.9949453 -2.2009211
10.889905 3.5993845 -2.2294126
13.149341 4.341094 -2.1932113
16.922827 5.5835896 -2.1880424
31.765694 10.468615 -2.9261668
33.846561 11.141284 -1.8674518
33.903091 11.153336 -0.62298113
7.7517858 2.5366678 -2.185468
9.0651951 2.9629655 -2.2018209
10.89867 3.5601275 -2.2286491
13.162535 4.2945576 -2.1928985
16.95639 5.5258365 -2.1897485
31.991489 10.419359 -2.943598
33.828262 11.00454 -1.8643116
33.86195 11.008945 -0.62151515
7.7550793 2.5078125 -2.1839154
9.0582829 2.9274924 -2.1977718
10.907293 3.5208585 -2.227886
13.174825 4.2502756 -2.1925857
16.974623 5.4695721 -2.1897485
32.008694 10.301528 -2.941855
33.81514 10.876392 -1.8615903
33.854473 10.876007 -0.62067741
7.7596703 2.4809062 -2.1828799
9.0535955 2.8911147 -2.1941726
10.926391 3.4870591 -2.2294126
13.193346 4.2054572 -2.1932113
16.984156 5.4072704 -2.1885297
32.078636 10.200608 -2.9449925
33.772953 10.732873 -1.8571938
33.842674 10.742043 -0.61976987
7.7687111 2.4524508 -2.1828799
9.0617752 2.8589056 -2.1937227
10.931606 3.4446309 -2.227886
13.204902 4.15589 -2.1925857
16.991564 5.3443899 -2.1870675
32.18248 10.11006 -2.951268
33.762516 10.593479 -1.8544725
33.799831 10.598707 -0.61830384
7.7661595 2.421865 -2.179774
9.0647488 2.8233571 -2.1919231
10.902326 3.3936119 -2.2194905
13.219327 4.1097736 -2.1925857
17.003458 5.2797098 -2.1860926
32.259438 10.010658 -2.9551027
33.753506 10.461361 -1.8519603
33.786957 10.465283 -0.61739635
7.7745667 2.3947394 -2.179774
9.0777855 2.7944303 -2.1928227
10.908476 3.3538008 -2.2183454
13.217776 4.0612755 -2.1900828
17.02087 5.2232985 -2.1860926
32.40086 9.9306765 -2.964864
33.726902 10.330662 -1.8486109
33.769741 10.330893 -0.61641902
7.7843151 2.3695056 -2.1802919
9.081892 2.7610228 -2.1914732
10.906389 3.3136106 -2.2156742
13.218642 4.0110931 -2.1878927
17.054195 5.1684618 -2.1880424
32.448864 9.8278036 -2.9662583
33.686287 10.189746 -1.8444239
33.75021 10.202655 -0.61544162
7.7925372 2.3423243 -2.1802919
9.0798016 2.7275248 -2.1887739
10.925409 3.2777843 -2.2172008
13.233764 3.9678001 -2.1882055
17.075045 5.1130223 -2.1885297
32.597507 9.7487202 -2.9767172
33.64526 10.055685 -1.8403417
33.728142 10.067616 -0.61439455
7.7947059 2.3148179 -2.1787388
9.0817919 2.6936033 -2.186974
10.92869 3.2393014 -2.2156742
13.239953 3.919348 -2.186954
17.069944 5.0466294 -2.1856048
32.757454 9.6721191 -2.9882219
33.639927 9.9263 -1.8381436
33.730465 9.9402189 -0.61380112
7.7920141 2.2829762 -2.175633
9.0911398 2.6618831 -2.186974
10.904686 3.1887569 -2.2084234
13.239063 3.8663549 -2.1844511
17.10651 4.992579 -2.1880424
33.043503 9.631299 -3.0112309
33.631973 9.7901049 -1.8357362
33.695839 9.8023005 -0.6125446
7.7925134 2.2536144 -2.1735625
9.0989618 2.628006 -2.1865242
10.932728 3.1555703 -2.211858
13.25058 3.8195741 -2.1841383
17.120882 4.9287448 -2.1875548
33.0616 9.5114965 -3.0098362
33.617954 9.6588507 -1.8331194
33.676025 9.6691742 -0.6115672
7.8096204 2.2290483 -2.1761506
9.0888872 2.5924704 -2.1820252
10.947453 3.1184614 -2.2126212
13.240374 3.7691252 -2.1803839
17.148592 4.875195 -2.1890175
33.063934 9.3873339 -3.0070474
33.584476 9.5287714 -1.8295605
33.661472 9.5379419 -0.61069459
7.8113904 2.2015717 -2.1745977
9.0791235 2.5554461 -2.1775262
10.950172 3.0800223 -2.2110946
13.228726 3.7159362 -2.1763165
17.169325 4.816381 -2.1895049
33.259872 9.3238802 -3.022038
33.557907 9.3947973 -1.8263156
33.638714 9.4047594 -0.60968238
7.820889 2.1748068 -2.1751153
9.0842323 2.5226977 -2.1766264
10.928699 3.0328526 -2.2046072
13.234003 3.6676295 -2.175065
17.170727 4.7521873 -2.1875548
33.426636 9.2449083 -3.03424
33.548141 9.2659101 -1.8240129
33.632782 9.2766552 -0.60898429
7.817255 2.1444252 -2.1720095
9.0911045 2.4904552 -2.1761765
10.939219 2.994683 -2.2046072
13.241009 3.6198456 -2.1741264
17.179548 4.690134 -2.1865799
33.539433 9.1501875 -3.0415611
33.520542 9.1324806 -1.8207681
33.576206 9.1350403 -0.60737866
7.8079095 2.1125855 -2.1673508
9.1110296 2.4617579 -2.1788759
10.938232 2.9534113 -2.2023175
13.244027 3.5710354 -2.1725621
17.211151 4.6342621 -2.1885297
33.752022 9.081727 -3.0579464
33.500141 9.0014143 -1.8179419
33.55381 9.0032787 -0.60640132
7.8171039 2.085814 -2.1678684
9.1063862 2.4264293 -2.1757267
10.950374 2.915714 -2.2026992
13.191503 3.5075276 -2.1619246
17.2349 4.5761886 -2.1895049
33.459927 8.8654871 -1.8140692
33.528973 8.8712568 -0.60538912
7.8243356 2.0585198 -2.1678684
9.1148014 2.3946249 -2.1757267
10.954785 2.8759842 -2.2015543
13.243793 3.4719753 -2.1684947
17.235403 4.5119815 -2.1875548
34.069031 8.9124308 -3.0809555
33.452019 8.7385473 -1.8119756
33.521038 8.7440615 -0.60469103
7.833343 2.031678 -2.168386
9.1174431 2.3613296 -2.174377
10.964758 2.8377244 -2.2015543
13.244357 3.4227619 -2.1666176
17.251049 4.4517865 -2.1875548
33.432034 8.6087656 -1.8092543
33.50724 8.6218967 -0.60392302
7.8310299 2.0019279 -2.1657977
9.1289988 2.3320484 -2.1752765
10.959379 2.795548 -2.1985013
13.251805 3.3778498 -2.1659918
17.250326 4.3906417 -2.1856048
34.516621 8.772521 -3.1158175
33.402321 8.4831114 -1.8061141
33.482857 8.4911251 -0.60294574
7.8282609 1.9735848 -2.1632097
9.137084 2.3001657 -2.1752765
10.96859 2.759187 -2.1985013
13.24819 3.3277187 -2.1634889
17.284801 4.3352327 -2.1880424
34.545521 8.6580181 -3.1158175
33.404602 8.359683 -1.8046486
33.44099 8.3625889 -0.60168916
7.8369746 1.9467181 -2.1637273
9.1333141 2.2670341 -2.1725771
10.974341 2.7199459 -2.1977382
13.262988 3.2847137 -2.1641147
17.306789 4.2798009 -2.1890175
33.373962 8.2345161 -1.8015084
33.423382 8.2343178 -0.60085148
26.8396 6.6073556 7.4063659
7.8399692 1.9184294 -2.1626918
9.1226311 2.2289202 -2.1680782
10.974234 2.6792905 -2.1958301
13.253826 3.230937 -2.1606731
17.303076 4.2116318 -2.1865799
33.63715 8.1812038 -3.028662
33.34182 8.0970316 -1.798159
33.426128 8.1051693 -0.60036278
27.006332 6.5434933 7.4457068
7.8484974 1.8915057 -2.1632097
9.1379356 2.1988842 -2.169878
10.970157 2.6377563 -2.1931586
13.266946 3.1851108 -2.1609859
17.306086 4.1484423 -2.1851175
33.665504 8.0637293 -3.028662
33.338795 7.9731879 -1.7964841
33.395866 7.9744983 -0.59931564
7.845654 1.8618653 -2.1606214
9.1341782 2.1642797 -2.1671786
10.967835 2.5967305 -2.1908689
13.279905 3.1392384 -2.161299
17.346796 4.0974145 -2.1885297
33.596485 7.9233065 -3.0199463
33.311989 7.8439388 -1.7935534
33.367619 7.8508921 -0.59833831
7.832973 1.8314412 -2.1554451
9.1469965 2.1353085 -2.1685281
10.98021 2.56124 -2.1916323
13.278698 3.0924976 -2.1594217
17.348688 4.0371723 -2.1870675
33.525539 7.7893147 -3.0112309
33.277504 7.7194285 -1.7903085
33.335033 7.7266598 -0.59729117
27.315853 6.3264489 7.5129995
7.8408856 1.8058873 -2.1559627
9.138835 2.1014681 -2.1649289
10.979076 2.5226128 -2.1897242
13.279253 3.0462348 -2.1578572
17.370413 3.9783571 -2.1880424
33.551186 7.6780877 -3.0112309
