# .PCD v0.7 - Point Cloud Data file format
VERSION 0.7
FIELDS x y z
SIZE 4 4 4
TYPE F F F
COUNT 1 1 1
WIDTH 1519
HEIGHT 1
VIEWPOINT 0 0 0 1 0 0 0
POINTS 1519
DATA ascii
34.544262 15.214256 -0.65886325
7.5361948 3.306591 -2.2051384
8.8204737 3.8664119 -2.2234163
10.454903 4.5806813 -2.2187271
12.252862 5.363337 -2.1184359
16.06535 7.0254526 -2.1529438
29.224398 12.773909 -2.7903783
34.438103 15.03847 -1.9694022
34.512852 15.056792 -0.65725768
7.5565486 3.284116 -2.2077267
8.8321295 3.8348207 -2.2229664
10.481634 4.5488505 -2.2210169
12.273322 5.3213162 -2.1187487
16.100698 6.9740767 -2.1544065
29.210306 12.646481 -2.7848003
34.413383 14.884891 -1.965006
34.473419 14.896557 -0.65551239
7.5555472 3.2523704 -2.2041032
8.8472509 3.8047392 -2.2234163
12.105009 5.203227 0.69052064
10.501058 4.5137835 -2.2217801
12.282746 5.2745471 -2.1171842
16.128595 6.9193931 -2.1548939
29.184685 12.514608 -2.7781763
34.369667 14.723767 -1.959563
34.462696 14.749386 -0.6543256
7.5561914 3.2214286 -2.2009974
8.8407545 3.765435 -2.2184672
12.101048 5.1515503 0.68926466
10.513138 4.4755592 -2.2210169
12.301082 5.2316432 -2.1171842
16.148994 6.8615031 -2.1544065
29.169506 12.387743 -2.7725985
34.36937 14.58187 -1.9566323
34.410873 14.58529 -0.65237093
7.5602703 3.192029 -2.1989267
8.8718023 3.7421238 -2.2229664
12.125423 5.1145005 0.68968332
10.52146 4.4357858 -2.2194905
12.31745 5.187902 -2.1168714
16.176508 6.8066258 -2.1548939
29.146456 12.258033 -2.7663233
34.335369 14.426214 -1.9518174
34.407425 14.449426 -0.65139359
7.5731487 3.1663661 -2.1994443
8.8751736 3.7089238 -2.220717
10.54956 4.4043288 -2.2221618
12.329119 5.1447425 -2.1159329
16.186167 6.7475944 -2.1531878
29.130205 12.131711 -2.7607453
34.320328 14.286169 -1.9482585
34.36533 14.29085 -0.64964843
7.5711145 3.1360581 -2.1958208
8.8700581 3.6704712 -2.2162178
10.571364 4.3723192 -2.2236881
12.325092 5.0926247 -2.1121783
16.222464 6.6963582 -2.1548939
29.122393 12.015281 -2.7562132
34.285042 14.131278 -1.9434437
34.344746 14.141864 -0.64832199
7.5927382 3.1140106 -2.1989267
8.8683891 3.6335781 -2.2126186
10.577478 4.3316741 -2.2217801
12.353765 5.0540552 -2.1140556
16.243902 6.6389422 -2.1546502
29.105139 11.889434 -2.7506351
34.271282 13.985863 -1.9398848
34.330948 13.996216 -0.64713526
7.5964036 3.084579 -2.1968563
8.8864355 3.6047988 -2.2139683
10.592536 4.2947226 -2.2217801
12.369497 5.010169 -2.1137428
16.259617 6.5792174 -2.1536753
29.102127 11.769857 -2.7464516
34.242123 13.834718 -1.9354886
34.294289 13.841871 -0.64552963
7.5999556 3.0551596 -2.1947856
8.8971577 3.573029 -2.2135184
10.594708 4.2525992 -2.2191086
12.388745 4.9676929 -2.1140556
16.300911 6.5298057 -2.1561127
29.087547 11.645975 -2.7412224
34.223442 13.68841 -1.9317203
34.290405 13.701293 -0.64455229
7.5998025 3.0243316 -2.1916797
8.9041443 3.5397882 -2.2121687
10.624082 4.2213984 -2.2221618
12.398668 4.9214993 -2.1128042
16.332834 6.4765196 -2.1573315
29.098389 11.532617 -2.7384334
34.196739 13.539446 -1.9275335
34.276649 13.557265 -0.64340043
7.6121101 2.9984908 -2.1921973
8.9037514 3.5036922 -2.2090194
10.646062 4.1871591 -2.2236881
12.408417 4.8753033 -2.1115527
16.373821 6.4267159 -2.1597686
29.119919 11.423704 -2.7366903
34.165691 13.389378 -1.9231373
34.258595 13.412011 -0.64217877
7.6207309 2.9712014 -2.1916797
8.9032164 3.4676378 -2.2058702
10.673418 4.1549592 -2.2263594
12.423519 4.8312402 -2.1112397
16.38505 6.3652205 -2.1583064
29.144762 11.31621 -2.7352958
34.134007 13.239726 -1.9187411
34.230621 13.263437 -0.64078259
7.6310568 2.9445798 -2.1916797
8.9152641 3.4365449 -2.2058702
10.691523 4.1190858 -2.2271228
12.442148 4.7885633 -2.1115527
16.403465 6.3065586 -2.1578188
29.172924 11.210126 -2.7342498
34.116623 13.096148 -1.9151822
34.200157 13.114521 -0.63935149
7.6358752 2.9158549 -2.1901269
8.9217443 3.4033177 -2.2045202
10.705836 4.0817375 -2.2271228
12.462481 4.7465053 -2.1121783
16.447641 6.2577353 -2.1607437
29.252846 11.123811 -2.7380848
34.091175 12.950035 -1.9112046
34.191509 12.974477 -0.63833922
7.6351624 2.8850913 -2.187021
8.929925 3.3707755 -2.2036204
10.721855 4.0450373 -2.2275043
12.471581 4.7001843 -2.1109269
16.46567 6.1988807 -2.1602564
29.276581 11.01601 -2.7366903
34.057655 12.801435 -1.9068084
34.172943 12.831156 -0.63715249
7.6423788 2.8604107 -2.1865032
8.9331684 3.3399765 -2.2018209
10.738188 4.0127101 -2.2282674
12.480732 4.6589103 -2.1099885
16.485062 6.1471248 -2.1602564
29.357761 10.935548 -2.7408738
34.049034 12.676263 -1.9040868
34.198086 12.718147 -0.63687319
7.649189 2.8310378 -2.185468
8.9338055 3.304719 -2.1991215
10.776764 3.9821694 -2.2332287
12.497725 4.613132 -2.1099885
16.517593 6.0936613 -2.1617186
29.478012 10.863323 -2.7485435
34.02779 12.52655 -1.9003187
34.110905 12.55037 -0.63442987
7.6608381 2.804986 -2.1859856
8.945859 3.2719505 -2.1991215
10.775846 3.939137 -2.2301757
12.515606 4.570159 -2.1103013
16.532358 6.030364 -2.1607437
29.646778 10.808135 -2.7607453
34.018764 12.388551 -1.897388
34.092491 12.408662 -0.63327807
7.672399 2.778883 -2.1865032
8.9511633 3.2402747 -2.1977718
10.78584 3.9001603 -2.2294126
12.538126 4.5313129 -2.1115527
16.556 5.9768505 -2.161231
29.770542 10.73568 -2.7687635
33.984505 12.248575 -1.8932011
34.052811 12.259783 -0.63174224
7.6633868 2.7469084 -2.1813271
8.9624186 3.2090113 -2.1977718
10.796865 3.8637123 -2.2290308
12.542705 4.483532 -2.1096754
16.591717 5.924367 -2.1631808
29.8829 10.658461 -2.7757361
33.966854 12.108402 -1.8898515
34.029469 12.117355 -0.63052058
7.6734028 2.7188039 -2.1813271
8.9717302 3.1770542 -2.1973219
10.801698 3.820843 -2.2271228
12.560915 4.4381914 -2.1099885
16.623526 5.8703847 -2.1646435
29.965019 10.569983 -2.7799196
33.920582 11.951974 -1.8848273
34.020638 11.980553 -0.62957811
7.6901398 2.6945558 -2.1833978
8.96492 3.1377139 -2.1928227
10.809411 3.781167 -2.2259779
12.606168 4.4047408 -2.1149943
16.637432 5.8068042 -2.1636686
30.122131 10.507327 -2.7910755
33.897964 11.811177 -1.8812685
33.996326 11.832127 -0.62832159
7.6940212 2.6657996 -2.1818447
8.9758186 3.1063991 -2.1928227
10.802135 3.7363551 -2.2217801
12.651342 4.3710279 -2.1200001
16.665108 5.7512789 -2.1646435
30.166161 10.404707 -2.7917726
33.903107 11.680408 -1.8792796
33.973129 11.691267 -0.6271348
7.6959701 2.6364198 -2.179774
8.9939804 3.0775785 -2.1946225
10.802107 3.6941752 -2.2191086
12.69269 4.3357882 -2.1243804
16.680332 5.6946959 -2.164156
30.300346 10.332804 -2.8008368
33.864277 11.534938 -1.8748834
33.924633 11.548907 -0.62552917
7.6882033 2.6053059 -2.1751153
8.9856787 3.041486 -2.1901233
10.808719 3.6564491 -2.2179639
12.714485 4.2961998 -2.1256318
16.721691 5.646976 -2.1670809
30.326897 10.229712 -2.8001397
33.828529 11.397696 -1.8708013
33.903999 11.416553 -0.62444711
7.7004642 2.5810223 -2.1761506
8.9846277 3.0079618 -2.1874242
10.805891 3.6155992 -2.214911
12.852312 4.295341 -2.146281
16.752598 5.5923471 -2.1685433
30.440033 10.155579 -2.8074608
33.843395 11.277883 -1.8695451
33.890518 11.280445 -0.62346977
7.7094259 2.5541284 -2.1761506
8.9950733 2.976579 -2.1874242
10.824038 3.5797093 -2.2160556
13.103566 4.3285189 -2.1857026
16.762592 5.5307207 -2.1673245
30.691006 10.120381 -2.8273323
33.82185 11.139691 -1.8661957
33.872696 11.143336 -0.62242264
7.7256393 2.5296087 -2.1782212
9.0091124 2.9463756 -2.188324
10.823402 3.537637 -2.2133844
13.112961 4.2809153 -2.1847639
16.776136 5.4703245 -2.1665936
30.87566 10.055943 -2.8409286
33.780766 10.995591 -1.8617995
33.831524 10.999054 -0.6209566
7.7348595 2.5012739 -2.1782212
9.0119257 2.9125104 -2.1865242
10.825088 3.4943225 -2.2110946
13.136085 4.2352471 -2.1860156
16.785681 5.4086909 -2.1653748
31.058508 9.9957237 -2.8545249
33.767601 10.854599 -1.8588687
33.80307 10.859492 -0.61973494
7.7288208 2.4695563 -2.1740801
9.0299654 2.8818324 -2.188324
10.822255 3.4517443 -2.2080419
13.135732 4.1845741 -2.1835127
16.803501 5.3465252 -2.1651309
31.146372 9.9041605 -2.8594055
33.748177 10.718514 -1.8557284
33.810272 10.73176 -0.61917645
7.7318668 2.4408197 -2.1725271
9.0301809 2.8489377 -2.1860743
10.841728 3.4163094 -2.2095683
13.140116 4.1380205 -2.1819482
16.828709 5.2931671 -2.1661057
31.294802 9.8311977 -2.8698642
33.722557 10.587405 -1.852379
33.775024 10.590928 -0.61785007
7.7399192 2.4151645 -2.1725271
9.0065823 2.8069596 -2.1779761
10.838001 3.3756642 -2.2065153
13.154481 4.0921245 -2.1819482
16.837606 5.2314425 -2.1648872
31.336538 9.724267 -2.8705614
33.698261 10.450704 -1.8490295
33.76976 10.459958 -0.61708218
7.7487197 2.3867779 -2.1725271
9.0219126 2.7772305 -2.1793258
10.842796 3.3336077 -2.204989
13.163724 4.0421467 -2.1810095
16.850073 5.1708846 -2.164156
31.454115 9.6405048 -2.8782313
33.671406 10.307254 -1.8454707
33.737232 10.320947 -0.61582565
7.7551551 2.3591547 -2.1720095
9.032033 2.7441382 -2.1793258
10.835579 3.2900372 -2.2011726
13.160742 3.9910092 -2.1781938
16.868912 5.1090956 -2.164156
31.529528 9.5433407 -2.882066
33.651737 10.172887 -1.8424352
33.713715 10.185184 -0.61474359
7.7429919 2.3259542 -2.1663156
9.0336142 2.7119365 -2.1775262
10.841358 3.2504995 -2.2000279
13.170118 3.9462132 -2.177568
16.891466 5.0548306 -2.1648872
31.711542 9.4777479 -2.8956625
33.641273 10.04808 -1.8400277
33.701145 10.05317 -0.61387092
7.7506618 2.3002663 -2.1663156
9.043026 2.6803844 -2.1775262
10.850194 3.2139752 -2.1996462
13.161082 3.8934953 -2.1738136
16.90139 4.9935989 -2.1639123
31.716047 9.3646288 -2.8932221
33.618675 9.9136333 -1.8368877
33.682514 9.9260874 -0.61292851
7.760498 2.2737424 -2.1668332
9.0331631 2.6449077 -2.1730273
10.857577 3.1749816 -2.1988828
13.162544 3.846508 -2.1719363
16.923576 4.939189 -2.1646435
31.832705 9.2783833 -2.9008915
33.588078 9.7836857 -1.8334334
33.672798 9.7955971 -0.61212569
7.766139 2.2474597 -2.1663156
9.0442123 2.6138983 -2.1734772
10.860502 3.1367824 -2.1973565
13.172096 3.7994406 -2.1713107
16.914009 4.8723869 -2.161231
31.982002 9.2069511 -2.9116991
33.564442 9.6498175 -1.8302932
33.651279 9.6684246 -0.61114836
7.7665067 2.2182126 -2.1642449
9.0472097 2.5822852 -2.1721272
10.844953 3.0913155 -2.192014
13.177025 3.753571 -2.1700592
16.93771 4.8184471 -2.1622059
32.013943 9.0952635 -2.9116991
33.540539 9.5226488 -1.8272578
33.629028 9.5350895 -0.61013615
7.7667642 2.1889942 -2.1621742
9.0622406 2.5506942 -2.1734772
10.874576 3.058759 -2.1958301
13.179281 3.7020471 -2.1681819
16.982016 4.7638369 -2.1656184
32.110733 9.0017366 -2.9176257
33.534828 9.3883362 -1.8250597
33.598274 9.3934526 -0.60894936
7.768775 2.160315 -2.1606214
9.0541887 2.5143545 -2.1694279
10.883295 3.0202527 -2.1954484
13.161666 3.6475821 -2.1631761
16.990889 4.7024155 -2.1646435
32.130432 8.8864136 -2.9165797
33.511566 9.2558079 -1.8220242
33.584591 9.2633629 -0.60811168
7.7837205 2.135226 -2.1626918
9.0422373 2.4770684 -2.164479
10.880518 2.9786129 -2.1927772
13.18194 3.6036973 -2.1644275
17.011028 4.6441264 -2.1651309
32.318874 8.8171959 -2.9308734
33.487782 9.1235552 -1.8189886
33.559174 9.1366968 -0.60709941
7.7929916 2.1085491 -2.1632097
9.06357 2.4506319 -2.1676283
10.881371 2.9380584 -2.1908689
13.176653 3.5553355 -2.1616118
17.003336 4.5814881 -2.1622059
32.468739 8.7364311 -2.9416807
33.438778 8.9911833 -1.814697
33.534859 9.0044508 -0.60608715
7.7868752 2.0792081 -2.1595864
9.0626545 2.4164662 -2.1653788
10.879671 2.8989275 -2.1885793
13.185166 3.5082998 -2.1609859
17.034575 4.5261812 -2.164156
32.525993 8.6302013 -2.9441211
33.458378 8.8713255 -1.8140692
33.531284 8.8781471 -0.60545886
7.7851014 2.0481975 -2.1569982
9.06915 2.3843234 -2.1649289
10.880728 2.8565419 -2.1866713
13.192203 3.4584501 -2.1600473
17.034906 4.4626708 -2.1622059
32.667721 8.5458488 -2.9542308
33.424965 8.7314796 -1.8105103
33.49242 8.742856 -0.60420233
7.7922039 2.021008 -2.1569982
9.0683937 2.3486264 -2.1626794
10.890634 2.8185408 -2.1866713
13.192719 3.4094169 -2.1581702
17.074215 4.4061527 -2.1651309
33.017605 8.5143576 -2.9831667
33.404949 8.6017923 -1.8077887
33.476254 8.613924 -0.60336459
7.7973404 1.9933155 -2.1564806
9.0591393 2.3142025 -2.1586304
10.904211 2.7814758 -2.1874344
13.202037 3.3651643 -2.1578572
17.084885 4.3485327 -2.1646435
33.19775 8.4373255 -2.996763
33.375217 8.4762287 -1.8046486
33.467346 8.4871931 -0.6026665
7.8020344 1.9669728 -2.1559627
9.0671625 2.2825637 -2.1586304
10.890529 2.7395506 -2.1828551
13.217535 3.320019 -2.158483
17.099958 4.2888722 -2.1646435
33.217815 8.3252611 -2.9960659
33.346474 8.3451366 -1.8015084
33.426933 8.3528576 -0.60140997
7.7919774 1.9355407 -2.151304
9.0750761 2.2508969 -2.1586304
10.892401 2.6996372 -2.1813285
13.223293 3.272434 -2.1575444
17.099407 4.2253418 -2.1626935
33.335651 8.2312193 -3.0040841
33.33662 8.2191133 -1.799415
33.393745 8.2208509 -0.60029292
27.002085 6.642345 7.4508829
7.7968111 1.9078686 -2.1507864
9.075305 2.2173572 -2.1568308
10.89413 2.6597338 -2.1798022
13.211604 3.2206445 -2.15379
29.271832 7.1302972 3.6992223
17.117912 4.1665626 -2.1631808
33.441616 8.133647 -3.0110564
33.326294 8.0932617 -1.7973217
33.383373 8.0948019 -0.59959489
7.8034229 1.8806427 -2.1507864
9.0810957 2.1852067 -2.1563809
10.895712 2.6198561 -2.1782756
13.211241 3.1717374 -2.1519127
29.35059 7.041048 3.7060471
17.120766 4.1040196 -2.1617186
33.760448 8.0864716 -3.0372033
33.303829 7.9648261 -1.7946001
33.364746 7.9670672 -0.59875721
7.8043017 1.852052 -2.1492336
9.0716028 2.1494529 -2.1523318
10.89906 2.5804474 -2.1771307
13.218388 3.1246963 -2.1512871
17.145874 4.0499558 -2.1631808
33.858276 7.9850464 -3.0434785
33.245892 7.8283749 -1.7899946
33.344265 7.8453965 -0.59791946
27.298481 6.4178886 7.5140347
7.8122811 1.8266033 -2.1497512
9.0805769 2.1198032 -2.1527817
10.90182 2.5429547 -2.1759858
13.228676 3.080848 -2.1512871
17.151476 3.9912798 -2.1622059
34.074757 7.9169197 -3.0605609
33.250267 7.71311 -1.788843
29.045425 6.7323799 -0.52043074
27.302679 6.3233976 7.509376
7.8126478 1.7993836 -2.1481981
9.0913544 2.0905499 -2.1536813
10.906366 2.5059066 -2.1752226
13.211865 3.030776 -2.1469069
17.165306 3.9313812 -2.1622059
34.131901 7.8109827 -3.06335
33.22504 7.5912466 -1.7861217
27.296329 6.221621 7.5016112
7.8075767 1.769541 -2.1450922
9.0966959 2.0583744 -2.1532316
10.907388 2.4660916 -2.173696
13.205023 2.9807215 -2.1440909
29.490196 6.65132 3.7118969
17.171177 3.8696971 -2.161231
33.2299 7.4704118 -1.7849704
7.8080502 1.7410135 -2.1435394
9.0924129 2.0240698 -2.150532
10.914014 2.4275734 -2.1733146
13.217274 2.9350464 -2.1444039
17.196209 3.8123078 -2.1626935
33.191422 7.3401318 -1.7815161
7.8178535 1.714573 -2.1445746
9.0841942 1.9889823 -2.1469328
10.914751 2.3877804 -2.1717882
13.225509 2.8884666 -2.1440909
17.205532 3.7514167 -2.1622059
33.207081 7.2221117 -1.7809929
7.8219013 1.6868715 -2.144057
9.0910826 1.957258 -2.1469328
10.907661 2.3463707 -2.168735
13.225856 2.8402061 -2.1425269
17.195232 3.6863375 -2.1592813
29.763374 6.3644156 -1.5950954
7.812624 1.6563504 -2.1399159
9.0978584 1.9255141 -2.1469328
10.913866 2.3078725 -2.1683536
13.229889 2.7928007 -2.141588
17.21188 3.6271064 -2.1597686
33.432476 7.0392399 -2.9890933
29.765865 6.2563677 -1.5940487
33.213589 6.9689426 -0.59236956
7.8183579 1.6290708 -2.1399159
9.1026163 1.8933456 -2.1464829
10.9257 2.2705636 -2.169117
13.245361 2.747803 -2.1425269
29.683424 6.1525564 3.7221339
17.228321 3.5678205 -2.1602564
29.769331 6.1595111 -2.6596446
33.202457 6.845686 -0.59174132
7.8164268 1.6002177 -2.1378453
9.0958042 1.8588351 -2.1433337
10.9124 2.2280886 -2.1649189
13.245193 2.6995881 -2.1409624
17.252342 3.5100305 -2.1617186
29.821892 6.0619159 -2.6624336
29.883194 6.0635166 -1.5980263
29.935486 6.0632486 -0.53313613
7.8162832 1.5717788 -2.1362925
29.976337 6.0225229 0.53369462
9.0984154 1.8263038 -2.1424339
30.073118 6.0310326 1.6074467
10.920112 2.1899807 -2.1649189
30.188387 6.0486841 2.6936355
13.23904 2.6502318 -2.1384594
30.192825 6.0385971 3.7806311
17.25281 3.4474576 -2.1602564
30.364841 6.0619936 4.9042211
29.76862 5.942965 -2.6558099
30.331654 6.0498486 6.0120101
29.821909 5.94278 -1.59363
29.917242 5.9509068 -0.53243804
7.8274069 1.5456135 -2.1378453
30.11097 5.94029 0.53571904
9.0932646 1.7922698 -2.1397343
10.921909 2.1507132 -2.163774
13.25015 2.6043804 -2.1387722
17.260843 3.3864439 -2.1597686
29.73444 5.8282785 -2.6509292
34.200645 6.678915 -0.60825127
7.8268003 1.5185424 -2.1362925
9.0991573 1.7621075 -2.1397343
10.915489 2.1118748 -2.1611028
13.254834 2.5596738 -2.1381464
17.275877 3.3299413 -2.1602564
30.035336 5.7838874 -2.6760299
34.388485 6.6097403 -1.8352128
34.454342 6.6099296 -0.61237001
7.8111787 1.4872358 -2.1305985
9.1129112 1.7317877 -2.1415341
10.922795 2.0737569 -2.1611028
13.228754 2.506773 -2.132515
17.27179 3.2666693 -2.1583064
34.847904 6.5845804 -3.1027443
34.764629 6.5562782 -1.8540539
34.846661 6.559154 -0.61893213
7.8334126 1.4631544 -2.135257
9.1150694 1.6992548 -2.1406343
10.929966 2.0356188 -2.1611028
13.241306 2.4613056 -2.1331406
17.318218 3.2128725 -2.1626935
35.01564 6.4897733 -3.1156433
34.932629 6.4617767 -1.8617995
35.006996 6.4628968 -0.62137544
7.8308725 1.4344076 -2.1331868
29.82021 5.4568906 0.52915698
9.0998573 1.6635739 -2.1356852
10.938938 1.9978036 -2.1614842
13.238157 2.4129474 -2.1312635
17.321518 3.1509752 -2.1617186
35.025723 6.352622 -1.8655676
35.104118 6.3541856 -0.62270182
7.8358312 1.4070656 -2.1331868
29.799707 5.3457093 0.52845883
9.0921831 1.6293906 -2.1325359
10.932316 1.9571877 -2.158813
13.232887 2.3642871 -2.1290734
17.340227 3.0918903 -2.1626935
35.087555 6.2500515 -3.1180837
35.102741 6.2401161 -1.8684986
35.193031 6.2434778 -0.62388861
7.8311815 1.3780326 -2.1305985
29.790615 5.2368021 0.52797019
9.0958948 1.5973078 -2.132086
10.923612 1.9163034 -2.15576
13.235225 2.3170562 -2.1281347
17.37047 3.0347545 -2.1651309
35.156265 6.135747 -3.1222672
35.250244 6.1394706 -1.8751975
35.285534 6.1329451 -0.62514526
7.8321371 1.3500298 -2.1295633
9.1110191 1.567197 -2.1343358
10.91669 1.875831 -2.1530888
13.231549 2.2688422 -2.1262577
17.384869 2.9747832 -2.1656184
35.228535 6.0217276 -3.1267996
35.397408 6.0251641 -0.62675083
7.8329906 1.3220408 -2.1285279
9.1145115 1.5350578 -2.1338856
10.930916 1.8390185 -2.1546154
13.227699 2.2206757 -2.1243804
17.399063 2.914732 -2.1661057
35.339733 5.9138374 -3.1348178
35.49712 5.914721 -0.62814701
7.8394651 1.2950034 -2.1290457
9.0986643 1.499753 -2.1289368
10.927583 1.7992536 -2.1527071
13.235369 2.1744978 -2.1243804
17.416969 2.8552601 -2.1670809
35.434872 5.802702 -3.1414416
35.5965 5.8036394 -0.62954324
7.8458447 1.2679368 -2.1295633
9.0961475 1.4667401 -2.1271372
10.922168 1.7592221 -2.1504176
13.240929 2.1279678 -2.1240675
17.411148 2.7919354 -2.1651309
35.533604 5.6915708 -3.1484139
35.598778 5.6892662 -1.8893282
35.695534 5.6919351 -0.63093936
7.8406816 1.2390397 -2.1269751
9.103137 1.4352852 -2.1275871
10.906908 1.7177336 -2.1462197
13.230714 2.0789721 -2.1212516
17.412945 2.7299078 -2.164156
35.872139 5.6174269 -3.1766524
35.738789 5.583765 -1.8957131
35.785339 5.584641 -0.63219601
7.8430505 1.2113661 -2.1264575
9.1020689 1.4041963 -2.1262374
10.912838 1.6796482 -2.1462197
13.233629 2.0344884 -2.120626
17.437597 2.6745603 -2.1661057
35.871834 5.4891691 -3.1749094
35.820293 5.4748845 -1.8990628
35.89159 5.4729624 -0.63373178
7.843204 1.1847717 -2.1254222
9.1088419 1.3727078 -2.1266873
10.910583 1.6422787 -2.1446934
13.219162 1.9850578 -2.1171842
17.446827 2.6136792 -2.1661057
35.870132 5.3672423 -3.173166
35.94585 5.3657455 -1.9047149
7.8472919 1.1573882 -2.1254222
9.0904417 1.3374972 -2.1212883
10.918191 1.6044713 -2.1450748
13.224057 1.9386122 -2.1168714
17.44013 2.5504599 -2.164156
35.837395 5.2345037 -3.1686342
35.932739 5.235621 -1.9030403
7.849371 1.1297153 -2.1249044
9.0969849 1.3060365 -2.1217382
10.904291 1.5635657 -2.1412585
13.23661 1.8932819 -2.11781
17.441067 2.4884408 -2.1631808
35.902786 5.1161294 -3.1728177
7.8417873 1.1006994 -2.1217985
9.0995579 1.2740015 -2.1212883
10.896071 1.5235921 -2.1385872
13.229443 1.8451523 -2.1156199
17.465376 2.4297369 -2.1651309
35.932262 4.9924088 -3.1738634
35.885326 4.9731207 -1.898644
35.984322 4.9740391 -0.63408083
7.8398404 1.0725323 -2.1202457
35.992092 4.9174953 0.63408083
9.1058807 1.2424957 -2.1217382
36.058792 4.913805 1.907227
10.897433 1.4850154 -2.1378241
13.229931 1.7981663 -2.1146812
17.454081 2.3660848 -2.1626935
37.193333 5.035357 -3.2836797
35.9856 4.8590426 -1.9030403
35.985607 4.846272 -0.63380158
7.830132 1.0433713 -2.1166222
36.274651 4.8272009 0.63875806
9.1043682 1.2099301 -2.1203887
36.416267 4.8330932 1.9252307
10.898659 1.4464478 -2.1370609
13.216545 1.7493788 -2.1115527
17.466167 2.3056762 -2.1631808
37.384506 4.9284029 -3.2990191
36.489468 4.7974706 -1.9287894
7.8394737 1.0167798 -2.118175
36.739468 4.7585897 0.64664656
9.0872765 1.1753902 -2.1154397
36.860771 4.76122 1.9478399
10.891959 1.4068891 -2.1347711
13.204938 1.7009587 -2.1087368
17.474112 2.2446892 -2.1631808
37.369865 4.7938104 -3.2962303
37.052784 4.7400079 -1.957679
37.014343 4.7219601 -0.65132385
7.8525591 0.99061561 -2.1207633
37.204247 4.6867919 0.65453506
9.0913229 1.1436689 -2.1154397
37.289356 4.6842918 1.9696116
10.887064 1.3676338 -2.132863
13.212754 1.6551093 -2.1090496
17.4779 2.1831827 -2.1626935
37.414047 4.6668143 -3.2986705
37.326763 4.6426778 -1.9712863
37.383842 4.6365275 -0.65753686
7.8444633 0.96179378 -2.1176574
37.633232 4.6074495 0.66179526
9.0894575 1.1112155 -2.11409
37.785252 4.6126943 1.9949421
10.874231 1.327489 -2.1294286
13.21453 1.6084971 -2.1084239
17.46965 2.1202507 -2.1607437
37.434063 4.5366554 -3.2990191
37.826553 4.5708256 -1.9968263
37.840542 4.5590968 -0.66528577
7.8285909 0.93211961 -2.1124811
38.19714 4.5412045 0.67142898
9.0913458 1.0792527 -2.1136403
38.292999 4.5390654 2.0209007
10.882699 1.289982 -2.1301918
13.196523 1.5595807 -2.1046696
17.492714 2.0611107 -2.1626935
37.461544 4.4073639 -3.300065
38.420296 4.4929714 -0.67519873
7.8394728 0.90567172 -2.1145515
38.725285 4.4669905 0.68043447
9.0873137 1.0466172 -2.1118405
38.856243 4.4683361 2.0497901
10.891036 1.2524322 -2.130955
13.180299 1.5110284 -2.101228
17.507692 2.0009427 -2.1636686
37.540051 4.2837906 -3.3056428
7.842586 0.87830299 -2.1145515
9.087039 1.0144553 -2.1109407
39.379757 4.3893228 2.0765862
10.891439 1.2139751 -2.1301918
13.183531 1.4647897 -2.100915
17.498785 1.9380726 -2.1617186
37.542892 4.151401 -3.3045969
7.841763 0.85050327 -2.1135163
39.868847 4.3170619 0.69998109
9.0866489 0.98231238 -2.1100409
39.926262 4.3162293 2.1046383
10.883899 1.1746825 -2.127902
13.190528 1.4189758 -2.101228
17.505444 1.876974 -2.1617186
37.699791 4.035603 -3.3171475
39.908421 4.2579384 -2.1033823
40.055283 4.2665377 -0.70312256
7.8427629 0.82292527 -2.1129987
9.0898561 0.95217639 -2.1100409
10.876217 1.1354626 -2.1256123
13.183372 1.3740007 -2.0993509
17.495777 1.817268 -2.1597686
37.674011 3.8998866 -3.3136611
40.666679 4.188159 -0.71359396
7.8300734 0.795353 -2.1088579
9.0931244 0.92043865 -2.1100409
10.87211 1.0986023 -2.1240859
13.178261 1.3269806 -2.0977864
17.517815 1.7577744 -2.1617186
37.706562 3.7769091 -3.3154044
41.278019 4.1055441 -0.72406548
7.8193436 0.76669431 -2.1052344
9.0827055 0.88736761 -2.1068916
10.879786 1.061023 -2.1248491
13.171015 1.2798283 -2.0959091
17.5357 1.6977667 -2.1631808
37.743313 3.6475735 -3.3174963
7.8238955 0.73957485 -2.105752
9.0818682 0.85528988 -2.1059918
42.364853 3.9822738 2.2300353
10.875606 1.0223012 -2.1233225
13.17147 1.2334733 -2.0952835
17.521755 1.6347052 -2.1607437
37.767715 3.5169005 -3.3185418
7.8283534 0.71243656 -2.1062696
42.801258 3.887691 0.75017422
9.0809164 0.82323301 -2.105092
10.859555 0.98256516 -2.1195064
13.167825 1.1867822 -2.094032
17.519445 1.572818 -2.1597686
37.803581 3.3871691 -3.3206339
7.8096228 0.68325192 -2.1005754
9.0856771 0.79170078 -2.1055419
10.862919 0.94464946 -2.1195064
13.175822 1.1411543 -2.0946577
17.512962 1.5106343 -2.1583064
37.747677 3.2494056 -3.314707
7.8235102 0.65696239 -2.1036813
9.0845013 0.75965387 -2.1046422
10.850498 0.90542638 -2.1164536
13.165946 1.0940067 -2.0924675
17.529999 1.4504709 -2.1597686
37.873959 3.1271205 -3.3248172
7.8142023 0.6287176 -2.1005754
44.633572 3.5832813 0.78158855
9.0812693 0.72747344 -2.1032922
10.85555 0.86769915 -2.1168351
13.1559 1.0469481 -2.0902774
17.546829 1.3902071 -2.161231
37.9482 2.999929 -3.3303952
7.8298321 0.60247248 -2.1041989
9.0740376 0.69502288 -2.1010427
45.614223 3.4857988 2.3975103
10.86047 0.82994753 -2.1172168
13.153565 1.0005661 -2.089339
17.523863 1.3268626 -2.1578188
37.954468 2.8671365 -3.3300464
7.8241816 0.57457334 -2.1021285
9.0647478 0.66249406 -2.0983434
10.847636 0.7908926 -2.1141639
13.158949 0.95478493 -2.0896518
17.532347 1.2659661 -2.1583064
37.948349 2.7334778 -3.3286519
7.816504 0.54658246 -2.0995402
9.0708933 0.63112056 -2.0992434
10.834662 0.7519322 -2.1111107
13.174025 0.90967137 -2.0915291
17.536659 1.2047627 -2.1583064
38.001385 2.6040194 -3.3324869
7.8125806 0.51891196 -2.0979872
9.0749855 0.59957939 -2.0996931
10.835261 0.71398073 -2.1107292
13.139668 0.86122161 -2.0855846
17.548681 1.1440529 -2.1592813
37.938671 2.4666901 -3.3262117
7.8027768 0.49091169 -2.0948815
9.0634089 0.56704831 -2.0965438
10.845526 0.67664558 -2.1122558
13.130765 0.81461924 -2.0837073
17.560493 1.0832738 -2.1602564
37.990799 2.3369436 -3.3300464
7.81987 0.46458638 -2.0990226
9.047823 0.53437114 -2.0924947
10.834104 0.63797277 -2.1095843
13.129585 0.76854503 -2.0830817
17.556063 1.0245761 -2.1592813
38.002705 2.2045374 -3.3303952
7.8097944 0.4380047 -2.0959167
9.0456553 0.50414521 -2.0915949
10.828318 0.60160857 -2.108058
13.124171 0.72456229 -2.08183
17.539541 0.96525669 -2.1568437
38.017761 2.0789285 -3.3310924
7.811204 0.41210565 -2.0959167
9.0550613 0.47455576 -2.0933945
10.82045 0.56518739 -2.1061497
13.12453 0.68093723 -2.0815172
17.542803 0.90403003 -2.1568437
38.036388 1.9534663 -3.3321383
7.8222427 0.38531008 -2.098505
33.750225 1.6565568 0.58982152
9.0547171 0.44285151 -2.0929446
10.818436 0.52721959 -2.1053865
13.105123 0.6340726 -2.0780756
17.545853 0.84278411 -2.1568437
38.066853 1.8218336 -3.3342299
0.66772193 0.030554593 -0.17910279
33.580013 1.5307463 0.58674991
9.0425806 0.41062072 -2.0897954
10.822171 0.48953879 -2.1057682
13.091469 0.5876112 -2.0755727
17.540754 0.78119129 -2.1558688
33.705978 1.495212 -2.9517906
33.78688 1.4870009 -1.7724097
33.842598 1.4776016 -0.59128755
0.66396427 0.028060619 -0.17806751
33.529209 1.4111575 0.58577257
9.0400639 0.37888807 -2.0888956
10.831661 0.45208916 -2.1072946
13.10923 0.54255992 -2.0780756
17.543375 0.71995318 -2.1558688
33.671181 1.3759112 -2.9483044
0.68336225 0.026490936 -0.18324389
9.0530157 0.34778512 -2.0915949
10.801783 0.41307357 -2.1011887
13.097225 0.49628228 -2.0758855
17.518009 0.65766364 -2.1524565
38.048256 1.4151142 -3.3310924
0.69890004 0.024528325 -0.18738499
0.67190588 0.02346354 -0.15521623
10.795376 0.37321135 -2.0996623
13.098956 0.44827181 -2.0758855
17.520197 0.59651405 -2.1524565
38.080841 1.2832397 -3.3335328
0.6989814 0.022088373 -0.18738499
0.68172628 0.021305233 -0.15746574
10.792689 0.33540139 -2.0988991
13.08662 0.4021233 -2.0736954
17.534174 0.53266096 -2.153919
38.037491 1.1422129 -3.3293493
0.69133323 0.01931072 -0.18531445
0.66231656 0.018384529 -0.15296671
10.795809 0.29589811 -2.0992808
13.076159 0.3538318 -2.0718184
17.531956 0.4713406 -2.1534314
38.120918 1.0115525 -3.3363218
0.67980593 0.016732987 -0.18220863
0.66042858 0.01602537 -0.15251681
10.794768 0.26005119 -2.0988991
13.073311 0.31037658 -2.0711925
17.529526 0.41004232 -2.1529438
38.134022 0.88537216 -3.3371933
0.6856544 0.014482449 -0.18376154
0.65658385 0.013638827 -0.15161701
10.777944 0.22200717 -2.0954645
13.06444 0.26453689 -2.0696282
17.503063 0.34830108 -2.1495316
38.292255 0.75530881 -3.3507898
0.66831678 0.011782321 -0.17910279
0.66052437 0.011414319 -0.15251681
10.76295 0.1841123 -2.0924115
13.063309 0.21890152 -2.0693154
17.488297 0.28694504 -2.1475818
38.195053 0.62003034 -3.3420739
0.66062731 0.0093399715 -0.17703223
0.66250867 0.0091352807 -0.15296671
10.757637 0.14645843 -2.0912669
13.046216 0.17306145 -2.0664995
17.497131 0.226004 -2.1485567
38.196983 0.48669082 -3.3420739
0.67031449 0.0071368706 -0.17962041
0.65863931 0.0067826444 -0.15206692
10.752193 0.10884902 -2.0901217
13.036864 0.1274268 -2.0649352
17.501753 0.16801344 -2.1490443
38.178528 0.35316104 -3.3403308
0.67033452 0.0049141226 -0.17962041
0.64501733 0.0045030671 -0.1489176
10.752496 0.07319501 -2.0901217
13.043141 0.084228963 -2.0658739
17.478394 0.10982843 -2.1461194
38.346848 0.2275553 -3.3549733
0.67614269 0.0027142656 -0.18117334
0.65282357 0.0023930983 -0.1507172
10.742863 0.037500799 -2.0882137
13.041372 0.040978502 -2.0655608
17.462782 0.051815417 -2.1441696
38.255741 0.10014079 -3.3469546
0.67035234 0.00046816852 -0.17962041
0.65672541 0.00022942493 -0.15161701
10.737039 0.0018770962 -2.087069
13.039462 -0.0022758155 -2.065248
17.478737 -0.0061012306 -2.1461194
38.323605 -0.026754925 -3.3528812
68.428055 -0.07165771 -3.5861647
0.64523494 -0.0021396878 -0.17289113
0.66451597 -0.0024355892 -0.15341662
69.090721 -0.25323185 3.6209159
10.73107 -0.041204549 -2.0859239
13.02552 -0.054561492 -2.0630579
17.466663 -0.076213174 -2.1446569
38.398895 -0.18095188 -3.3595052
0.63942885 -0.0042409152 -0.17133822
0.64891469 -0.0045303521 -0.14981739
10.719094 -0.076705545 -2.0836341
13.011441 -0.097651601 -2.060868
17.462343 -0.1341038 -2.1441696
38.465824 -0.30883002 -3.3654318
0.64327478 -0.0063997512 -0.17237349
0.64305019 -0.0066220062 -0.14846769
10.714855 -0.11220979 -2.082871
13.003144 -0.14071305 -2.0596163
17.453827 -0.19496924 -2.1431944
38.866947 -0.44773483 -3.4006426
44.122425 -0.51597816 -2.3125167
0.64904207 -0.0088363234 -0.17392641
0.65471452 -0.0090278415 -0.15116711
10.720261 -0.15156421 -2.0840161
12.99069 -0.18819933 -2.0577393
17.425253 -0.25548586 -2.1397822
39.458817 -0.5923146 -3.4525876
44.092281 -0.67726213 -2.3110514
0.64128095 -0.010969684 -0.17185585
0.65662545 -0.01146144 -0.15161701
10.696112 -0.18856873 -2.0794365
12.997854 -0.23368619 -2.0589907
17.436165 -0.31652597 -2.1412446
40.034199 -0.74073666 -3.5031378
44.085659 -0.83109349 -2.310842
0.65669256 -0.013411758 -0.17599694
0.6604805 -0.013719767 -0.15251681
10.693464 -0.22399613 -2.0790551
12.985159 -0.276535 -2.0571134
17.435019 -0.37434465 -2.1412446
40.760563 -0.88939869 -3.566936
44.050709 -0.97657388 -2.3091674
0.66243845 -0.015726911 -0.17754988
0.65848321 -0.015862994 -0.15206692
10.678925 -0.25912234 -2.0763836
12.966397 -0.31915632 -2.0542977
17.429636 -0.43510285 -2.1407571
41.47443 -1.0425856 -3.6296883
0.67010409 -0.018249523 -0.17962041
0.63894379 -0.01762411 -0.14756788
10.689729 -0.29672402 -2.0786731
12.977052 -0.3647486 -2.056175
17.43198 -0.49605393 -2.1412446
0.68741477 -0.02112251 -0.18427916
0.65056515 -0.020217523 -0.1502673
10.669005 -0.33342308 -2.0748572
12.97175 -0.40991992 -2.0555491
17.426174 -0.55677307 -2.1407571
41.167198 -1.3296928 -3.6035411
0.66609496 -0.022911362 -0.17858516
0.64854306 -0.022420965 -0.14981739
10.667712 -0.37252471 -2.0748572
12.954367 -0.45690399 -2.0530462
17.412222 -0.61717647 -2.1392946
0.66408044 -0.025163176 -0.17806751
0.66208774 -0.02531912 -0.15296671
10.662423 -0.40960899 -2.0740941
12.960589 -0.50242645 -2.0542977
17.425711 -0.68161207 -2.1412446
0.69101131 -0.028599514 -0.18531445
0.65420717 -0.027305024 -0.15116711
10.655044 -0.44657859 -2.0729489
12.940993 -0.54691356 -2.0514817
17.415291 -0.7420969 -2.1402695
0.68125772 -0.0305783 -0.18272625
0.65021437 -0.029412344 -0.1502673
10.659304 -0.48403615 -2.0740941
12.913353 -0.59090889 -2.0474145
17.392767 -0.80196869 -2.1378324
0.68500602 -0.033142868 -0.18376154
0.65984547 -0.03204095 -0.15251681
10.641861 -0.52047384 -2.0710409
12.911323 -0.63372785 -2.0474145
17.393978 -0.85983688 -2.1383197
0.67331666 -0.034815695 -0.1806557
0.65389132 -0.034040119 -0.15116711
10.636155 -0.55555588 -2.0702777
12.91495 -0.67910415 -2.0483532
17.382938 -0.92012817 -2.1373446
0.6558308 -0.036207363 -0.17599694
0.65572059 -0.036316071 -0.15161701
10.626311 -0.59224254 -2.0687513
12.904737 -0.72148681 -2.0471017
17.391684 -0.97843605 -2.1388073
61.075661 -3.4681273 -3.2059963
0.66149282 -0.038720645 -0.17754988
0.65169907 -0.038375635 -0.1507172
10.626249 -0.62759322 -2.0691328
12.884394 -0.76547402 -2.0442858
17.384201 -1.0389016 -2.1383197
0.6671381 -0.041388307 -0.17910279
0.64767122 -0.040407568 -0.14981739
10.63379 -0.66529477 -2.0710409
12.877701 -0.81019616 -2.0436602
17.352732 -1.0978227 -2.1349075
39.912998 -2.5320947 -3.4989545
0.66891724 -0.043843154 -0.17962041
0.64947081 -0.042796254 -0.1502673
10.611814 -0.70111543 -2.0672247
12.874794 -0.85514295 -2.0436602
17.34087 -1.1578592 -2.1339324
0.66490567 -0.045911692 -0.17858516
0.65126145 -0.045197982 -0.1507172
10.59755 -0.73733568 -2.064935
12.881583 -0.90076798 -2.0452244
17.340683 -1.2186615 -2.1344197
39.496853 -2.7826715 -3.464092
0.6628145 -0.048092559 -0.17806751
0.65304333 -0.047612742 -0.15116711
10.598827 -0.77460968 -2.0656981
12.864569 -0.94471484 -2.0430343
17.332363 -1.2788922 -2.1339324
39.4869 -2.9205244 -3.464092
0.66649514 -0.050698973 -0.17910279
0.648987 -0.049595021 -0.1502673
10.594102 -0.81145191 -2.0653167
12.839528 -0.98794788 -2.039593
17.339672 -1.3403038 -2.1353948
0.66631413 -0.053025167 -0.17910279
0.65075248 -0.052015372 -0.1507172
10.591205 -0.84842724 -2.0653167
12.830095 -1.032285 -2.0386541
17.319057 -1.3995429 -2.1334448
39.068371 -3.1639559 -3.4292297
0.67575109 -0.056150585 -0.18169098
0.64862496 -0.054124564 -0.1502673
10.586223 -0.88522875 -2.064935
12.844129 -1.0785515 -2.0414701
17.321978 -1.4606564 -2.1344197
0.66977704 -0.05800898 -0.18013807
0.66202199 -0.057570145 -0.15341662
10.563509 -0.92047185 -2.0611188
12.834383 -1.1228629 -2.0405314
17.324686 -1.5218074 -2.1353948
39.04533 -3.436625 -3.4292297
0.6599502 -0.059479535 -0.17754988
0.66763943 -0.060407497 -0.15476632
10.560231 -0.95733964 -2.0611188
12.820548 -1.1667612 -2.0389671
17.307404 -1.5811888 -2.1339324
0.65973854 -0.061782826 -0.17754988
0.65966374 -0.062008105 -0.15296671
10.537279 -0.99235523 -2.0573027
12.812465 -1.2111344 -2.0383413
17.297829 -1.6412184 -2.1334448
38.623699 -3.6714196 -3.3943677
0.6652872 -0.064645872 -0.17910279
0.64586645 -0.062986352 -0.14981739
10.529844 -1.0287493 -2.0565395
12.80226 -1.2552726 -2.0374026
17.276192 -1.7000341 -2.131495
0.66505754 -0.06696777 -0.17910279
0.64758158 -0.065436386 -0.1502673
10.522282 -1.0651037 -2.0557761
12.801732 -1.3003525 -2.0380285
17.270153 -1.7603288 -2.131495
38.398922 -3.9207342 -3.3769364
0.66289836 -0.069088601 -0.17858516
8.9331942 -0.93261153 -2.0735989
10.522406 -1.1022359 -2.0565395
12.793419 -1.3423849 -2.0374026
17.272114 -1.8184202 -2.1324699
38.186859 -4.0338168 -3.3595052
7.7118907 -0.8296091 -2.0783172
8.912447 -0.96190661 -2.0695498
10.530404 -1.1383895 -2.0588293
12.784728 -1.3866084 -2.036777
17.257771 -1.8778414 -2.131495
38.054436 -4.1474752 -3.3490465
7.703187 -0.85588354 -2.0767641
8.901288 -0.99214745 -2.06775
10.522463 -1.1747048 -2.0580659
12.771958 -1.4303474 -2.0355256
17.247162 -1.9376272 -2.1310074
37.825897 -4.2562246 -3.3302209
7.7001529 -0.8827675 -2.0767641
8.890027 -1.0223222 -2.0659504
10.508548 -1.2103047 -2.0561578
12.762962 -1.4744678 -2.0348997
17.240294 -1.9978192 -2.1310074
37.697998 -4.3751431 -3.3202851
7.7046986 -0.91054761 -2.0788348
8.8922091 -1.054036 -2.0673003
10.492561 -1.2455904 -2.0538683
12.753815 -1.5185428 -2.0342741
17.23716 -2.0584581 -2.131495
7.6938019 -0.93650281 -2.0767641
8.8788042 -1.0838885 -2.0650506
10.480353 -1.2812557 -2.0523417
12.750398 -1.5632931 -2.0345869
17.210165 -2.1161916 -2.1290576
37.621056 -4.632616 -3.3162761
7.6866531 -0.96287322 -2.0757289
8.8885012 -1.1165749 -2.0681999
10.487505 -1.3193016 -2.0546315
12.727224 -1.6055658 -2.0317712
17.21055 -2.1772499 -2.1300325
37.632332 -4.767415 -3.3187165
7.6928253 -0.99093276 -2.0783172
8.8748865 -1.1463466 -2.0659504
10.478942 -1.3553979 -2.0538683
12.725459 -1.6504903 -2.0323968
17.198908 -2.2368007 -2.1295452
37.615459 -4.8987474 -3.3187165
7.6912341 -1.0180334 -2.0788348
8.8650351 -1.1765497 -2.0646007
10.489717 -1.3940371 -2.056921
12.715705 -1.6943785 -2.0317712
17.183126 -2.2957706 -2.1285703
37.570484 -5.0263214 -3.3162761
7.687634 -1.0448743 -2.0788348
8.8647356 -1.2080134 -2.0655005
10.469224 -1.4285213 -2.0538683
12.69797 -1.7371478 -2.0298939
17.147474 -2.3519609 -2.1251578
7.6762857 -1.0706354 -2.0767641
8.8566055 -1.23841 -2.0646007
10.460285 -1.4645123 -2.0531049
12.697698 -1.7822849 -2.0308325
17.147024 -2.412909 -2.1261327
7.6686773 -1.0968771 -2.0757289
8.8599453 -1.2704242 -2.0664005
10.466769 -1.5026907 -2.0553946
12.679667 -1.8249089 -2.0289552
17.142426 -2.4733155 -2.1266203
37.218025 -5.3764615 -3.2899549
86.088615 -12.466913 -4.5587764
7.6724482 -1.12476 -2.0777996
8.8573847 -1.3016268 -2.0668504
10.459518 -1.5389316 -2.0550129
12.665403 -1.8680053 -2.0277038
17.121906 -2.5313966 -2.1251578
7.6570125 -1.1498138 -2.0746937
8.8431511 -1.3310866 -2.0646007
10.456024 -1.5757252 -2.0553946
12.662712 -1.9127946 -2.0283296
17.105112 -2.5899587 -2.1241827
37.179585 -5.6361594 -3.2899549
7.662499 -1.1780024 -2.0772817
8.8345995 -1.3613534 -2.0637012
10.44464 -1.6113161 -2.0542498
12.655958 -1.9569842 -2.0283296
17.088121 -2.6484346 -2.1232078
37.159683 -5.7659059 -3.2899549
7.6564317 -1.204442 -2.0767641
8.837492 -1.3933976 -2.0655005
10.421497 -1.64501 -2.0508151
12.64905 -2.0011497 -2.0283296
17.074852 -2.7074459 -2.1227205
37.139328 -5.8955817 -3.2899549
7.6445522 -1.2299333 -2.0746937
8.8289757 -1.4220762 -2.0646007
10.423445 -1.6826293 -2.0523417
12.632594 -2.0415087 -2.0267651
17.065779 -2.7640531 -2.1227205
37.118526 -6.025187 -3.2899549
7.6442442 -1.2559031 -2.0757289
8.8239584 -1.4528865 -2.0646007
10.410058 -1.7159079 -2.0508151
12.631238 -2.0865583 -2.0277038
17.028608 -2.819068 -2.1193082
37.098343 -6.1482425 -3.2899549
7.6455283 -1.2835383 -2.0772817
8.8130684 -1.4827093 -2.0632513
10.43111 -1.7568004 -2.0561578
12.61219 -2.1286643 -2.0258267
17.030409 -2.8804777 -2.1207705
36.978436 -6.2610726 -3.2812395
7.6429062 -1.310545 -2.0777996
8.8116798 -1.5141236 -2.0641508
10.393956 -1.7878761 -2.0500519
12.606629 -2.1730113 -2.0261395
17.000689 -2.9365287 -2.1183331
37.054516 -6.4070859 -3.2899549
7.6420903 -1.3378819 -2.0788348
8.8140182 -1.5462197 -2.0659504
10.37605 -1.8221096 -2.0477622
12.591185 -2.2156341 -2.0248878
16.982513 -2.9944756 -2.1173582
37.031925 -6.5363913 -3.2899549
7.6240621 -1.3621713 -2.0752113
8.808567 -1.5769767 -2.0659504
10.388951 -1.8617805 -2.0515785
12.58143 -2.2592227 -2.024575
16.968052 -3.0530343 -2.1168706
37.008884 -6.6656175 -3.2899549
7.6287637 -1.3905081 -2.0777996
8.8087597 -1.6087651 -2.0673003
10.378526 -1.8973272 -2.0508151
12.569581 -2.3024147 -2.0239494
16.965099 -3.1136782 -2.1178455
36.98539 -6.7947621 -3.2899549
7.6238632 -1.4171288 -2.0777996
8.7896805 -1.6370062 -2.0641508
10.3757 -1.9342631 -2.0515785
12.565351 -2.347002 -2.024575
16.942421 -3.1706877 -2.1163833
36.961445 -6.9238234 -3.2899549
7.6226659 -1.4444517 -2.0788348
8.7839127 -1.667678 -2.0641508
10.359241 -1.9686368 -2.0496705
12.539618 -2.3875237 -2.0217593
16.92345 -3.2283208 -2.1154084
36.839203 -7.0341172 -3.2812395
7.6099896 -1.4695858 -2.0767641
8.7876043 -1.7001802 -2.0664005
10.344597 -2.0032921 -2.0481439
12.550599 -2.4350431 -2.0248878
16.904284 -3.2858601 -2.1144333
36.833981 -7.1664729 -3.2829826
7.6010232 -1.4953948 -2.0757289
8.7761812 -1.7281818 -2.0650506
10.343321 -2.0405295 -2.0492887
12.532766 -2.4747357 -2.0233238
16.889399 -3.3411276 -2.1139457
7.6111755 -1.5236261 -2.07987
8.7662745 -1.7580398 -2.0641508
10.334572 -2.0744314 -2.0489073
12.520178 -2.5176895 -2.0226979
16.873743 -3.3992784 -2.1134584
7.5944538 -1.5478698 -2.0767641
8.7524462 -1.7870696 -2.0623512
10.331114 -2.1112795 -2.0496705
12.501638 -2.5593967 -2.0211337
16.857885 -3.457361 -2.1129708
7.6041369 -1.5775093 -2.0809052
8.7518787 -1.8188 -2.0637012
10.317915 -2.1461296 -2.0485253
12.498428 -2.6042285 -2.0220721
16.810734 -3.5088835 -2.1085835
7.5929136 -1.6028463 -2.0793524
8.7438936 -1.8474094 -2.0632513
10.302678 -2.1805067 -2.046999
12.491657 -2.64607 -2.0223849
16.802893 -3.5654352 -2.1090713
36.58773 -7.7769623 -3.2725236
7.5724463 -1.6247742 -2.0752113
8.7450123 -1.879558 -2.0650506
10.293471 -2.2142465 -2.0466175
12.488137 -2.6909063 -2.0233238
16.786461 -3.6232281 -2.1085835
36.365623 -7.8625255 -3.2550929
7.5739889 -1.6541663 -2.0772817
8.7345905 -1.9092402 -2.0641508
10.289122 -2.252799 -2.0473807
12.466614 -2.7341206 -2.0214465
16.769835 -3.6809511 -2.1080961
7.5719409 -1.6814321 -2.0783172
8.7199249 -1.9395487 -2.0623512
10.27928 -2.2882745 -2.046999
12.468562 -2.7801998 -2.0233238
16.752357 -3.7415254 -2.1076086
36.40564 -8.1442966 -3.2638083
7.5657272 -1.7091733 -2.0783172
8.7169037 -1.9708346 -2.0632513
10.266994 -2.3250673 -2.0462358
12.450582 -2.8241327 -2.0220721
16.723705 -3.7964633 -2.1056585
36.279854 -8.249239 -3.2550929
7.5640864 -1.7337966 -2.0793524
8.7122192 -2.0001662 -2.0637012
10.246245 -2.354233 -2.0435643
12.439724 -2.8627903 -2.0217593
16.687813 -3.84655 -2.1027339
7.5448179 -1.7571223 -2.0757289
8.705184 -2.0305653 -2.0637012
10.239878 -2.3904312 -2.043946
12.418114 -2.9034972 -2.019882
16.674286 -3.904778 -2.1027339
36.224346 -8.4896727 -3.2550929
7.5461583 -1.7852271 -2.0777996
8.696147 -2.0604904 -2.0632513
10.244843 -2.4293313 -2.0466175
12.404059 -2.945914 -2.0192564
16.645102 -3.9592831 -2.1007838
36.485222 -8.685277 -3.2812395
7.541759 -1.8120083 -2.0783172
8.6813221 -2.0890093 -2.0614514
10.234392 -2.464618 -2.0462358
12.389859 -2.9882677 -2.0186305
16.63118 -4.0173612 -2.1007838
34.421246 -8.3210173 -3.0982122
7.5504026 -1.8419859 -2.0824583
66.982124 -16.353252 1.203518
8.679657 -2.1206875 -2.0628011
10.210468 -2.4965971 -2.0431828
12.381272 -3.0319681 -2.0189433
16.593922 -4.0697165 -2.0978591
34.024353 -8.3508854 -3.0650933
7.5383005 -1.8669372 -2.0809052
8.6778765 -2.1523798 -2.0641508
10.190259 -2.5293851 -2.0408931
12.361029 -3.0727859 -2.017379
16.571909 -4.1256971 -2.0968843
33.732063 -8.4040937 -3.0413866
7.5223708 -1.8908846 -2.0783172
8.6627502 -2.1807551 -2.0623512
10.190887 -2.5673385 -2.0428011
12.342565 -3.1139822 -2.0161276
16.549707 -4.1815734 -2.0959091
33.435963 -8.4543896 -3.0173318
7.5194678 -1.9180859 -2.0793524
8.6554718 -2.2094698 -2.0623512
10.17806 -2.6019237 -2.042038
12.320688 -3.1519566 -2.0142503
16.520367 -4.2324896 -2.0939593
33.224838 -8.5245075 -3.0009465
7.5186768 -1.9444621 -2.0809052
8.6401606 -2.2377155 -2.0605516
10.178877 -2.6381235 -2.043946
12.307699 -3.1944487 -2.0139375
16.505491 -4.2901311 -2.0939593
33.111969 -8.6188507 -2.9934511
7.5096312 -1.971516 -2.0803876
8.6360655 -2.2688518 -2.0614514
10.15395 -2.6714168 -2.0408931
12.293998 -3.2390339 -2.0136247
16.47506 -4.3436708 -2.0920093
32.931427 -8.6947088 -2.9798548
7.5008364 -1.9972202 -2.07987
8.6371069 -2.3029997 -2.0637012
10.131286 -2.7033014 -2.0382218
12.286433 -3.282948 -2.0142503
16.451359 -4.4019737 -2.0910344
32.689171 -8.7529221 -2.9606805
7.4826288 -2.0203691 -2.0767641
8.6275415 -2.3311205 -2.0632513
10.123683 -2.7391627 -2.0386035
12.273573 -3.3231571 -2.0139375
16.429007 -4.4544268 -2.0900595
32.381538 -8.7918005 -2.9355798
7.4945221 -2.0502691 -2.0819407
8.615593 -2.3601921 -2.0623512
10.12401 -2.7753141 -2.0405114
12.261898 -3.3659799 -2.0139375
16.413357 -4.5117474 -2.0900595
32.129364 -8.8378363 -2.9153595
7.4835958 -2.0753849 -2.0809052
8.6091785 -2.3907731 -2.0628011
10.118045 -2.8116879 -2.0412748
12.232946 -3.4039953 -2.0111217
16.386036 -4.5658159 -2.0885971
31.948622 -8.9081955 -2.9017634
7.476306 -2.1014948 -2.0809052
8.6045332 -2.4218662 -2.0637012
10.108169 -2.8469894 -2.0412748
12.22289 -3.4472115 -2.0114346
16.358536 -4.6197495 -2.0871346
31.756281 -8.9741497 -2.8871212
7.4707837 -2.1281085 -2.081423
8.5979013 -2.4524217 -2.0641508
10.100057 -2.8827949 -2.0416565
12.210783 -3.4898565 -2.0114346
16.338493 -4.6757307 -2.0866473
31.583015 -9.0443544 -2.874222
7.4614525 -2.1536379 -2.0809052
8.5761833 -2.4786313 -2.0610015
10.093704 -2.9191239 -2.0424197
12.179552 -3.5269639 -2.0083058
16.330523 -4.7320952 -2.0876222
31.386696 -9.1067991 -2.859231
7.4598331 -2.1799948 -2.0824583
8.5791378 -2.5103409 -2.0637012
10.087736 -2.9536831 -2.0431828
12.171581 -3.5684452 -2.0089316
16.299503 -4.7817531 -2.0856721
31.203396 -9.1659088 -2.8452861
7.4562678 -2.2058165 -2.0834932
8.559556 -2.5354559 -2.0610015
10.08918 -2.9904668 -2.0454724
12.157787 -3.6082256 -2.0086186
16.282713 -4.8386188 -2.0856721
31.068089 -9.2440901 -2.8358736
7.4518347 -2.2342401 -2.0845287
8.5581188 -2.5675585 -2.0628011
10.074391 -3.0262959 -2.0447092
12.14448 -3.6527622 -2.0086186
16.246714 -4.8897066 -2.0832345
30.940248 -9.3237381 -2.8271577
52.711296 -15.904439 -2.8854909
50.52729 -15.255087 -0.92127764
7.4458385 -2.2607992 -2.0850463
8.5449219 -2.5977747 -2.0619013
10.04874 -3.0568728 -2.0416565
12.129766 -3.6945565 -2.0083058
16.214357 -4.9417582 -2.0812848
30.865593 -9.4188881 -2.823323
50.485207 -15.434875 -0.92148709
7.4327602 -2.2837758 -2.0834932
8.5530243 -2.6312537 -2.0659504
10.046053 -3.0924888 -2.0431828
12.113672 -3.7335958 -2.0076802
16.216852 -5.0013504 -2.0837224
30.796112 -9.5094337 -2.8198366
50.506336 -15.624663 -0.92281348
7.4177675 -2.3061173 -2.081423
8.536809 -2.6572855 -2.0641508
10.043241 -3.1281211 -2.0447092
12.104996 -3.7749224 -2.0083058
16.188805 -5.0515513 -2.0822597
30.756802 -9.6091299 -2.8191395
45.121132 -14.114164 -2.477689
7.4211369 -2.3341806 -2.0845287
8.5316668 -2.6867504 -2.0650506
10.036557 -3.1625886 -2.0454724
12.088643 -3.8138547 -2.0076802
16.168179 -5.104013 -2.0817723
30.663977 -9.6918554 -2.8135617
7.4061847 -2.362191 -2.0829759
8.5133877 -2.7186058 -2.0632513
10.010691 -3.1986694 -2.0428011
12.073237 -3.8623502 -2.0076802
16.146658 -5.1716928 -2.0817723
30.651388 -9.8233833 -2.8160019
7.3960562 -2.3874354 -2.0824583
8.5061798 -2.7474213 -2.0637012
9.9957285 -3.2323859 -2.042038
12.062242 -3.9029737 -2.007993
16.133196 -5.2264314 -2.0822597
30.643444 -9.9389219 -2.8184423
43.365379 -14.090266 -0.79589957
7.3862619 -2.4113491 -2.0819407
8.5095043 -2.7813346 -2.0668504
9.9849548 -3.2655149 -2.042038
12.03728 -3.9413667 -2.0061157
16.0809 -5.2715855 -2.0778725
30.638853 -10.05577 -2.8212314
42.82962 -14.081661 -0.78696394
7.3737054 -2.437192 -2.0809052
8.4886427 -2.8073502 -2.0641508
9.9785089 -3.3039408 -2.0431828
12.022754 -3.9854593 -2.0061157
16.077475 -5.3326855 -2.0798223
30.614908 -10.166423 -2.8222771
42.431072 -14.114939 -0.78054142
7.3798103 -2.467818 -2.0850463
31.111658 -10.409814 0.57264835
8.4764481 -2.8378251 -2.0637012
9.9687777 -3.339376 -2.0435643
12.008769 -4.0274019 -2.0061157
16.062527 -5.3900371 -2.0803099
30.556572 -10.265615 -2.8201854
31.339447 -10.5408 -1.7328436
31.411846 -10.571255 -0.57851237
7.3624358 -2.4891829 -2.0824583
31.061813 -10.507802 0.5723691
8.4743738 -2.868417 -2.0655005
9.9557886 -3.3717852 -2.0431828
12.012185 -4.0729113 -2.0089316
15.991927 -5.425415 -2.0734851
30.556318 -10.378421 -2.823323
42.731567 -14.53869 -0.78787142
7.3669367 -2.5179572 -2.0860815
31.151676 -10.653454 0.57467282
8.468504 -2.8977656 -2.0664005
9.9365301 -3.4039724 -2.0416565
11.994874 -4.1114416 -2.0083058
15.969135 -5.4799151 -2.0729976
30.542519 -10.492786 -2.8254149
42.695683 -14.692968 -0.78815073
7.3485298 -2.5417843 -2.0834932
8.4559841 -2.9281471 -2.0659504
9.9258423 -3.4410117 -2.042038
11.990923 -4.1592617 -2.0101831
15.933943 -5.5331993 -2.0710478
30.46245 -10.590266 -2.8215799
42.263851 -14.71783 -0.78116971
7.3428116 -2.5699773 -2.0845287
8.4433556 -2.9584756 -2.0655005
9.9193277 -3.4775865 -2.0431828
11.949503 -4.1940241 -2.0058029
15.898573 -5.5862985 -2.0690978
30.444096 -10.703143 -2.823323
42.695076 -15.03531 -0.79010534
7.3392587 -2.5975263 -2.0860815
8.4261513 -2.9838567 -2.0637012
9.9200802 -3.5167823 -2.0458541
11.931807 -4.2323065 -2.0051773
15.887442 -5.6416459 -2.0700727
30.414057 -10.812017 -2.8240201
7.3324242 -2.6225007 -2.0865991
8.4193535 -3.0145648 -2.0646007
9.8954268 -3.5450242 -2.0431828
11.926257 -4.2772651 -2.0067415
15.837759 -5.686337 -2.0661731
30.411787 -10.924939 -2.8271577
