# .PCD v0.7 - Point Cloud Data file format
VERSION 0.7
FIELDS x y z
SIZE 4 4 4
TYPE F F F
COUNT 1 1 1
WIDTH 1519
HEIGHT 1
VIEWPOINT 0 0 0 1 0 0 0
POINTS 1519
DATA ascii
25.026266 11.168598 2.3976545
18.208126 8.1220217 -3.1577864
24.96944 11.127564 -3.3565259
24.986736 11.130047 -2.3931224
25.062645 11.153378 -1.4376688
25.047783 11.136277 -0.47847515
7.9396954 3.5167353 -2.3267834
25.189585 11.151968 0.48084873
9.4609385 4.1865854 -2.3885303
25.193827 11.143345 1.4437398
12.676003 5.6066537 -2.6942232
25.276482 11.174616 2.4178746
18.236368 8.0584087 -3.1577864
25.258739 11.150966 -3.3901615
25.211365 11.124794 -2.410902
25.284184 11.146384 -1.4481361
25.287804 11.137454 -0.48231471
7.9466162 3.4866681 -2.3252304
25.448122 11.160341 0.4850373
9.4897728 4.1597962 -2.3921297
25.452099 11.151509 1.4563005
12.690102 5.5600047 -2.6930783
25.556244 11.19181 2.4408836
18.286098 8.0042124 -3.161541
25.530319 11.164529 -3.4213603
25.520231 11.154827 -2.4367003
25.524279 11.145972 -1.4596499
25.594128 11.165854 -0.48741081
7.9551945 3.4573696 -2.3241951
25.721685 11.173444 0.48950511
9.5060234 4.1274185 -2.3925796
25.758364 11.178691 1.4715827
12.720237 5.5203662 -2.6953681
25.8218 11.200867 2.4624984
18.332054 7.9481869 -3.1646698
25.780426 11.166886 -3.4496341
25.719915 11.13533 -2.4520395
25.786665 11.153559 -1.4724199
25.842216 11.166865 -0.49138996
7.9796367 3.4349244 -2.3278186
25.969936 11.17368 0.49348423
9.5257425 4.0965233 -2.393929
25.999073 11.175463 1.4830965
12.757468 5.4836807 -2.6991842
26.106043 11.216045 2.4858561
18.366943 7.8872685 -3.165921
26.034519 11.169173 -3.4783952
26.000334 11.149136 -2.4750488
26.108171 11.18459 -1.4885395
26.120028 11.178881 -0.4959276
7.9880252 3.4055321 -2.3267834
26.218498 11.172332 0.49746341
9.536397 4.0617213 -2.3930292
26.302549 11.197288 1.4981692
12.781951 5.4414186 -2.7003291
18.416176 7.8323894 -3.1696756
26.318165 11.182254 -3.5110562
26.270159 11.156445 -2.4970119
26.360332 11.183881 -1.5006814
26.383512 11.182837 -0.50018597
7.9963031 3.3761268 -2.325748
26.548433 11.203581 0.50297838
9.5648823 4.0344648 -2.3966284
26.606489 11.21714 1.513242
12.813531 5.4021096 -2.7030003
18.472532 7.7803192 -3.1746814
26.668093 11.221193 -3.5524917
26.634905 11.190818 -1.5140795
26.651022 11.186647 -0.50451416
8.0098209 3.3489406 -2.3262658
26.842001 11.217238 0.50779521
9.5825043 4.0025573 -2.3975284
26.86665 11.21654 1.5258026
12.839555 5.3603773 -2.7045269
18.525103 7.7264409 -3.1790614
27.34844 11.395254 -3.6378002
26.836647 11.176525 -2.5433788
26.935659 11.206714 -1.5289427
26.955814 11.204063 -0.50954044
8.0196762 3.3202233 -2.325748
27.139677 11.230524 0.5126819
9.6108246 3.9750395 -2.4011276
27.173162 11.238827 1.5410846
12.867259 5.3192792 -2.706435
18.570221 7.6692648 -3.1821902
27.648623 11.407234 -3.672411
27.122318 11.184554 -2.5667365
27.262695 11.231309 -1.5452715
27.273878 11.230349 -0.51484603
8.036581 3.2944055 -2.327301
27.439505 11.248174 0.51763839
9.6149359 3.9394548 -2.3988781
27.437716 11.236255 1.5538547
12.913003 5.2854843 -2.7121592
18.60652 7.6121235 -3.1840672
27.85535 11.384584 -3.6948349
27.482147 11.220862 -2.5970669
27.562376 11.248006 -1.560135
27.579565 11.243777 -0.51987231
8.0492516 3.2684617 -2.3278186
27.671307 11.230524 0.52126849
9.6322393 3.9073353 -2.3997779
27.735901 11.245467 1.5685087
12.935919 5.244843 -2.713304
18.669592 7.5619736 -3.1903248
28.413849 11.497251 -3.7635694
27.74085 11.219313 -2.6179843
27.831099 11.244494 -1.5731143
27.896791 11.259712 -0.52510798
8.0659904 3.2425041 -2.3293715
28.003508 11.251666 0.52678347
9.6512461 3.875865 -2.4011276
28.056725 11.261661 1.5844189
12.97237 5.2069664 -2.7171202
18.754547 7.5202794 -3.2003365
28.730219 11.508727 -3.8001301
28.241064 11.295627 -1.5940487
28.1959 11.266133 -0.52999467
8.0790529 3.2150488 -2.3298893
28.425386 11.306085 0.53397381
9.681015 3.8486288 -2.4051766
28.418818 11.292001 1.6026318
12.986814 5.1602116 -2.716357
18.817408 7.4693394 -3.206594
28.78129 11.412753 -3.8015926
28.596014 11.321963 -1.611843
28.517696 11.279456 -0.5353002
8.0812397 3.1832855 -2.327301
28.717724 11.306441 0.53872091
9.6998301 3.8169551 -2.4065266
28.729429 11.299454 1.617914
13.026672 5.123467 -2.7209363
18.883814 7.4195051 -3.2134774
28.828348 11.315111 -3.8025675
28.672918 11.248347 -2.6946812
28.85107 11.306602 -1.6239848
28.843658 11.2921 -0.54067558
8.0959015 3.1564629 -2.3283362
28.954521 11.283085 0.5424208
9.7094631 3.7816556 -2.4056265
29.126047 11.338217 1.638011
13.062772 5.0850887 -2.7247527
18.935373 7.3635607 -3.2178574
28.875063 11.217308 -3.8035424
29.116903 11.305393 -2.732681
29.203188 11.327184 -1.6415697
29.129032 11.286709 -0.54528302
8.1140804 3.1309633 -2.3304069
9.7280579 3.74985 -2.4069762
29.549377 11.384386 1.6595733
13.093268 5.0443978 -2.7274239
19.03101 7.3243942 -3.2297466
28.947399 11.129263 -3.80793
29.53343 11.336825 -1.6578985
29.515535 11.318138 -0.55177528
8.1249609 3.1026187 -2.3304069
29.746256 11.353051 0.55575442
9.7429094 3.7165616 -2.4074261
29.85021 11.380775 1.6742274
13.105294 4.9965615 -2.7262793
19.100767 7.2747869 -3.2372551
29.023172 11.042273 -3.8128045
29.908897 11.361336 -1.6767396
29.906355 11.348411 -0.55833739
8.1339321 3.0735612 -2.3298893
9.772233 3.6887212 -2.4114752
30.293388 11.428796 1.6968365
13.139186 4.9570241 -2.7297137
19.192593 7.2331429 -3.2485185
29.094986 10.953478 -3.8171921
30.035534 11.301585 -2.8076351
30.202635 11.352427 -1.690975
30.215363 11.345176 -0.56336373
8.1373739 3.0424414 -2.3278186
30.480408 11.3901 0.56797111
9.7941761 3.6579983 -2.4137249
30.533188 11.403752 1.7081411
13.15457 4.9104462 -2.729332
19.280653 7.1895742 -3.2591562
29.209269 10.886057 -3.8274291
30.41836 11.324584 -2.8397083
30.567806 11.368059 -1.7091877
30.57896 11.366149 -0.56943715
8.1528549 3.0174491 -2.3293715
30.776823 11.384706 0.57278794
9.8044262 3.6248214 -2.413275
30.911791 11.428484 1.7271914
13.192881 4.8749595 -2.7339115
19.378515 7.1529536 -3.2716708
29.204239 10.774012 -3.8220665
30.739912 11.328362 -2.8662038
30.946787 11.386202 -0.57558042
8.1700716 2.9930568 -2.3314421
31.114859 11.392583 0.57837278
9.8072405 3.5889421 -2.4110253
31.234604 11.430247 1.7431015
13.210816 4.8318601 -2.734293
19.40955 7.0913682 -3.2729223
29.292013 10.696178 -3.8288913
31.106737 11.346534 -2.8968825
31.330109 11.409428 -0.58200288
8.1944809 2.9712129 -2.3355832
31.502151 11.416069 0.58486503
9.8337469 3.5617065 -2.4146245
31.636652 11.458548 1.7634078
13.237845 4.7920308 -2.7365828
19.451538 7.0336776 -3.276051
29.342264 10.604374 -3.8308413
31.489016 11.36779 -2.928956
31.622553 11.403541 -1.7617332
31.695108 11.423438 -0.58807629
8.2021904 2.9384294 -2.334548
31.926052 11.431184 0.59191579
9.8455153 3.5232673 -2.4141748
32.09412 11.485043 1.7864357
13.256146 4.741169 -2.7365828
19.504442 6.9682455 -3.2804313
29.433203 10.503856 -3.8371785
31.746365 11.32311 -2.9488275
31.98595 11.395981 -1.7795274
32.066521 11.41838 -0.59414977
8.2014732 2.9059072 -2.3314421
32.3106 11.448139 0.59833831
9.8755169 3.4971015 -2.4186738
32.46162 11.488898 1.8046486
13.287421 4.7001081 -2.7396357
19.542343 6.9087901 -3.282934
29.501562 10.418097 -3.8415658
32.214088 11.363329 -2.9885702
32.457008 11.429914 -0.60064203
8.2165337 2.8806093 -2.3329952
32.701385 11.45827 0.60483062
9.8803043 3.4600387 -2.4168742
32.833313 11.491631 1.823071
13.327025 4.6644473 -2.7445967
19.61109 6.8561916 -3.2904429
29.552744 10.320282 -3.8435156
32.802639 11.423092 -0.6062966
8.2288618 2.8511093 -2.3335128
9.8923225 3.4255264 -2.4168742
33.273365 11.515423 1.8452615
13.34403 4.6155729 -2.7445967
19.677168 6.7984452 -3.2973261
29.607347 10.223547 -3.845953
8.2424192 2.8236177 -2.334548
9.9121857 3.3917718 -2.4186738
33.642155 11.511742 1.8634742
13.363777 4.5702319 -2.7453599
19.723207 6.7373939 -3.3010805
29.661646 10.126541 -3.8483903
22.125502 7.5321488 -0.40796745
8.2407589 2.7925508 -2.3314421
22.209282 7.5217514 0.40929386
9.9307632 3.3613796 -2.4204733
34.107704 11.544827 1.8871301
13.391876 4.5302978 -2.7480311
19.771643 6.6807995 -3.3054607
29.747721 10.045913 -3.8552151
22.123827 7.4497957 -0.40747881
8.2499752 2.7652059 -2.3314421
22.184801 7.4315515 0.40838632
9.9510937 3.3315248 -2.4227228
34.488724 11.539761 1.9059712
13.412412 4.4877286 -2.7491763
19.808676 6.6202111 -3.3079636
29.83156 9.9583626 -3.8615522
21.967552 7.3118906 -0.40412796
8.2632437 2.737608 -2.3324773
22.035959 7.2962332 0.40517509
9.9700642 3.2992151 -2.4245226
34.896667 11.540973 1.9262775
13.43545 4.4433517 -2.7507026
19.869177 6.5634122 -3.3142209
22.318075 7.3637204 -2.8856225
22.542208 7.4245868 -1.2438165
22.091715 7.2676649 -0.40594298
8.2764215 2.7099516 -2.3335128
22.141119 7.2453842 0.40664107
9.9778137 3.2631834 -2.4236226
35.327812 11.546921 1.9478399
13.468443 4.3995619 -2.7541373
19.933279 6.5075068 -3.321104
22.336098 7.2833037 -2.8846476
22.386656 7.2911453 -2.0598388
22.405931 7.2887864 -1.2348148
22.166397 7.2065744 -0.40685049
8.2899752 2.6807852 -2.334548
9.9859991 3.2253907 -2.4227228
13.48074 4.3489656 -2.7533739
20.02092 6.4550085 -3.3317416
29.977463 9.6535797 -3.8669145
8.2997446 2.6503849 -2.334548
10.005179 3.1911392 -2.4245226
13.501451 4.3036675 -2.7545187
20.059504 6.386373 -3.3342445
30.045029 9.5597048 -3.8713019
36.124889 11.480307 -3.3162761
36.215729 11.488303 -0.66319144
8.3011179 2.6205227 -2.3324773
10.025 3.1608701 -2.4267719
13.53437 4.264781 -2.7583349
20.110718 6.3293109 -3.3392503
30.050049 9.4517012 -3.8678894
36.745914 11.522518 -0.67219692
8.3134518 2.5941296 -2.3335128
37.103771 11.570755 0.67840993
10.029846 3.1258664 -2.4254222
13.54844 4.2198725 -2.7583349
20.180639 6.2778373 -3.3473849
30.177647 9.3761921 -3.8800764
37.332218 11.563404 -0.68217963
8.3229046 2.5636396 -2.3335128
37.637001 11.593033 0.68741536
10.044419 3.0919907 -2.426322
13.576952 4.1742215 -2.7610061
20.271494 6.2247086 -3.3586483
30.240557 9.2801046 -3.8839762
37.907776 11.596807 -0.691953
8.3336496 2.5351355 -2.3340304
38.115452 11.587632 0.69537371
10.070603 3.0596797 -2.4299212
13.595197 4.1279473 -2.7617695
20.342251 6.1688089 -3.3667829
30.312365 9.1807213 -3.8888512
38.144741 11.54563 -3.4867525
38.369164 11.591631 -0.69963205
8.3387489 2.5049164 -2.3329952
38.674595 11.617645 0.70486778
10.086292 3.0279555 -2.4312711
13.613286 4.0815902 -2.7625327
20.423145 6.1194654 -3.3767946
30.357857 9.0846949 -3.890801
8.3451567 2.4767022 -2.3324773
39.224865 11.633852 0.71415246
10.106143 2.9954958 -2.4335206
13.634274 4.0386577 -2.7640593
20.467112 6.0548673 -3.3805492
30.431261 8.991066 -3.8961632
39.477325 11.626304 -0.71834111
8.3615942 2.4482725 -2.334548
10.110927 2.9585557 -2.4321706
13.660291 3.9919653 -2.7663491
20.447447 5.9676399 -3.3736663
30.443403 8.8792191 -3.8937259
40.024597 11.635814 -0.72755593
8.3738012 2.4201405 -2.3355832
40.402176 11.669151 0.73404819
10.11983 2.9209392 -2.431721
13.693007 3.9496953 -2.7701652
20.433987 5.8863802 -3.3680344
30.517715 8.7796459 -3.8990881
40.370228 11.606488 -3.6750088
40.641609 11.661478 -0.73802739
8.3840551 2.3914278 -2.3361006
40.944481 11.678807 0.74319333
10.13883 2.8900378 -2.4339705
13.706709 3.9018764 -2.7701652
20.422995 5.8099427 -3.3630285
30.539024 8.6762342 -3.8981133
41.01619 11.637339 -3.7300913
41.159233 11.654643 -0.74668372
8.3863621 2.3620384 -2.334548
10.154484 2.856214 -2.4353201
13.717684 3.8558671 -2.7697835
20.382294 5.7215281 -3.3530169
30.649403 8.5920763 -3.90835
41.679115 11.652705 -0.75540996
8.3945551 2.3327518 -2.334548
42.082706 11.694306 0.76239091
10.171411 2.8246078 -2.4371197
13.734842 3.8090119 -2.7705467
20.38973 5.6507449 -3.3511395
30.708338 8.4988699 -3.91225
8.4059715 2.3059216 -2.3355832
42.6054 11.679518 0.77111715
10.184968 2.7901127 -2.4380195
13.766335 3.7686245 -2.774363
20.344545 5.5618205 -3.3405018
30.760798 8.3979073 -3.915175
43.113255 11.745961 -2.341825
43.01162 11.710185 -0.77809811
8.4102392 2.275558 -2.334548
43.416016 11.747068 0.78507906
10.188521 2.7547994 -2.4366698
13.788883 3.7231102 -2.7762711
20.355247 5.4922705 -3.3392503
30.788479 8.295846 -3.915175
8.4293308 2.2491727 -2.3376536
10.21173 2.720952 -2.4398191
13.801797 3.6749518 -2.7762711
20.37524 5.4176326 -3.3392503
30.903097 8.2053509 -3.9258993
8.4300442 2.2162995 -2.3355832
10.219282 2.6847923 -2.4393692
13.820868 3.6258385 -2.777416
20.379675 5.3389072 -3.3367476
30.920025 8.0944185 -3.9244368
8.4339895 2.1858881 -2.334548
10.257351 2.6546447 -2.4461179
13.839144 3.5790434 -2.7785606
20.386711 5.2647772 -3.3348703
31.026371 8.0008717 -3.9341865
8.4359522 2.1550062 -2.3329952
10.250994 2.6167567 -2.4425187
13.86677 3.5346029 -2.7816138
20.381088 5.191287 -3.3311157
31.041189 7.8950109 -3.932724
8.4542923 2.129849 -2.3361006
10.260066 2.5809555 -2.4425187
13.884129 3.4900315 -2.7827585
20.40675 5.1220303 -3.3323674
31.087816 7.7914267 -3.9351614
8.4673004 2.1017189 -2.3376536
10.282251 2.5484142 -2.445668
13.90766 3.4443736 -2.7850482
20.393816 5.0431924 -3.3273613
31.137955 7.6885648 -3.9380865
8.4708319 2.0712337 -2.3366184
10.300551 2.5148151 -2.4479175
13.913877 3.394413 -2.7839034
20.426653 4.975709 -3.3298645
31.24947 7.6004744 -3.9488106
8.4652195 2.0370069 -2.3329952
10.313055 2.4797573 -2.4488173
13.939588 3.3465979 -2.7865748
20.421701 4.8952866 -3.3261099
30.418676 7.2860336 -3.840591
8.4816771 2.0096741 -2.3355832
10.316386 2.440593 -2.4474673
13.960737 3.3001802 -2.7884827
20.411751 4.8176141 -3.3217299
30.449039 7.1754122 -3.8410783
8.4942846 1.9813738 -2.337136
10.320627 2.4054813 -2.4465675
13.981732 3.2536559 -2.790391
20.43531 4.7516832 -3.3229811
31.400826 7.2898679 -3.9580727
8.4970427 1.9523271 -2.3361006
10.336558 2.3711863 -2.4483674
13.986706 3.2059534 -2.7892461
20.459476 4.6820893 -3.3242328
31.379635 7.1696091 -3.9522231
8.5000372 1.9218048 -2.3350656
10.342463 2.3364687 -2.4479175
14.003555 3.1584098 -2.790391
20.436346 4.605536 -3.3179753
31.472965 7.0811901 -3.9609978
32.885807 7.3870111 -2.9488275
8.5025911 1.8927691 -2.3340304
10.369579 2.3045774 -2.4524164
14.021618 3.1136603 -2.7919173
20.440729 4.531601 -3.3160982
31.51687 6.9755821 -3.9634354
32.872475 7.2635975 -2.9453411
8.5189095 1.8636509 -2.3366184
10.366138 2.2658722 -2.449717
14.052119 3.0664229 -2.7957335
20.430176 4.4507689 -3.311718
31.544909 6.8663611 -3.9639225
32.885948 7.1462593 -2.9442952
32.863422 7.129353 -1.762361
56.960396 12.346514 -1.0173357
8.5253611 1.8339089 -2.3366184
57.193005 12.292439 1.0211054
10.374373 2.2278605 -2.449717
57.408611 12.328299 3.07725
14.062735 3.0173628 -2.7957335
20.464905 4.3835592 -3.3148468
31.651392 6.7681379 -3.9741595
32.906799 7.030581 -2.9439464
8.5336018 1.8045362 -2.337136
10.381705 2.1934428 -2.449717
14.065499 2.9666319 -2.7942071
20.460001 4.3115921 -3.311718
31.708624 6.6705027 -3.9785466
32.92334 6.914041 -2.9432492
8.5357561 1.7754385 -2.3361006
10.400745 2.1595745 -2.4524164
14.081026 2.921165 -2.795352
20.463318 4.2377572 -3.3098409
31.902788 6.5951347 -3.9999959
32.930473 6.8016081 -2.941855
8.5286512 1.7429305 -2.3324773
10.410131 2.1236429 -2.4528663
14.100755 2.8739657 -2.79726
20.45863 4.1623578 -3.3067122
32.26022 6.5516944 -4.0419188
8.5365782 1.7135274 -2.3329952
10.41748 2.0872941 -2.4528663
14.128026 2.8281918 -2.8006945
20.488531 4.0940194 -3.3092151
32.621628 6.5065994 -4.0843291
8.5500898 1.6852108 -2.3350656
10.418966 2.0497863 -2.4515166
14.141666 2.7796123 -2.8014579
20.463928 4.0148644 -3.3029575
33.135059 6.4888325 -4.1457515
8.5672998 1.6575587 -2.3381712
10.433712 2.0148797 -2.4533162
14.147427 2.7294905 -2.8006945
20.493338 3.9463904 -3.3054607
33.660454 6.4698071 -4.2086363
8.5559521 1.6243979 -2.3335128
10.450254 1.9802634 -2.4555657
14.151082 2.6789908 -2.7995498
20.514751 3.8763027 -3.3067122
33.733551 6.3618274 -4.2149734
8.5634689 1.5948775 -2.3340304
10.44369 1.9412824 -2.4524164
14.158417 2.6292226 -2.7991681
20.504847 3.8003533 -3.3029575
33.661858 6.2267122 -4.2032743
74.552536 13.750234 -3.973032
8.5708847 1.5653206 -2.334548
10.469576 1.9083121 -2.4569156
14.175235 2.5811875 -2.8006945
20.506329 3.7266407 -3.3010805
33.652138 6.1034951 -4.1993742
8.5814638 1.5394115 -2.3361006
10.467846 1.8740348 -2.4551158
14.183273 2.5366449 -2.8006945
20.506266 3.660111 -3.2992032
33.557796 5.9775591 -4.1852374
70.939552 12.572413 -1.2575506
8.5886889 1.5097796 -2.3366184
10.474324 1.837486 -2.4551158
14.203646 2.48915 -2.8029842
20.507244 3.5864713 -3.2973261
33.527615 5.8515019 -4.1789002
8.5881939 1.4788127 -2.3350656
10.490277 1.8025599 -2.4573653
14.20257 2.4379039 -2.8010762
20.500168 3.5115249 -3.2941973
33.524357 5.7304268 -4.1759753
8.5894938 1.4481806 -2.3340304
10.50227 1.7669032 -2.458715
14.228419 2.3912375 -2.8045108
20.527885 3.4425628 -3.2967005
33.461926 5.5996003 -4.1657386
8.6021214 1.4194446 -2.3361006
10.502606 1.72928 -2.4573653
14.240555 2.34219 -2.805274
20.512487 3.3664019 -3.2923203
33.445995 5.4770103 -4.1613507
8.6070232 1.3894109 -2.3361006
10.49896 1.6910564 -2.4551158
14.250582 2.2927816 -2.8056555
20.508511 3.292269 -3.2898171
33.413956 5.3520575 -4.1550136
8.6137295 1.3596572 -2.3366184
10.516347 1.6562239 -2.4578152
14.25268 2.2421048 -2.8045108
20.515972 3.2200625 -3.2891915
33.385365 5.2280087 -4.1491642
8.6241503 1.3304667 -2.3381712
10.518212 1.6189095 -2.4569156
14.252658 2.19115 -2.8029842
20.515375 3.1466265 -3.2873144
33.403412 5.1114469 -4.1491642
50.039528 7.6481967 -4.4287319
50.22768 7.6590147 -2.6627491
8.617281 1.2986293 -2.3350656
10.531507 1.5833452 -2.458715
14.271868 2.1431375 -2.805274
20.526234 3.0749996 -3.2873144
33.389633 4.9901123 -4.1452641
8.6294069 1.2696642 -2.337136
10.538898 1.5468538 -2.4591649
14.26955 2.0918787 -2.8033659
20.536842 3.0033257 -3.2873144
33.375423 4.8689532 -4.1413646
8.6280489 1.2387122 -2.3355832
10.53459 1.5086728 -2.4569156
14.282596 2.0428932 -2.8045108
20.523735 2.9282668 -3.28356
33.356842 4.7473779 -4.1369772
8.6437988 1.210192 -2.3386889
10.543651 1.4724321 -2.4578152
14.285749 1.9924787 -2.8037474
20.510353 2.8533459 -3.2798054
33.274895 4.6172762 -4.1247902
8.6460571 1.1797528 -2.3381712
10.552588 1.4361418 -2.458715
14.288728 1.9420743 -2.8029842
20.559338 2.7870352 -3.2860627
33.290806 4.5011039 -4.1247902
8.6386328 1.148036 -2.3350656
10.555605 1.3990489 -2.4582651
14.30126 1.8929546 -2.8041291
20.514103 2.7080286 -3.2773025
33.270893 4.3801975 -4.1204028
8.6349239 1.1168809 -2.3329952
10.558491 1.3619423 -2.4578152
14.309728 1.8432692 -2.8045108
20.49992 2.6333787 -3.2735479
33.222973 4.255969 -4.1126032
8.6541042 1.0886676 -2.337136
10.559084 1.3264329 -2.4569156
14.304386 1.7918535 -2.8022211
20.512461 2.5658686 -3.2741737
33.165985 4.1369357 -4.1038284
8.659584 1.0601959 -2.3376536
10.579123 1.2914631 -2.4605148
14.3083 1.7441672 -2.8018396
20.505606 2.4923389 -3.2716708
33.038342 4.0039353 -4.0862794
8.6498032 1.028363 -2.3340304
10.583568 1.2545245 -2.4605148
14.308453 1.6935152 -2.8006945
20.529873 2.422612 -3.2741737
33.016628 3.8844175 -4.0818925
8.6552591 0.99839067 -2.334548
10.60337 1.2193515 -2.464114
14.324029 1.6446818 -2.8026028
20.534281 2.3504798 -3.2735479
32.998428 3.7655346 -4.0779924
8.6567717 0.96795511 -2.3340304
10.595941 1.1810383 -2.4614143
14.321877 1.5938059 -2.8010762
20.514874 2.2757428 -3.2691679
32.956127 3.6442077 -4.0711675
8.6677809 0.93856102 -2.3361006
10.584498 1.1423687 -2.4578152
14.325401 1.5435894 -2.8006945
20.514835 2.2032692 -3.2679164
32.996277 3.5321119 -4.0745802
8.6710033 0.90830094 -2.3361006
10.596175 1.1062267 -2.459615
14.358039 1.4964272 -2.8060372
20.53812 2.1332729 -3.2704191
32.897831 3.4054725 -4.0609307
8.6721992 0.87783104 -2.3355832
10.599972 1.0692295 -2.459615
14.331923 1.4431483 -2.7999313
20.545441 2.0615728 -3.2704191
32.881866 3.287859 -4.0575185
8.6675205 0.84680456 -2.3335128
10.60558 1.0324132 -2.4600649
14.350551 1.3944439 -2.8026028
20.53285 1.987944 -3.2672908
32.833862 3.1673329 -4.0502062
8.6761932 0.81708521 -2.3350656
10.607178 0.99520671 -2.459615
14.359241 1.3447049 -2.8033659
20.519995 1.9144282 -3.2641621
32.789379 3.0475495 -4.0433812
8.6809158 0.78697085 -2.3355832
10.602824 0.95747083 -2.4578152
14.357981 1.294048 -2.8022211
20.526554 1.842783 -3.2641621
32.716774 2.9256556 -4.0331445
8.6874599 0.75700128 -2.3366184
10.60222 0.92011958 -2.4569156
14.356542 1.2434161 -2.8010762
20.528925 1.7707856 -3.2635362
32.778206 2.8158433 -4.0394812
8.6842737 0.72618651 -2.3350656
10.620903 0.88439608 -2.4605148
14.370579 1.194104 -2.8029842
20.550732 1.700413 -3.2660391
32.716614 2.6955636 -4.0307069
8.6713505 0.69463605 -2.3309245
10.62004 0.84700412 -2.459615
14.374659 1.143937 -2.8029842
20.544725 1.6277256 -3.2641621
32.537827 2.5665073 -4.0075521
8.681427 0.66495103 -2.3329952
10.615158 0.8093428 -2.4578152
14.386395 1.094345 -2.8045108
20.55422 1.5563136 -3.2647877
8.6933279 0.63534904 -2.3355832
10.617919 0.77228123 -2.4578152
14.394043 1.0444007 -2.805274
20.551649 1.4839821 -3.2635362
32.552971 2.3391454 -4.007308
8.6897116 0.6045993 -2.3340304
10.614717 0.7348116 -2.4564655
14.389766 0.99361867 -2.8037474
20.564585 1.4127802 -3.2647877
32.541134 2.224138 -4.0048709
8.6956253 0.57451528 -2.3350656
10.630831 0.69864655 -2.459615
14.391189 0.94325072 -2.8033659
20.553621 1.3399543 -3.2622845
32.44569 2.1038623 -3.9921966
8.6802244 0.54307461 -2.3304069
10.633204 0.66153091 -2.459615
14.392434 0.89289182 -2.8029842
20.526628 1.2662491 -3.2572787
32.58757 1.9988483 -4.0087705
8.6917095 0.5133388 -2.3329952
10.637395 0.62452662 -2.4600649
14.387624 0.84218478 -2.8014579
20.538813 1.1950535 -3.2585304
32.546783 1.8823403 -4.0029206
8.7011642 0.48342645 -2.3350656
10.623943 0.58652908 -2.4564655
14.392435 0.79206151 -2.8018396
20.566526 1.1246411 -3.2622845
32.422329 1.761618 -3.986834
8.7085867 0.45334974 -2.3366184
10.637602 0.55005211 -2.4591649
14.385309 0.74131548 -2.7999313
20.570328 1.0528579 -3.2622845
32.448109 1.6494313 -3.9892714
0.66763407 0.032418989 -0.17910279
10.637422 0.51467639 -2.458715
14.38781 0.69109309 -2.7999313
20.593437 0.98557705 -3.2654133
32.477196 1.542942 -3.9921966
0.6677379 0.030204991 -0.17910279
10.64694 0.47788846 -2.4605148
14.3861 0.64320511 -2.7991681
20.592804 0.91350591 -3.2647877
32.438751 1.4276681 -3.986834
0.67169964 0.028035231 -0.18013807
10.652437 0.44087911 -2.4614143
14.401988 0.59355325 -2.8018396
20.568235 0.84048343 -3.2604074
32.415771 1.3132935 -3.9834216
0.67372376 0.025764033 -0.1806557
0.66793859 0.025309641 -0.15431643
14.400047 0.54312539 -2.8010762
20.567097 0.76854837 -3.2597818
32.412228 1.199831 -3.9824467
74.419052 2.7418635 -6.5152407
0.70276988 0.024418877 -0.18842028
0.66802287 0.022977768 -0.15431643
14.403819 0.49292678 -2.8014579
20.56176 0.69647813 -3.2585304
32.455898 1.088021 -3.9873216
0.70864362 0.02214645 -0.18997319
0.68173367 0.021067278 -0.15746574
14.379942 0.44186425 -2.7964969
20.587757 0.62542403 -3.2622845
32.443619 0.97423673 -3.9853714
0.70292324 0.019511689 -0.18842028
0.668167 0.018313529 -0.15431643
14.395135 0.39203647 -2.7991681
20.577967 0.55323154 -3.2604074
32.458729 0.86130416 -3.986834
120.82327 3.1427863 -6.3342214
0.68560553 0.016636292 -0.18376154
0.66238225 0.015841125 -0.15296671
14.388564 0.3416023 -2.7976415
20.579773 0.4813922 -3.2604074
32.441692 0.74754632 -3.9843965
75.800568 1.7333827 -6.6334233
0.67407084 0.014002074 -0.1806557
0.65269184 0.013330067 -0.1507172
14.391631 0.29141068 -2.7980232
20.593176 0.40979257 -3.2622845
32.456013 0.63452333 -3.9858592
75.806152 1.4687948 -6.6334233
0.67218411 0.011615807 -0.18013807
0.65468293 0.011084794 -0.15116711
14.378819 0.2409455 -2.795352
20.547081 0.33713308 -3.254776
32.418331 0.52059621 -3.9809842
75.810822 1.2041889 -6.6334233
0.66835713 0.0092159249 -0.17910279
0.66251183 0.0089043509 -0.15296671
14.371721 0.19064462 -2.7938256
20.567883 0.26566777 -3.2579045
32.475533 0.40812173 -3.9878087
75.973938 0.94154358 -6.6473684
0.66065824 0.0068034353 -0.17703223
0.65474439 0.0065139756 -0.15116711
14.36052 0.14036466 -2.7915359
20.552883 0.19371642 -3.2554016
32.341778 0.29354018 -3.9712348
75.817375 0.67490023 -6.6334233
0.66454154 0.0045237057 -0.17806751
0.65866047 0.0042534457 -0.15206692
14.374666 0.090325624 -2.7942071
20.565285 0.12203714 -3.2572787
32.469646 0.18134548 -3.986834
75.675827 0.40944779 -6.620873
0.67034882 0.0022230374 -0.17962041
0.6450302 0.0019139282 -0.1489176
14.367041 0.040122367 -2.7926805
20.557686 0.050235182 -3.2560275
32.343037 0.067729458 -3.9712348
0.66842067 -0.00011666141 -0.17910279
0.64893043 -0.00033977919 -0.14981739
14.351386 -0.010019159 -2.7896278
20.530081 -0.021499056 -3.2516472
32.36293 -0.045187201 -3.9736724
0.65296191 -0.0022792763 -0.17496169
0.65477192 -0.0025141558 -0.15116711
14.341458 -0.057570606 -2.7877195
20.5536 -0.089682572 -3.2554016
32.362602 -0.15250629 -3.9736724
0.65101814 -0.0045450372 -0.17444403
0.66060519 -0.0048425756 -0.15251681
14.339207 -0.10761655 -2.787338
20.517607 -0.16114819 -3.2497699
32.302322 -0.26498342 -3.9663601
75.618492 -0.63351482 -6.6159925
0.63554436 -0.0066556474 -0.17030294
0.65278977 -0.0070641409 -0.1507172
14.338743 -0.15766907 -2.787338
20.532721 -0.23294632 -3.2522728
32.36869 -0.37852716 -3.9746473
75.615822 -0.89746881 -6.6159925
0.65676552 -0.0091707716 -0.17599694
0.65081263 -0.0093148705 -0.1502673
14.336143 -0.20769124 -2.7869563
20.555485 -0.30496913 -3.2560275
32.267925 -0.49000555 -3.96246
75.739723 -1.1633701 -6.6271482
0.66445577 -0.011598118 -0.17806751
0.65272456 -0.011621263 -0.1507172
14.319627 -0.2574501 -2.7839034
20.562195 -0.37686405 -3.2572787
32.281898 -0.60293525 -3.9644103
75.906517 -1.4309736 -6.6421394
0.67213696 -0.014079262 -0.18013807
0.65267998 -0.013899627 -0.1507172
14.308827 -0.30722266 -2.7819953
20.552855 -0.44846487 -3.2560275
32.279598 -0.71561646 -3.9644103
76.000656 -1.6981534 -6.6508546
0.65856481 -0.016094977 -0.1765146
0.66626447 -0.016515864 -0.15386651
14.311593 -0.35726589 -2.7827585
20.547216 -0.52010506 -3.2554016
32.272934 -0.82818705 -3.9639225
76.065964 -1.9652873 -6.6571298
0.67395335 -0.01882522 -0.1806557
0.65451503 -0.01851091 -0.15116711
14.29652 -0.40682957 -2.7800872
20.56897 -0.5925076 -3.2591562
32.321438 -0.94233966 -3.9702599
75.787788 -2.222851 -6.6334233
123.05288 -3.6521242 -6.4517679
0.67967623 -0.021359686 -0.18220863
0.64665538 -0.020547915 -0.1493675
14.302863 -0.45698205 -2.7816138
20.543083 -0.6635378 -3.2554016
32.250492 -1.0529544 -3.9619727
123.13519 -4.0848155 -6.4567924
0.67187488 -0.023462387 -0.18013807
0.64463222 -0.022736352 -0.1489176
14.297256 -0.50676644 -2.7808504
20.536694 -0.73510122 -3.254776
32.314072 -1.1679611 -3.9702599
0.67758018 -0.026030004 -0.18169098
0.65817988 -0.025514811 -0.15206692
14.275784 -0.55590624 -2.7770343
20.549791 -0.80740356 -3.2572787
32.234425 -1.2777634 -3.9609978
0.68520582 -0.028718628 -0.18376154
0.66198075 -0.027976695 -0.15296671
14.261987 -0.60523516 -2.7747445
20.535009 -0.87862414 -3.2554016
32.285297 -1.39267 -3.9678226
0.67738193 -0.030759733 -0.18169098
0.66382581 -0.030376354 -0.15341662
14.267632 -0.65537542 -2.7762711
20.504189 -0.94902062 -3.2510216
32.331795 -1.5077626 -3.9741595
0.67534089 -0.033029679 -0.18117334
0.64036465 -0.03143109 -0.14801779
14.269179 -0.7053687 -2.7770343
20.508821 -1.0174013 -3.2522728
32.263172 -1.6118009 -3.9663601
75.724617 -3.8095431 -6.6334233
0.67329836 -0.035168238 -0.1806557
0.64414316 -0.033870846 -0.1489176
14.262841 -0.75247622 -2.7762711
20.540649 -1.0908699 -3.2579045
32.233566 -1.723139 -3.9634354
75.711563 -4.0606341 -6.6334233
0.66545618 -0.037088268 -0.17858516
0.64596665 -0.03622824 -0.1493675
14.248366 -0.80159664 -2.7739813
20.509108 -1.1610005 -3.2535243
32.251133 -1.8369992 -3.9663601
75.69693 -4.324892 -6.6334233
0.65568018 -0.038839739 -0.17599694
0.66334385 -0.039526071 -0.15341662
14.233723 -0.8506251 -2.7716916
20.500986 -1.2323464 -3.2528987
32.391151 -1.9584308 -3.9843965
75.681374 -4.589098 -6.6334233
0.65361261 -0.041007292 -0.17547932
0.6573745 -0.041358493 -0.15206692
14.238503 -0.90080059 -2.7732179
20.473131 -1.2988226 -3.2491441
32.336933 -2.0627999 -3.9785466
75.664894 -4.8532462 -6.6334233
0.66503894 -0.043938678 -0.17858516
0.64361495 -0.042748861 -0.1489176
14.227602 -0.94749051 -2.7716916
20.484241 -1.371335 -3.2516472
32.274082 -2.1719325 -3.9717221
75.648384 -5.1041341 -6.6334233
66.400536 -4.5150909 -1.161702
0.67066312 -0.046662088 -0.18013807
57.823387 -4.0231228 1.0117509
0.64541364 -0.045018524 -0.1493675
14.216374 -0.99659908 -2.7701652
20.459875 -1.4378709 -3.2485185
32.282543 -2.2800641 -3.9736724
0.66663414 -0.048837576 -0.17910279
0.65106642 -0.04792558 -0.1507172
14.196962 -1.0475423 -2.7671123
20.485722 -1.5187567 -3.2535243
32.237919 -2.4013484 -3.9692845
57.287113 -4.2772756 -5.0259233
57.421642 -4.3074765 -3.0177963
0.65875489 -0.050572772 -0.17703223
0.6547811 -0.050497621 -0.15161701
14.19322 -1.0970926 -2.7671123
20.452724 -1.5881152 -3.2491441
32.276833 -2.51757 -3.9751344
0.67012829 -0.053799529 -0.18013807
57.644917 -4.638 1.0094472
0.65460086 -0.05278293 -0.15161701
14.189303 -1.1466295 -2.7671123
20.415552 -1.656942 -3.2441382
32.172886 -2.6224811 -3.9634354
0.66993642 -0.056138389 -0.18013807
57.629219 -4.8291316 1.0094472
0.65248036 -0.054790303 -0.15116711
14.173478 -1.1951625 -2.7648225
20.445377 -1.7276273 -3.2497699
32.262905 -2.7375474 -3.9756222
0.66974658 -0.058359668 -0.18013807
0.65810913 -0.057577081 -0.15251681
14.169436 -1.242157 -2.7648225
20.431351 -1.7982917 -3.2485185
32.166149 -2.8424606 -3.9648974
75.325279 -6.6828494 -6.6159925
0.65990853 -0.059940252 -0.17754988
0.65402263 -0.059520718 -0.15161701
14.147192 -1.2924746 -2.7613881
20.456095 -1.8760507 -3.2535243
32.144176 -2.953635 -3.9634354
52.641922 -4.8834434 -0.92281348
0.66161853 -0.062424861 -0.17806751
0.6557402 -0.06210117 -0.15206692
14.132822 -1.3409225 -2.7594798
20.433691 -1.9459463 -3.2510216
32.200317 -3.0778508 -3.9717221
52.71125 -5.0848012 -0.92434925
0.65947396 -0.06454578 -0.17754988
0.64582235 -0.063437238 -0.14981739
14.13587 -1.3910161 -2.7610061
20.407118 -2.0153201 -3.2478929
32.114307 -3.1827922 -3.96246
0.67077655 -0.068016723 -0.1806557
0.62814838 -0.063915752 -0.14576827
14.130929 -1.440351 -2.7610061
20.396027 -2.0861397 -3.247267
32.091736 -3.2880561 -3.9609978
0.66094071 -0.069234416 -0.17806751
10.486869 -1.1022143 -2.4344203
14.106549 -1.4851474 -2.7571902
20.38114 -2.1529338 -3.2460158
32.080654 -3.3944583 -3.9609978
10.473469 -1.1359333 -2.4321706
14.081762 -1.5322558 -2.7533739
20.358177 -2.218796 -3.2435126
32.127804 -3.5128922 -3.9683096
75.962448 -8.3326578 -6.6857171
54.111988 -5.9644594 -0.9502486
8.6164541 -0.96344471 -2.3231599
10.465363 -1.1738784 -2.4312711
14.083856 -1.5847358 -2.7549005
20.338131 -2.2920704 -3.2416353
32.098938 -3.6288395 -3.9663601
8.6128654 -0.99501914 -2.3231599
10.457118 -1.2117794 -2.4303713
14.066537 -1.63253 -2.7526107
20.309973 -2.3643141 -3.2385068
32.053871 -3.7427795 -3.96246
75.999817 -8.8875866 -6.6944327
53.737141 -6.3221717 -0.94445443
8.6131754 -1.0255344 -2.3241951
10.437344 -1.2464255 -2.4267719
14.052955 -1.6806887 -2.7510841
20.297674 -2.4347241 -3.2378812
32.056381 -3.8565428 -3.9644103
8.6095438 -1.0555937 -2.3241951
10.432929 -1.282851 -2.4267719
14.047003 -1.7297325 -2.7510841
20.296892 -2.5065296 -3.2391324
32.007954 -3.9584386 -3.9600229
8.5983286 -1.0831723 -2.3221245
10.420885 -1.3164637 -2.4249723
14.00613 -1.7718693 -2.7442153
20.264952 -2.5708396 -3.235378
32.006466 -4.0660601 -3.9614851
8.5851107 -1.1104405 -2.3195364
10.428058 -1.3525176 -2.4276719
13.988179 -1.8192298 -2.7419255
20.236727 -2.6354754 -3.2322493
31.972395 -4.1751885 -3.9590476
41.932072 -5.5055718 -2.216428
8.5828981 -1.142154 -2.3200541
10.413371 -1.3894404 -2.4254222
13.989201 -1.8715281 -2.7434518
20.226931 -2.7096288 -3.2322493
31.976551 -4.2949872 -3.9614851
8.5863104 -1.1746514 -2.3221245
10.388903 -1.4249499 -2.4209232
13.970913 -1.9187455 -2.7411623
20.205124 -2.782129 -3.2303722
26.560743 -3.6667097 -3.2921789
8.5725927 -1.2032734 -2.3195364
10.38605 -1.4596642 -2.4213731
13.94469 -1.9647622 -2.7373459
20.191874 -2.8485649 -3.2297466
44.1422 -6.2587862 -3.900568
8.570467 -1.2319694 -2.3200541
10.378963 -1.4956315 -2.4209232
13.934212 -2.0104332 -2.7365828
20.146618 -2.9139404 -3.2241147
26.079393 -3.781332 -3.2356312
44.050224 -6.3948288 -3.8942928
41.9025 -6.0979762 -2.2191494
8.5527363 -1.2599077 -2.3164306
10.367895 -1.5309975 -2.4195735
13.91934 -2.0579119 -2.7350562
20.116783 -2.9813514 -3.2209859
26.816111 -3.9837735 -3.3287394
39.006264 -5.8016882 -3.4501472
8.5578365 -1.2911956 -2.3190186
10.356708 -1.5663048 -2.4182239
13.90819 -2.1058991 -2.734293
20.082819 -3.0479975 -3.2172318
31.963449 -4.8625522 -3.9697723
8.5570965 -1.32165 -2.3200541
10.339622 -1.6006582 -2.4155245
13.889113 -2.1526306 -2.7320035
20.072058 -3.1180811 -3.2172318
31.557911 -4.9136257 -3.9215121
8.5450335 -1.3488144 -2.3179834
10.338106 -1.6355457 -2.4164243
13.866386 -2.1962199 -2.7289505
20.030388 -3.1796694 -3.2122257
36.363041 -5.8048882 -1.9298362
8.5343113 -1.3791997 -2.3164306
10.336183 -1.672245 -2.4173241
13.838864 -2.2438858 -2.7251341
20.034201 -3.2555981 -3.2147286
27.793161 -4.5214243 -3.4574335
8.521821 -1.4077224 -2.3143599
10.316525 -1.7078898 -2.4141748
13.8232 -2.2908945 -2.7236078
20.003225 -3.3222742 -3.2115998
27.235952 -4.5333052 -3.3901615
35.326164 -5.8862224 -3.1332488
8.5206642 -1.4381033 -2.3153951
10.297355 -1.7398187 -2.4110253
13.81512 -2.3391325 -2.7236078
19.957043 -3.3826468 -3.2059684
26.98201 -4.5830431 -3.3604255
8.5139446 -1.4660231 -2.3148775
10.291219 -1.7757524 -2.4110253
13.803416 -2.384264 -2.7228444
19.949007 -3.4529634 -3.206594
26.680288 -4.6276698 -3.3248398
34.435226 -6.003716 -0.61013615
8.5106783 -1.4960678 -2.3153951
10.277281 -1.8103123 -2.4092257
13.787276 -2.4310689 -2.721318
19.940722 -3.5232646 -3.2072198
26.323854 -4.6605568 -3.2824292
34.077324 -6.0516887 -1.8138597
34.331375 -6.1091676 -0.60867018
8.5035028 -1.5254253 -2.3148775
10.270899 -1.8461756 -2.4092257
13.763247 -2.4763989 -2.7182651
19.920527 -3.5914471 -3.2059684
25.858126 -4.6712503 -3.2263691
34.036339 -6.1670427 -1.8128129
34.057995 -6.1832466 -0.60420233
8.4826527 -1.5537975 -2.3107367
10.254808 -1.8802594 -2.4069762
13.727046 -2.5218611 -2.7129223
19.907228 -3.6644354 -3.2059684
26.290678 -4.8442173 -3.2824292
34.143124 -6.3157272 -1.8197213
34.154179 -6.3239369 -0.6062966
8.4809752 -1.5841073 -2.3117716
10.245934 -1.9174742 -2.4065266
13.710442 -2.568316 -2.711396
19.890434 -3.7331738 -3.2053428
25.277786 -4.7534442 -3.1581225
34.195454 -6.448936 -1.8236989
34.017929 -6.4216046 -0.60427213
8.4791899 -1.6144246 -2.3128071
10.226118 -1.9488868 -2.4033771
13.705249 -2.6168952 -2.7121592
19.905109 -3.8043044 -3.2097228
25.300879 -4.8447089 -3.162997
34.13475 -6.5486064 -3.040864
33.993431 -6.5276461 -1.8140692
33.983524 -6.5380435 -0.60406274
8.4794788 -1.6436366 -2.3143599
10.21734 -1.9841989 -2.4029272
13.669516 -2.6570847 -2.7068167
19.899464 -3.875273 -3.2109742
25.57217 -4.9892564 -3.1990707
34.088043 -6.6692748 -1.8203495
34.455006 -6.7535586 -0.61285871
8.4547377 -1.6694832 -2.3091838
10.210351 -2.0198519 -2.4029272
13.656306 -2.7040215 -2.7060535
19.866438 -3.9408677 -3.2078454
25.648054 -5.0970616 -3.2107699
34.174244 -6.810081 -1.826211
8.4507523 -1.6993665 -2.3097014
10.203238 -2.0554805 -2.4029272
13.62369 -2.7470176 -2.701474
19.864182 -4.0125375 -3.2097228
25.696259 -5.1999459 -3.2190571
34.095459 -6.9182096 -1.8232802
8.4428768 -1.7284671 -2.3091838
10.175002 -2.0867774 -2.3979783
13.614018 -2.7945566 -2.701474
19.846182 -4.0810561 -3.2090971
26.269007 -5.4113669 -3.2931538
34.12978 -7.0493031 -1.8264204
8.4367914 -1.7579278 -2.3091838
10.161932 -2.1210876 -2.3966284
13.600336 -2.8412583 -2.7007105
19.827948 -4.149498 -3.2084711
26.152815 -5.4826655 -3.2809668
8.4438334 -1.7901716 -2.3128071
10.143029 -2.1541173 -2.393929
13.578814 -2.886266 -2.6984208
19.824936 -4.2211533 -3.2103486
25.271524 -5.3900714 -3.1727467
8.4224243 -1.8163772 -2.308666
10.154496 -2.193625 -2.3984282
13.537952 -2.9270089 -2.6923151
19.806221 -4.2894936 -3.2097228
25.462074 -5.523705 -3.1990707
35.192474 -7.6410356 -3.1506801
8.4028234 -1.8428688 -2.3050425
21.973467 -4.8231401 0.39267915
10.133454 -2.2261302 -2.3952789
13.535323 -2.9759336 -2.6938417
19.791126 -4.3586044 -3.2097228
22.147209 -4.885591 -2.7847147
22.18302 -4.8975511 -1.9874995
22.272573 -4.925477 -1.1954581
22.303879 -4.940567 -0.3987526
8.394455 -1.8717686 -2.3045249
21.952593 -4.8989401 0.39260933
10.116113 -2.2593651 -2.3930292
13.513356 -3.0205929 -2.6915519
19.756516 -4.4233456 -3.206594
22.164886 -4.9706883 -2.7891021
22.280485 -5.0006971 -1.9977839
8.3897533 -1.901486 -2.3050425
21.866018 -4.9557986 0.39135277
10.099062 -2.2907436 -2.3907797
13.514217 -3.0703547 -2.6938417
19.718622 -4.4835806 -3.2028396
25.941923 -5.9081464 -3.26683
8.3871679 -1.9301637 -2.306078
21.992788 -5.0653071 0.39393571
10.08151 -2.3237934 -2.3885303
13.47718 -3.1089745 -2.688499
19.695152 -4.5506048 -3.2015882
26.064257 -6.0317836 -3.2848666
8.3784971 -1.9589887 -2.3055601
10.075645 -2.3576562 -2.3889804
13.454777 -3.1533117 -2.6862092
19.668415 -4.6131849 -3.1997108
26.075031 -6.1254463 -3.2887664
8.3644371 -1.9849778 -2.3034897
10.05598 -2.3901088 -2.3862808
13.430876 -3.1947322 -2.683538
19.613762 -4.672657 -3.1934536
26.107555 -6.2293282 -3.2955911
24.675335 -5.9012542 -1.3296474
8.3499441 -2.0123525 -2.301419
10.040421 -2.4216146 -2.3844812
13.39865 -3.2365241 -2.6793401
19.571278 -4.7311749 -3.1890736
25.893818 -6.2691574 -3.2712171
25.129215 -6.09797 -1.3551874
8.3481426 -2.0443218 -2.3029721
10.012122 -2.4555075 -2.3799822
13.394323 -3.2874825 -2.6808665
19.52611 -4.799686 -3.1846933
25.480192 -6.2726836 -3.221982
8.3484545 -2.0753138 -2.3050425
25.036964 -6.2284932 0.45034188
10.005381 -2.4909122 -2.3804321
13.359907 -3.3285224 -2.6762872
19.444071 -4.8515563 -3.1740556
25.273258 -6.3153882 -3.1985831
24.139612 -6.0365849 -2.176976
24.986969 -6.2577505 -1.3499538
8.3317938 -2.1020799 -2.3024545
9.9909563 -2.52439 -2.3790822
13.325367 -3.3693616 -2.6717076
19.36574 -4.9038825 -3.1640439
25.127913 -6.3723402 -3.1829839
24.095221 -6.1149297 -2.1748843
24.995945 -6.3528051 -1.3516285
25.209436 -6.4117489 -0.45404181
8.3131762 -2.1282759 -2.2993486
9.9825296 -2.5575073 -2.3790822
13.300213 -3.4124398 -2.6690364
19.322586 -4.9611969 -3.1596639
24.979753 -6.4230056 -3.1668971
24.154768 -6.2198687 -2.1822054
25.079184 -6.4625731 -1.3572809
8.3098125 -2.1568019 -2.3003838
9.9659986 -2.5903766 -2.3772829
13.279323 -3.4540551 -2.6671283
19.259274 -5.0166645 -3.1521549
24.872663 -6.4881153 -3.1561725
24.199553 -6.3170438 -2.188132
25.16468 -6.5783639 -1.3631425
24.97061 -6.5369439 -0.45055133
8.3059692 -2.1867793 -2.301419
9.9418201 -2.6211736 -2.3736835
13.26339 -3.4993863 -2.6663651
19.214907 -5.076797 -3.1477747
24.765425 -6.5525565 -3.145448
24.154243 -6.3953586 -2.1860402
24.994843 -6.6272616 -1.3551874
24.762096 -6.5748029 -0.44720045
8.3001518 -2.2162576 -2.3019366
9.9344931 -2.6563649 -2.3741336
13.228334 -3.539573 -2.6617856
19.177986 -5.1387262 -3.1446459
24.704058 -6.6286755 -3.1405733
23.781561 -6.3855977 -2.1543155
25.064137 -6.7393627 -1.3602116
24.85099 -6.6913543 -0.44922495
8.2830429 -2.2426927 -2.2993486
9.9157553 -2.688477 -2.3718839
13.200741 -3.581614 -2.6587327
19.144682 -5.2014947 -3.142143
24.577333 -6.6867266 -3.1274114
23.711067 -6.4554877 -2.1499579
25.140659 -6.8541307 -1.3656546
8.2677116 -2.2695467 -2.2972779
9.9044313 -2.7225561 -2.371434
13.184371 -3.6266301 -2.6579695
19.092129 -5.2588482 -3.1365113
24.496433 -6.7566428 -3.1200993
24.001442 -6.6246214 -2.1783707
25.312939 -6.9961166 -1.3763311
8.2541561 -2.2968388 -2.2957251
9.883605 -2.7539744 -2.3687346
13.15272 -3.667357 -2.6541533
19.03941 -5.3158989 -3.1308799
24.438288 -6.8324895 -3.1157119
24.008871 -6.7169499 -2.1811595
25.249901 -7.0736566 -1.3742377
24.841167 -6.9685049 -0.45034188
8.2516651 -2.3272104 -2.2972779
9.855176 -2.7831614 -2.3642356
13.137951 -3.7127125 -2.6537716
18.990324 -5.3737197 -3.1258738
24.414289 -6.9177532 -3.1157119
24.291969 -6.8876743 -2.2090495
25.14436 -7.1388412 -1.3698415
8.2490644 -2.3575926 -2.2988307
9.8547697 -2.8202264 -2.3664851
13.115474 -3.7558475 -2.6518636
18.956261 -5.4356208 -3.1233709
24.374727 -6.9985499 -3.1137619
24.26778 -6.9724264 -2.2090495
25.107771 -7.2232547 -1.3692133
8.2315063 -2.3836861 -2.2962427
9.8280201 -2.8497243 -2.3624361
13.066459 -3.7912118 -2.6446128
18.918203 -5.4962454 -3.1202421
24.369211 -7.0891347 -3.1161995
8.2120132 -2.4091423 -2.2931368
9.8180132 -2.8840132 -2.3624361
13.051262 -3.8362451 -2.6442313
18.87237 -5.5544405 -3.1158621
24.367165 -7.1808906 -3.1191244
23.717821 -6.994031 -2.1633797
8.2109613 -2.4399934 -2.2952073
9.7966795 -2.9149325 -2.3597367
13.022739 -3.8772979 -2.6411784
18.822578 -5.6112547 -3.1108563
24.288691 -7.2500052 -3.1122997
8.1931448 -2.4658568 -2.2926192
9.7715178 -2.9446137 -2.3561375
13.009126 -3.9227319 -2.6411784
18.795313 -5.6746387 -3.1096046
23.993412 -7.2531776 -3.0776887
24.667713 -7.4617167 -2.254719
8.1863356 -2.4950042 -2.2931368
9.7574511 -2.9775662 -2.3552375
12.96531 -3.9589443 -2.6350722
18.745165 -5.7309713 -3.1045988
23.907206 -7.3182926 -3.0698888
8.1701927 -2.521286 -2.2910662
9.7469978 -3.0116084 -2.3552375
12.932654 -3.998379 -2.6312563
18.717497 -5.7940331 -3.1033473
24.457932 -7.5803509 -3.1439855
8.1613417 -2.5497901 -2.2910662
9.7271271 -3.0427043 -2.352988
12.899883 -4.0376334 -2.62744
18.67454 -5.8522453 -3.0995929
23.935083 -7.5099769 -3.080126
8.1487074 -2.5770974 -2.290031
9.7071581 -3.0736985 -2.3507385
12.866996 -4.0767083 -2.6236238
18.627636 -5.9090343 -3.0952127
24.075214 -7.646358 -3.1015749
8.1415024 -2.6061156 -2.2905486
9.6908016 -3.1057799 -2.3493888
12.860165 -4.1239953 -2.6251502
18.584326 -5.966774 -3.0914583
23.904747 -7.6841798 -3.0830507
8.1286802 -2.6333277 -2.2895133
9.6761951 -3.138386 -2.348489
12.819547 -4.1603765 -2.6198077
18.54084 -6.0242844 -3.0877039
24.145836 -7.8547773 -3.1176617
8.1139307 -2.6598806 -2.2879603
9.6577749 -3.1697125 -2.3466892
12.786294 -4.1989746 -2.6159916
18.50844 -6.0852652 -3.0858266
23.744928 -7.8161206 -3.0694015
8.0990963 -2.686363 -2.2864075
9.6503506 -3.204633 -2.3475893
12.762243 -4.2404857 -2.6140833
18.468342 -6.1435995 -3.0826981
23.728802 -7.9027228 -3.070864
8.0961113 -2.7136354 -2.2879603
9.6365395 -3.2336948 -2.3466892
12.735085 -4.2784076 -2.611412
18.433969 -6.1965537 -3.080195
23.677517 -7.9683657 -3.0674517
8.0751343 -2.739567 -2.2848547
9.6098614 -3.2639794 -2.3430901
12.713741 -4.3231587 -2.6102672
18.403656 -6.2615314 -3.0789435
23.294888 -7.9347634 -3.0216286
8.0686941 -2.7704005 -2.2858899
9.610733 -3.3036132 -2.3462396
12.676295 -4.3598495 -2.6056879
18.354431 -6.3199377 -3.0745635
23.47584 -8.0925474 -3.0489275
8.0534992 -2.7966473 -2.284337
9.5942039 -3.3335471 -2.3448899
12.625768 -4.3918166 -2.5984371
18.337107 -6.3820672 -3.0751891
23.587591 -8.2186852 -3.0669641
8.0350666 -2.8201394 -2.2817488
9.5733156 -3.363786 -2.3426404
12.601874 -4.4304047 -2.596529
18.303537 -6.442102 -3.073312
23.491358 -8.2772217 -3.0581896
8.0251732 -2.8481698 -2.2817488
9.550499 -3.3932681 -2.3399408
12.578933 -4.4717364 -2.5950024
18.258606 -6.4980068 -3.0695577
23.237928 -8.2792244 -3.0289409
19.346752 -6.9042907 -1.0765507
8.0224562 -2.8787754 -2.2838194
9.5239239 -3.4213145 -2.3363416
12.548466 -4.5103049 -2.5919495
18.206074 -6.5509996 -3.0645514
23.085625 -8.3158875 -3.0128543
19.292471 -6.9609361 -1.074876
8.0105429 -2.9061022 -2.2833018
9.4917736 -3.4472206 -2.3313928
12.517884 -4.5487161 -2.5888965
18.194233 -6.6185632 -3.0664289
24.854565 -9.0512352 -3.2478182
19.290573 -7.036449 -1.0761321
7.991281 -2.930721 -2.2807136
9.4833422 -3.4816756 -2.3322923
12.483501 -4.5856147 -2.5850804
18.156185 -6.6765776 -3.0639257
24.755754 -9.1132498 -3.2390437
19.25465 -7.0995975 -1.0755041
7.9737573 -2.9559124 -2.2786431
9.4693031 -3.5140789 -2.3318427
12.443492 -4.6202779 -2.5801194
18.125364 -6.7371616 -3.0626743
24.705187 -9.1926851 -3.2366061
19.274668 -7.1835055 -1.0780162
7.965199 -2.9844055 -2.2791607
9.4569788 -3.5471117 -2.3318427
12.421775 -4.6616168 -2.5789745
18.079546 -6.7920532 -3.0589199
24.665518 -9.2760715 -3.2356312
19.249821 -7.2432013 -1.7994175
19.273771 -7.2598948 -1.0793768
7.9619589 -3.0149271 -2.2812312
9.4336071 -3.5759571 -2.329143
12.407263 -4.7056446 -2.5793562
18.05942 -6.8565235 -3.0595455
24.607008 -9.3522406 -3.232219
19.306358 -7.3415103 -1.8070872
19.330442 -7.3583932 -1.0839825
7.9477782 -3.0413208 -2.280196
9.4228878 -3.6095617 -2.3295932
12.370596 -4.7411962 -2.5751584
18.020622 -6.9138603 -3.0570428
24.477852 -9.4010687 -3.2195446
7.9299064 -3.0662582 -2.2781253
9.4102306 -3.642432 -2.3295932
12.32834 -4.7744236 -2.5698156
18.003748 -6.9795785 -3.0582943
24.42638 -9.4792728 -3.2171071
19.295355 -7.4996767 -1.0849245
7.9047594 -3.0882962 -2.2739842
9.3992729 -3.6759672 -2.3300431
12.28966 -4.8088427 -2.5652361
17.971916 -7.0394983 -3.0570428
24.345093 -9.545639 -3.2107699
19.313675 -7.5845051 -1.0874367
7.8975248 -3.1172884 -2.2750194
9.3736982 -3.7037416 -2.3268938
12.270973 -4.8509912 -2.5648546
17.936214 -7.0978284 -3.0551655
24.307932 -9.6290979 -3.2102826
19.316786 -7.6636605 -1.0891113
7.8865952 -3.1448371 -2.2750194
9.3498526 -3.732105 -2.3241944
12.244849 -4.8901548 -2.5629466
17.907661 -7.1589279 -3.0545397
24.244684 -9.7020903 -3.2063828
52.021328 -20.828112 -4.9025106
51.358829 -20.58367 -2.8997262
52.589073 -21.098034 -0.98906273
7.8755698 -3.1723471 -2.2750194
9.3295393 -3.7618039 -2.3223946
12.202214 -4.9225845 -2.5576038
17.886225 -7.2228727 -3.0551655
24.173862 -9.7717819 -3.2015078
7.862659 -3.1990907 -2.2745018
9.3253746 -3.7980225 -2.3246443
12.166777 -4.9577398 -2.5537877
17.860903 -7.2852631 -3.0551655
24.11755 -9.8471012 -3.1985831
7.8425107 -3.222846 -2.2719138
9.3012476 -3.8261027 -2.3219447
12.12761 -4.9912128 -2.5492084
17.813446 -7.3385358 -3.0514109
24.083033 -9.9312267 -3.1985831
7.8312135 -3.2502015 -2.2719138
9.2914343 -3.8600421 -2.3228445
12.117366 -5.03653 -2.5507348
17.802313 -7.406743 -3.0539141
23.916275 -9.9602823 -3.1810338
7.8162556 -3.2760241 -2.2708783
9.2581367 -3.8841593 -2.3178957
12.085229 -5.0727177 -2.5476818
17.790918 -7.4749594 -3.0564167
23.738634 -9.9836779 -3.1620221
7.8047724 -3.3032875 -2.2708783
9.2427273 -3.9156916 -2.3174458
12.054794 -5.1095095 -2.5450106
17.731987 -7.523129 -3.0507853
23.553814 -10.002853 -3.1420357
7.7914186 -3.3297524 -2.2703607
9.229002 -3.9479311 -2.3174458
12.015228 -5.1422882 -2.5404313
17.683828 -7.5756445 -3.0470309
23.365499 -10.019293 -3.1215615
7.7655582 -3.3508065 -2.2662196
9.2187443 -3.9816678 -2.3183455
11.986391 -5.1795254 -2.5381415
17.584753 -7.6059589 -3.0345161
23.312166 -10.092907 -3.1191244
7.7555847 -3.378664 -2.2667372
9.1947708 -4.0075445 -2.3156462
11.957441 -5.2166238 -2.5358517
17.54495 -7.6579084 -3.0320129
23.085751 -10.085917 -3.0932879
7.7408013 -3.4028096 -2.265702
9.1664562 -4.0333376 -2.312047
11.938281 -5.2554564 -2.5354702
17.478346 -7.701581 -3.02513
22.861511 -10.083127 -3.0679393
7.7359385 -3.4329431 -2.2677724
9.1541033 -4.0661006 -2.3124969
11.889363 -5.2835426 -2.5289826
17.426086 -7.7513061 -3.02075
22.760887 -10.133801 -3.0591645
56.534565 -25.182634 -5.4146376
7.7309608 -3.4630849 -2.2698431
9.1362963 -4.0964351 -2.3115969
11.851143 -5.3161731 -2.5247848
17.355675 -7.7926683 -3.0132411
22.671059 -10.188777 -3.0518525
7.6959419 -3.4797032 -2.2631137
9.1237173 -4.1291056 -2.312047
11.827148 -5.3550801 -2.5236399
17.259995 -7.8222175 -3.0013521
22.74382 -10.317055 -3.0664766
7.6837482 -3.5065458 -2.2631137
9.0968418 -4.1552606 -2.3088977
11.790527 -5.3881712 -2.5198238
17.207438 -7.8709149 -2.9969718
22.740158 -10.411258 -3.070864
21.154383 -9.6896973 3.6852834
7.6749706 -3.5349619 -2.264149
9.073432 -4.1829095 -2.3066483
11.752037 -5.4202509 -2.515626
17.176271 -7.929276 -2.9963462
22.646011 -10.463926 -3.0630643
21.084568 -9.7469044 3.6790264
20.318945 -9.4145031 6.0004611
7.6625843 -3.5617311 -2.264149
9.0552425 -4.2129121 -2.3057485
