# .PCD v0.7 - Point Cloud Data file format
VERSION 0.7
FIELDS x y z
SIZE 4 4 4
TYPE F F F
COUNT 1 1 1
WIDTH 1480
HEIGHT 1
VIEWPOINT 0 0 0 1 0 0 0
POINTS 1480
DATA ascii
-9.6033783 -3.1184742 -1.9626614
-11.405617 -3.6993089 -1.8991146
-14.478897 -4.6905117 -1.8687446
-21.413675 -6.9329443 -1.9691969
-54.187698 -17.512604 -0.99401927
-7.2334409 -2.3251913 -2.0358706
-8.2525921 -2.6512065 -2.0011647
-9.610466 -3.0837359 -1.9618982
-11.429108 -3.6650851 -1.9009918
-14.498152 -4.6436858 -1.8692321
-21.559195 -6.8970065 -1.9803529
-54.198971 -17.307529 -0.99311173
-7.2319069 -2.2982657 -2.0332825
-8.2673674 -2.6241515 -2.0025144
-9.6131535 -3.0494742 -1.9603716
-11.441832 -3.6251674 -1.9009918
-14.529414 -4.5978403 -1.8711821
-21.597143 -6.8302803 -1.9817473
-54.159893 -17.086946 -0.99129671
-7.2343559 -2.2712717 -2.0317297
-8.2708998 -2.5935278 -2.0011647
-9.6274872 -3.0170736 -1.961135
-11.443105 -3.5816653 -1.8991146
-14.556744 -4.5506487 -1.8726445
-21.698828 -6.779211 -1.9888941
-7.2385497 -2.2448604 -2.0306942
-8.2743177 -2.5629132 -1.9998149
-9.645462 -2.9857686 -1.9626614
-11.451762 -3.540535 -1.8984889
-14.58961 -4.5050797 -1.8748381
-21.70332 -6.697556 -1.9871509
-7.2592726 -2.2235382 -2.0343177
-8.2813501 -2.5334444 -1.999365
-9.6558256 -2.9520812 -1.9626614
-11.473498 -3.5034235 -1.9000533
-14.601449 -4.4529696 -1.8743507
-21.726568 -6.6217508 -1.9871509
-7.2595925 -2.1959491 -2.0322473
-8.2976055 -2.5067739 -2.0011647
-9.6641922 -2.9177928 -1.9622798
-11.506462 -3.4696221 -1.9034947
-14.613102 -4.4008284 -1.8738631
-21.886913 -6.5872116 -1.9997013
-7.2690654 -2.1711478 -2.0327649
-8.3040037 -2.4786882 -2.0007145
-9.6649103 -2.8812361 -1.9603716
-11.521691 -3.432574 -1.9041206
-14.640934 -4.3563075 -1.8755693
-21.982347 -6.5323429 -2.006325
-7.2743721 -2.1464837 -2.0322473
-8.3126049 -2.4496865 -2.0007145
-9.6838293 -2.8519433 -1.9622798
-11.522231 -3.3889928 -1.9022434
-14.667479 -4.3085308 -1.8770318
-21.925508 -6.4364014 -1.9991784
-7.278111 -2.1199977 -2.0312121
-8.3154936 -2.4190221 -1.999365
-9.6918402 -2.8175743 -1.9618982
-11.530197 -3.3476501 -1.9016175
-14.693869 -4.2606225 -1.8784941
-21.93062 -6.3548365 -1.9976096
-62.926113 -18.210295 -3.4331343
-7.2891793 -2.0956485 -2.0322473
-8.327632 -2.3910563 -2.0002646
-9.70539 -2.7848115 -1.9626614
-11.530419 -3.304117 -1.8997405
-14.716286 -4.2114897 -1.8794692
-21.987148 -6.288106 -2.0007472
-62.920162 -17.970783 -3.4293661
-7.3057432 -2.0728264 -2.0348353
-8.3378019 -2.3625057 -2.0007145
-9.7074966 -2.7487743 -1.961135
-11.549484 -3.2660003 -1.9009918
-14.723255 -4.1579361 -1.8784941
-22.030054 -6.2172751 -2.0026646
-62.790276 -17.696861 -3.4188991
-7.3073535 -2.0457492 -2.0332825
-8.3366146 -2.3307633 -1.9984653
-9.7075777 -2.7122302 -1.9592268
-11.562718 -3.2261932 -1.9013047
-14.749152 -4.1097174 -1.8799566
-22.122643 -6.1601076 -2.0091143
-62.851662 -17.477587 -3.4188991
-7.3051386 -2.0176592 -2.0306942
-8.3691216 -2.3083827 -2.0043139
-9.724556 -2.6804166 -1.9607532
-11.568196 -3.1842389 -1.9003662
-14.767236 -4.0592594 -1.880444
-22.182434 -6.0934019 -2.0126004
-7.3121371 -1.992147 -2.0306942
-8.363966 -2.2755756 -2.0011647
-9.7414322 -2.6485155 -1.9622798
-11.567801 -3.1407361 -1.8984889
-14.781317 -4.0076838 -1.880444
-22.282413 -6.0373006 -2.0197473
-7.3358378 -1.9711223 -2.0353529
-8.3680935 -2.2453556 -2.0002646
-9.7430325 -2.6124613 -1.9607532
-11.578694 -3.1003375 -1.8984889
-14.806721 -3.9591429 -1.8819065
-22.34185 -5.9697695 -2.0232334
-7.340806 -1.9450084 -2.0348353
-8.3702288 -2.2146363 -1.9989151
-9.7539902 -2.5789373 -1.961135
-11.593266 -3.0609095 -1.8991146
-14.831967 -3.9104693 -1.883369
-22.33943 -5.8856535 -2.0211415
-62.703255 -16.496698 -3.3979647
-7.3363361 -1.9164426 -2.0317297
-8.3850679 -2.1888356 -2.0007145
-9.7515345 -2.5419021 -1.9588453
-11.610999 -3.0244393 -1.9003662
-14.856381 -3.8642612 -1.8848314
-22.344416 -5.8036256 -2.0197473
-7.3426509 -1.8921037 -2.0317297
-8.3964329 -2.1605263 -2.0016146
-9.7637129 -2.5105283 -1.9596084
-11.621485 -2.9838934 -1.9003662
-14.86978 -3.8123789 -1.8848314
-23.553505 -6.0299892 -2.1271231
-62.620602 -16.020006 -3.3874977
-7.3457909 -1.86423 -2.0306942
-8.403923 -2.1312039 -2.0016146
-9.7804613 -2.476656 -1.961135
-11.624683 -2.9393384 -1.8991146
-14.906092 -3.766289 -1.8877563
-23.682592 -5.975029 -2.1368845
-62.551071 -15.758179 -3.380589
-7.3560023 -1.8395143 -2.0317297
-8.3889894 -2.0947223 -1.9962157
-9.7890472 -2.4425001 -1.961135
-11.638706 -2.8997006 -1.8997405
-14.919796 -3.7116263 -1.8877563
-23.769045 -5.9086661 -2.1428111
-62.539787 -15.523376 -3.3770301
-7.3773847 -1.8175206 -2.0358706
-8.3958902 -2.0668914 -1.9962157
-9.7917938 -2.4069068 -1.95999
-11.652095 -2.862031 -1.9003662
-14.918528 -3.6588197 -1.8860501
-23.894026 -5.8512564 -2.1522238
-62.517208 -15.297862 -3.3730528
-7.3664756 -1.7889448 -2.0312121
-8.4200974 -2.0417044 -2.0002646
-9.7978125 -2.3739624 -1.9596084
-11.662014 -2.8213398 -1.9003662
-14.940856 -3.6090522 -1.8872689
-23.986893 -5.7897515 -2.1588476
-62.496433 -15.061758 -3.3690751
-7.3632808 -1.7609732 -2.0286238
-8.4290686 -2.0127525 -2.0007145
-9.8098593 -2.3406556 -1.9603716
-11.664104 -2.7787831 -1.8991146
-14.972674 -3.5614736 -1.8897061
-24.024405 -5.7101326 -2.1604166
-62.571949 -14.84906 -3.3703313
-62.920044 -14.908456 -1.128682
-7.3787856 -1.7374736 -2.0312121
-8.4246607 -1.9806434 -1.9980152
-9.8160591 -2.3059518 -1.95999
-11.666042 -2.7362437 -1.8978633
-15.00241 -3.5132608 -1.8918999
-24.079113 -5.6344023 -2.1635542
-7.3810415 -1.7108337 -2.0301766
-8.4372206 -1.9525398 -1.999365
-9.8355255 -2.2743268 -1.9622798
-11.687071 -2.6981738 -1.8997405
-15.028123 -3.4639919 -1.8936061
-24.077274 -5.5454021 -2.1616368
-7.3963857 -1.6872084 -2.0327649
-8.4401846 -1.9222108 -1.9984653
-9.8319187 -2.2373667 -1.95999
-11.71568 -2.6617377 -1.9028691
-15.032379 -3.4097557 -1.8926311
-24.113974 -5.4652858 -2.1632056
-7.39469 -1.6596873 -2.0306942
-8.4563494 -1.8948673 -2.0007145
-9.8320055 -2.2013197 -1.9584637
-11.711405 -2.6178091 -1.900679
-15.055816 -3.3598561 -1.8940935
-24.095955 -5.3728395 -2.1598935
-7.3966656 -1.6330301 -2.029659
-8.4667196 -1.8661785 -2.0016146
-9.8415461 -2.1674056 -1.9588453
-11.710824 -2.5747943 -1.8991146
-15.071328 -3.3081317 -1.894581
-24.137915 -5.2938228 -2.1619854
-7.409873 -1.6088403 -2.0317297
-8.4598503 -1.8337229 -1.9984653
-9.8605652 -2.1355321 -1.961135
-11.717811 -2.5334797 -1.8988018
-15.102188 -3.2596941 -1.8970184
-24.105612 -5.198607 -2.1574533
-7.4211111 -1.5841767 -2.0332825
-8.462388 -1.8033667 -1.9975653
-9.8660383 -2.1006925 -1.9607532
-11.732381 -2.4937935 -1.8997405
-15.1193 -3.2081935 -1.8977495
-24.254198 -5.1421161 -2.169132
-7.424705 -1.5578655 -2.0327649
-8.4705381 -1.7742177 -1.9980152
-9.8656254 -2.0646319 -1.9592268
-11.748747 -2.4544427 -1.9009918
-15.120691 -3.1533675 -1.8965309
-24.215435 -5.0456409 -2.164077
-7.4282055 -1.5315486 -2.0322473
-8.4824066 -1.7458177 -1.999365
-9.8631563 -2.0282042 -1.9573188
-11.764983 -2.4150057 -1.9022434
-15.160235 -3.10919 -1.900187
-24.431993 -5.0018411 -2.1818569
-7.4294572 -1.5061396 -2.0312121
-8.499609 -1.719998 -2.0020645
-9.8794508 -1.9974307 -1.9592268
-11.765182 -2.3744144 -1.9009918
-15.174353 -3.0596874 -1.9006745
-24.469933 -4.925118 -2.1837742
-7.4363055 -1.4818716 -2.0317297
-8.4804201 -1.6868602 -1.9962157
-9.8898706 -1.9654232 -1.95999
-11.772991 -2.3353863 -1.9009918
-15.19273 -3.0082424 -1.9016495
-24.703934 -4.8825517 -2.2031229
-7.4454789 -1.4553473 -2.0327649
-8.4805174 -1.6561269 -1.9948659
-9.9008617 -1.9299129 -1.9607532
-11.789227 -2.2937319 -1.9022434
-15.212881 -2.9570847 -1.902868
-24.49785 -4.7530327 -2.1832514
-7.4562049 -1.4304405 -2.0343177
-8.4941874 -1.6264991 -1.9966656
-9.9075384 -1.8953403 -1.9607532
-11.797163 -2.252563 -1.9022434
-15.223617 -2.9013102 -1.902868
-24.494722 -4.6637578 -2.1815081
-7.4535584 -1.4029769 -2.0322473
-8.505558 -1.597918 -1.9980152
-9.9025164 -1.8585744 -1.9584637
-11.826311 -2.2153699 -1.9056848
-15.237556 -2.8488779 -1.9033556
-24.779169 -4.6283431 -2.2053888
-7.4527111 -1.3758982 -2.0306942
-8.5168343 -1.5692797 -1.999365
-9.9128056 -1.8247073 -1.9592268
-11.81843 -2.171222 -1.9031819
-15.266932 -2.7992511 -1.905793
-24.906879 -4.5622864 -2.2153246
-7.4669738 -1.3515953 -2.0332825
-8.5145893 -1.5381547 -1.9975653
-9.9229784 -1.790791 -1.95999
-11.816216 -2.1282036 -1.9016175
-15.294194 -2.7491066 -1.9079866
-24.852057 -4.4626398 -2.2090495
-7.47545 -1.3261971 -2.0343177
-8.5179863 -1.5080838 -1.9971154
-9.9407682 -1.7581939 -1.9622798
-11.821628 -2.0866008 -1.9013047
-15.291966 -2.6936364 -1.9065242
-24.891029 -4.3800054 -2.2111411
-7.4819374 -1.3004254 -2.0348353
-8.5155191 -1.4770091 -1.9953159
-9.942977 -1.7228129 -1.9615166
-11.836625 -2.0466659 -1.9025562
-15.303232 -2.6405783 -1.906768
-25.16927 -4.3384371 -2.2344987
-7.4807177 -1.2733281 -2.0332825
-8.5321503 -1.4492329 -1.9980152
-9.9392509 -1.6864524 -1.9596084
-11.851488 -2.0066576 -1.9038078
-15.318229 -2.5881319 -1.9074991
-24.877781 -4.198832 -2.2073064
-7.483211 -1.2468917 -2.0327649
-8.5371571 -1.4194412 -1.9980152
-9.9470148 -1.6520714 -1.95999
-11.852574 -1.9643065 -1.9028691
-15.348713 -2.5382113 -1.9101802
-24.888355 -4.1113162 -2.2069576
-7.4875183 -1.2207626 -2.0327649
-8.5382118 -1.3890083 -1.9971154
-9.9546576 -1.6176544 -1.9603716
-11.851558 -1.9216591 -1.9016175
-15.345288 -2.4853945 -1.9087178
-25.154314 -4.0651002 -2.2292695
-7.4934325 -1.1962306 -2.0332825
-8.5408478 -1.3603802 -1.9966656
-9.9735394 -1.5867934 -1.963043
-11.871523 -1.8845122 -1.9038078
-15.380894 -2.4388492 -1.9121301
-25.061388 -3.9648502 -2.2198567
-7.5030847 -1.1722693 -2.0348353
-8.5414619 -1.3314496 -1.9957658
-9.9690485 -1.5522009 -1.961135
-11.867947 -1.8436177 -1.9022434
-15.387353 -2.3848369 -1.9118865
-25.303478 -3.9126685 -2.2400768
-7.4977818 -1.1433051 -2.0322473
-8.5499096 -1.3022127 -1.9966656
-9.9688473 -1.5147648 -1.95999
-11.892201 -1.8027744 -1.9050591
-15.397545 -2.3314073 -1.9121301
-25.488377 -3.8502023 -2.2552419
-7.5017271 -1.1171257 -2.0322473
-8.5661917 -1.272583 -1.999365
-9.9779577 -1.4805361 -1.9607532
-11.888652 -1.7598025 -1.9034947
-15.407949 -2.2752502 -1.9123739
-25.554878 -3.7690561 -2.2599483
-7.507493 -1.0912107 -2.0327649
-26.715166 -3.8830373 0.47121498
-8.5530062 -1.2416536 -1.9953159
-9.9927797 -1.447104 -1.9626614
-11.888556 -1.7195255 -1.9025562
-15.425234 -2.2255599 -1.9135926
-25.465334 -3.6650767 -2.2508843
-7.516808 -1.0671233 -2.0343177
-26.550367 -3.7645011 0.46807355
-8.5650063 -1.2128811 -1.9971154
-26.576679 -3.7587626 1.4066861
-9.9955797 -1.4136835 -1.9622798
-11.896443 -1.6782889 -1.9028691
-15.432909 -2.1717019 -1.9135926
-25.777241 -3.622757 -2.2773795
-7.528142 -1.0419393 -2.0363884
-26.565325 -3.6720729 0.46810845
-8.5672579 -1.1827095 -1.9966656
-26.552046 -3.6607866 1.4046973
-9.9965649 -1.3782474 -1.9615166
-11.910057 -1.6378286 -1.9041206
-15.446297 -2.1186266 -1.9143238
-25.61997 -3.5095007 -2.2623887
-7.5317326 -1.0156547 -2.0363884
-26.572039 -3.5785127 0.46800375
-8.5694036 -1.152537 -1.9962157
-26.59831 -3.5726051 1.4064766
-9.9935312 -1.342301 -1.95999
-11.915701 -1.5962445 -1.9041206
-15.453598 -2.0646954 -1.9143238
-25.624165 -3.4189937 -2.2616913
-26.907549 -3.5806754 -1.4225961
-27.058577 -3.591162 -0.47645071
-7.5199089 -0.98734558 -2.0322473
-26.588333 -3.4862561 0.46807355
-8.5753059 -1.1228719 -1.9966656
-26.582895 -3.4761057 1.4050112
-10.005942 -1.3084247 -1.9615166
-49.917885 -6.5186386 4.4043283
-11.917282 -1.5541328 -1.9034947
-15.456774 -2.0102274 -1.9138362
-25.505539 -3.3125968 -2.2501869
-27.098148 -3.5098171 -1.4320166
-26.955923 -3.4818296 -0.47442624
-7.5271425 -0.96157771 -2.0332825
-26.588438 -3.3919117 0.4678641
-8.5811052 -1.0931778 -1.9971154
-26.598829 -3.3837962 1.4052205
-10.010449 -1.2734891 -1.9615166
-11.914796 -1.5115294 -1.9022434
-15.503084 -1.961247 -1.9187111
-25.845078 -3.2649918 -2.2791226
-49.878788 -6.2834792 -2.634697
-49.959686 -6.2759442 -0.87890315
-7.534287 -0.9357751 -2.0343177
-26.600117 -3.2990792 0.4678641
-8.5771341 -1.0622571 -1.9953159
-26.616425 -3.2916694 1.4055345
-10.01873 -1.2390224 -1.9622798
-50.084766 -6.1851387 4.4151354
-11.927842 -1.4708937 -1.9034947
-15.503925 -1.9063921 -1.91798
-25.978926 -3.1898093 -2.2899301
-49.864731 -6.1049619 -2.632813
-49.949528 -6.0976477 -0.87834471
-7.5432611 -0.91016382 -2.0358706
-26.647205 -3.2105124 0.46849242
-8.5807896 -1.0323126 -1.9953159
-26.669397 -3.2037423 1.4077326
-10.021045 -1.2038084 -1.9618982
-11.934865 -1.4294863 -1.9038078
-15.520342 -1.8534344 -1.9191986
-25.792065 -3.0755212 -2.2724988
-7.5463924 -0.88382715 -2.0358706
-8.5978909 -1.0039357 -1.9984653
-10.015435 -1.1676841 -1.95999
-11.949593 -1.388957 -1.905372
-15.522771 -1.7987933 -1.9187111
-25.648264 -2.9676085 -2.2589025
-7.539834 -0.85639149 -2.0332825
-8.6110229 -0.97501326 -2.0007145
-10.031156 -1.1340396 -1.9622798
-11.946517 -1.3463515 -1.9041206
-15.544738 -1.7463703 -1.9206611
-26.006943 -2.9171484 -2.2895813
-47.750488 -5.3392038 -2.5180924
-7.5504584 -0.83091056 -2.0353529
-8.6006498 -0.94496268 -1.9975653
-10.03115 -1.0985897 -1.9615166
-11.95877 -1.3075864 -1.905372
-15.554391 -1.695242 -1.9211485
-26.100159 -2.8353863 -2.2969024
-47.795731 -5.1838412 -2.519558
-7.5512514 -0.80566257 -2.0348353
-8.6019583 -0.91473073 -1.9971154
-10.046451 -1.0665623 -1.9638064
-11.963262 -1.2658371 -1.905372
-15.572058 -1.6421854 -1.922611
-26.208488 -2.7592549 -2.3056178
-47.78175 -5.0136356 -2.5178831
-7.5559392 -0.77949685 -2.0353529
-8.6049442 -0.88620025 -1.9971154
-10.046206 -1.031086 -1.963043
-11.967393 -1.2261581 -1.905372
-15.581368 -1.5909402 -1.9230984
-26.527176 -2.6992099 -2.3328106
-47.790169 -4.8543487 -2.5174644
-7.5584826 -0.7544359 -2.0353529
-8.6138039 -0.85673642 -1.9984653
-10.037849 -0.9966017 -1.9607532
-11.969636 -1.1841818 -1.9050591
-15.592753 -1.537129 -1.9238297
-26.829901 -2.6354215 -2.3586087
-47.747192 -4.6816635 -2.5143244
-7.5611968 -0.72672927 -2.0353529
-8.62644 -0.82759356 -2.0007145
-10.049252 -0.96055394 -1.9622798
-11.979795 -1.1408645 -1.9059978
-15.599999 -1.4828782 -1.9240733
-26.735792 -2.5319893 -2.3495445
-47.787891 -4.5088687 -2.5155804
-7.5559931 -0.69961876 -2.0332825
-8.6119509 -0.79435956 -1.9966656
-10.054498 -0.92564923 -1.9626614
-11.981736 -1.0988595 -1.9056848
-15.623121 -1.4273164 -1.926267
-26.807959 -2.4444373 -2.3551223
-47.847095 -4.346004 -2.5178831
-7.5680103 -0.67409587 -2.0358706
-8.6263189 -0.76532644 -1.999365
-10.067446 -0.89141238 -1.9645696
-11.983532 -1.0568548 -1.905372
-15.629986 -1.3729463 -1.9265107
-26.983049 -2.3654597 -2.3697646
-7.5741673 -0.64800364 -2.036906
-8.62117 -0.73455036 -1.9975653
-10.062671 -0.85559934 -1.963043
-11.998958 -1.0160149 -1.9072492
-15.638638 -1.318712 -1.9269981
-27.205564 -2.2892931 -2.3885903
-7.5667562 -0.62077093 -2.0343177
-8.6371536 -0.70707011 -2.0007145
-10.055813 -0.81967115 -1.961135
-11.998324 -0.97590441 -1.9066235
-15.650841 -1.2674856 -1.9279732
-27.318644 -2.2028067 -2.3978288
-7.5610695 -0.59506863 -2.0322473
-8.6376266 -0.67676407 -2.0002646
-10.064348 -0.78677905 -1.9622798
-11.997719 -0.93370676 -1.9059978
-15.671003 -1.2140763 -1.9299231
-27.62178 -2.1350803 -2.4238012
-7.5631003 -0.56867355 -2.0322473
-35.088055 -2.6321313 0.61418509
-8.6263332 -0.64558858 -1.9971154
-10.067034 -0.75164527 -1.9622798
-11.996964 -0.89152807 -1.905372
-15.671185 -1.1590735 -1.9294356
-27.780077 -2.0497911 -2.4370489
-35.210735 -2.5857155 -1.8502855
-35.112988 -2.5662158 -0.61453414
-7.5708199 -0.54268414 -2.0338001
-8.6246471 -0.61519772 -1.9962157
-10.075471 -0.71691793 -1.9634248
-12.009855 -0.85034269 -1.9069364
-15.677116 -1.1044991 -1.9296793
-28.089161 -1.9740379 -2.4635441
-7.5726686 -0.51625347 -2.0338001
-8.6403522 -0.58601117 -1.999365
-10.081829 -0.68200833 -1.964188
-12.026546 -0.80934626 -1.9091264
-15.6888 -1.050299 -1.9306543
-28.390099 -1.8956275 -2.4893425
-7.57828 -0.49006408 -2.0348353
-8.6520691 -0.55647224 -2.0016146
-10.08219 -0.64668363 -1.9638064
-12.027328 -0.76723474 -1.9088136
-15.696332 -0.99578321 -1.9311417
-28.686852 -1.8148817 -2.5147917
-7.570303 -0.46301991 -2.0322473
-8.6578484 -0.52650589 -2.0025144
-10.082426 -0.61136961 -1.9634248
-12.014159 -0.72429276 -1.9063107
-15.705658 -0.94134259 -1.9318731
-29.126579 -1.7406377 -2.5527916
-7.5680165 -0.43636921 -2.0312121
-8.6518507 -0.49583283 -2.0007145
-10.084498 -0.5761714 -1.9634248
-12.030419 -0.68313754 -1.9085008
-15.716619 -0.88970369 -1.932848
-29.383123 -1.6530635 -2.574755
-7.5867825 -0.41221333 -2.0358706
-8.6417723 -0.46650898 -1.9980152
-10.100076 -0.54346478 -1.966096
-12.030646 -0.64313352 -1.9081879
-15.723449 -0.83779126 -1.9333354
-29.766468 -1.5756253 -2.6078742
-7.584249 -0.38685524 -2.0348353
-8.6491108 -0.4381468 -1.999365
-10.092019 -0.50947344 -1.964188
-12.03863 -0.60353404 -1.9091264
-15.732088 -0.78594238 -1.9340667
-29.970524 -1.486778 -2.6253052
-61.486969 -3.0287321 -3.2263026
-7.5797014 -0.36142832 -2.0332825
-8.6602497 -0.40992326 -2.0016146
-10.089731 -0.47581893 -1.9634248
-12.048459 -0.5639782 -1.910378
-15.734609 -0.73376799 -1.9340667
-29.911598 -1.3844421 -2.6197271
-61.432831 -2.8218822 -3.2229533
-7.5849514 -0.33116537 -2.0343177
-8.652091 -0.37473401 -1.999365
-10.097444 -0.43556631 -1.9645696
-12.044704 -0.51535201 -1.9094393
-15.737427 -0.67059952 -1.9340667
-29.940804 -1.2653611 -2.621819
-7.5860081 -0.30601069 -2.0343177
-8.6474438 -0.3458066 -1.9980152
-10.102756 -0.40223539 -1.9653327
-12.038452 -0.47509834 -1.9081879
-15.767333 -0.61949909 -1.937479
-29.960764 -1.166693 -2.6232135
-7.5947032 -0.28114027 -2.0363884
-8.646596 -0.31705701 -1.9975653
-10.109921 -0.36894807 -1.9664776
-12.053781 -0.43567377 -1.910378
-15.757497 -0.56403428 -1.9360166
-29.928812 -1.0608249 -2.6200759
-7.599544 -0.25343102 -2.0374236
-8.6495972 -0.28693718 -1.9980152
-10.10728 -0.33176187 -1.9657143
-12.053322 -0.39142722 -1.9100651
-15.755402 -0.50889838 -1.9355291
-29.928349 -0.95622641 -2.6197271
-7.5907273 -0.22661367 -2.0348353
-8.6642265 -0.25563508 -2.0011647
-10.106414 -0.29642099 -1.9653327
-12.058563 -0.34946498 -1.9106908
-15.76113 -0.45126185 -1.9360166
-29.959389 -0.85254383 -2.6221678
-7.5856786 -0.1999646 -2.0332825
-8.6689615 -0.22549081 -2.0020645
-10.107387 -0.26114336 -1.9653327
-12.053785 -0.3072193 -1.9097521
-15.778485 -0.39664114 -1.9379665
-29.846659 -0.74507612 -2.6120574
-7.5901933 -0.17357074 -2.0343177
-8.6658001 -0.19514322 -2.0011647
-10.1102 -0.22590156 -1.9657143
-12.05676 -0.26518783 -1.9100651
-15.789697 -0.34177586 -1.9391851
-29.960627 -0.64328867 -2.621819
-7.5907526 -0.14707474 -2.0343177
-8.6566858 -0.16470712 -1.9989151
-10.120742 -0.19079375 -1.9676224
-12.059587 -0.22313358 -1.910378
-15.786823 -0.28658873 -1.9386977
-29.946753 -0.5384081 -2.6204245
-7.5950828 -0.12064014 -2.0353529
-8.6669512 -0.1346377 -2.0011647
-10.121346 -0.15546674 -1.9676224
-12.060292 -0.18103608 -1.910378
-15.779748 -0.23411776 -1.9377227
-29.89267 -0.43306223 -2.6155438
-7.5993047 -0.095501535 -2.0363884
-8.6751442 -0.10599121 -2.0029643
-10.117879 -0.12185463 -1.9668592
-12.068727 -0.14113365 -1.9116293
-15.790362 -0.18190268 -1.9389415
-29.897924 -0.33397555 -2.6158924
-7.584125 -0.070157543 -2.0322473
-8.6851912 -0.077311277 -2.0052137
-10.110374 -0.088232927 -1.9653327
-12.065178 -0.10108084 -1.9110037
-15.808765 -0.12692592 -1.941135
-29.934769 -0.22988483 -2.61903
-7.5939903 -0.042413685 -2.0348353
-8.6795616 -0.046961956 -2.0038638
-10.106704 -0.051155914 -1.9645696
-12.061518 -0.056840252 -1.910378
-15.813083 -0.07175982 -1.9416226
-29.951328 -0.12546466 -2.6204245
-7.5940924 -0.015907051 -2.0348353
-8.667984 -0.015128898 -2.0011647
-10.130381 -0.015915763 -1.969149
-12.065592 -0.014741842 -1.9110037
-15.827136 -0.013813342 -1.9433287
-29.983467 -0.015695741 -2.6232135
-7.5960312 0.011931772 -2.0353529
-55.415493 0.087046117 0.96728218
-8.667984 0.01512628 -2.0011647
-10.124481 0.0212043 -1.968004
-12.065565 0.029481074 -1.9110037
-15.799297 0.041361444 -1.9399164
-29.895674 0.088699773 -2.6155438
-7.5978751 0.038454972 -2.0358706
-55.402805 0.2900916 0.96707273
-8.6756649 0.046940319 -2.0029643
-10.112565 0.056477286 -1.9657143
-12.073291 0.071644805 -1.9122552
-15.799056 0.096511468 -1.9399164
-29.867289 0.19287531 -2.6131034
-7.5957742 0.063634336 -2.0353529
-55.021606 0.47055206 0.96044081
-8.6832561 0.075777963 -2.0047638
-10.112323 0.090011843 -1.9657143
-12.072987 0.11168135 -1.9122552
-15.808574 0.14899664 -1.941135
-29.842579 0.29168525 -2.6110117
-7.5935898 0.088800184 -2.0348353
-55.08773 0.6538167 0.9616276
-8.6849051 0.10459606 -2.0052137
-10.133563 0.12381166 -1.9699122
-12.056747 0.15151809 -1.9097521
-15.817883 0.20430282 -1.9423537
-29.853399 0.3908028 -2.6120574
-7.5951653 0.11533576 -2.0353529
-55.405029 0.85102022 0.96721238
-8.6611052 0.1345484 -1.9998149
-10.123254 0.15902732 -1.968004
-12.067996 0.1937937 -1.9116293
-15.811117 0.25942281 -1.9416226
-29.851854 0.49500906 -2.6120574
-7.6043744 0.14202772 -2.0379412
-55.477692 1.0458617 0.96853876
-8.6703253 0.16496402 -2.0020645
-10.1246 0.19440109 -1.9683858
-12.075147 0.2360696 -1.9128809
-15.814085 0.31469172 -1.9421101
-29.873743 0.60489565 -2.6141493
-7.6076651 0.16998462 -2.0389764
-8.6735926 0.19531608 -2.0029643
-10.114006 0.23128407 -1.9664776
-12.07815 0.28042042 -1.9135066
-15.816859 0.36998078 -1.9425975
-29.835596 0.70832759 -2.6110117
-7.5993009 0.19633994 -2.036906
-8.6864548 0.22746228 -2.0061135
-10.126875 0.26694953 -1.969149
-12.0692 0.32236582 -1.9122552
-15.831272 0.42838359 -1.9445474
-29.880741 0.81376439 -2.615195
-7.5850515 0.222469 -2.0332825
-8.6661739 0.25569201 -2.0016146
-10.125882 0.30229756 -1.969149
-12.060165 0.36215022 -1.9110037
-15.837701 0.48111758 -1.9455223
-29.810009 0.91598302 -2.6092687
-7.6016498 0.24818838 -2.0379412
-8.6691236 0.28606981 -2.0025144
-10.134634 0.33620039 -1.9710571
-12.068699 0.40457714 -1.912568
-15.816087 0.53572702 -1.9430851
-29.826721 1.0155107 -2.6110117
-7.6026678 0.27478975 -2.0384588
-8.677866 0.31517008 -2.0047638
-10.12555 0.3712849 -1.9695306
-12.065317 0.4445239 -1.9122552
-15.804304 0.58780003 -1.9418663
-29.747337 1.1167797 -2.604388
-7.6016092 0.30265501 -2.0384588
-8.6804848 0.34864476 -2.0056636
-10.112352 0.40792224 -1.9672408
-12.073389 0.49124959 -1.9138194
-15.821764 0.64929378 -1.9443036
-29.743044 1.2258021 -2.604388
-7.5927868 0.32885179 -2.0363884
-8.6850567 0.37919843 -2.0070133
-10.116752 0.44347429 -1.9683858
-12.071601 0.53339094 -1.9138194
-15.823368 0.70469892 -1.9447912
-29.754505 1.3303299 -2.6057823
-7.5954518 0.3555344 -2.0374236
-8.6817331 0.40941897 -2.0065634
-10.126907 0.47934282 -1.9706753
-12.063746 0.57524061 -1.9128809
-15.82491 0.75735384 -1.9452786
-29.630278 1.4284219 -2.5953238
-7.6000195 0.38101035 -2.0389764
-8.6705961 0.43771547 -2.0043139
-10.133105 0.51331991 -1.9722018
-12.077556 0.6160478 -1.9153838
-15.830241 0.81023347 -1.9462537
-29.704966 1.5307742 -2.6022961
-7.6083598 0.40672675 -2.0415647
-8.6729889 0.46667555 -2.0052137
-10.129387 0.54681426 -1.9718202
-12.067556 0.65566689 -1.9141324
-15.827316 0.86548686 -1.9462537
-29.671591 1.6329226 -2.5998559
-7.5991035 0.43416759 -2.0394943
-8.6771431 0.49728182 -2.0065634
-10.113595 0.58314574 -1.969149
-12.07296 0.70035005 -1.9153838
-15.822216 0.9206143 -1.9460098
-29.637865 1.7348568 -2.5974154
-7.5936847 0.46045893 -2.0384588
-58.055893 3.5305099 1.0152414
-8.6791534 0.52931714 -2.0074632
-10.121296 0.61904478 -1.9710571
-12.066499 0.74224317 -1.9147581
-15.83855 0.9798255 -1.9484472
-29.655491 1.83979 -2.5995071
-7.5997419 0.48745787 -2.0405295
-57.971378 3.7285087 1.0139848
-8.6714182 0.55923587 -2.0061135
-10.132788 0.65525812 -1.9737284
-12.059893 0.78410554 -1.9141324
-15.835033 1.035103 -1.9484472
-29.471945 1.9316919 -2.5839934
-7.6018496 0.51424211 -2.0415647
-8.667469 0.58936942 -2.0056636
-10.126521 0.69035488 -1.972965
-12.061023 0.82646799 -1.9147581
-15.839244 1.090921 -1.9494221
-29.757208 2.0547328 -2.6096172
-65.356026 4.5472112 -1.1435515
-7.600008 0.54077464 -2.0415647
-57.916729 4.1210346 1.0134962
-8.6654673 0.61810881 -2.0056636
-10.120133 0.72541839 -1.9722018
-12.073978 0.86759233 -1.917261
-15.825641 1.1427219 -1.9482036
-65.20414 4.7654085 -1.1411779
-7.5962462 0.56583095 -2.0410471
-58.04158 4.3336005 1.0159395
-8.67103 0.64893317 -2.0074632
-10.107882 0.75823998 -1.9702938
-12.066936 0.90943366 -1.9166353
-15.823535 1.1981108 -1.9484472
-29.760412 2.2585933 -2.611186
-65.164055 4.9797816 -1.1407591
-7.5884471 0.5918929 -2.0394943
-8.6727161 0.67798787 -2.008363
-10.114961 0.79428732 -1.9722018
-12.067794 0.94975454 -1.917261
-15.82937 1.2513561 -1.9496659
-29.956923 2.3787005 -2.6291401
-65.11837 5.2049718 -1.1402705
-7.5999212 0.61815047 -2.0431178
-8.6664124 0.70794004 -2.0074632
-10.110314 0.82766551 -1.9718202
-12.048655 0.99057859 -1.9147581
-15.836775 1.3075875 -1.9511282
-30.055655 2.4921467 -2.6385529
-65.111755 5.4332447 -1.1404798
-7.6014543 0.64632887 -2.044153
-8.6600046 0.73785651 -2.0065634
-10.120906 0.86588776 -1.9744916
-12.054784 1.0355752 -1.9163225
-15.826181 1.3623462 -1.9503973
-30.106323 2.6022005 -2.6437824
-68.617569 5.9549823 -3.609611
-65.088409 5.6601653 -1.1404101
-7.6030006 0.67319995 -2.0451882
-8.6572418 0.76959223 -2.0065634
-10.108044 0.90034038 -1.9725834
-12.056998 1.078179 -1.917261
-15.819104 1.4201655 -1.9501534
-30.315338 2.7269034 -2.6629565
-65.036392 5.8844347 -1.1398516
-7.5948329 0.69920236 -2.0436354
-8.662405 0.79901069 -2.008363
-10.102885 0.93543547 -1.9722018
-12.063191 1.1190683 -1.9188254
-15.808377 1.4720641 -1.9494221
-30.325472 2.8345623 -2.6646996
-60.442238 5.6602573 -3.1815033
-7.5809336 0.72328323 -2.0405295
-8.6673231 0.82998866 -2.0101628
-10.10559 0.96949798 -1.9733468
-12.049379 1.1602236 -1.917261
-15.80512 1.5274246 -1.9496659
-30.450758 2.9481668 -2.6765528
-60.410183 5.8700485 -3.1808751
-7.5898981 0.75088269 -2.0436354
-8.6585541 0.85966074 -2.0088129
-10.104098 1.0049595 -1.9737284
-12.049187 1.2026694 -1.9178867
-15.807592 1.5833808 -1.9506408
-30.511648 3.0616038 -2.6828279
-7.5929961 0.77796268 -2.0451882
-8.647747 0.88908052 -2.0070133
-10.112246 1.0414301 -1.9760182
-12.052775 1.2455312 -1.9191382
-15.813816 1.639779 -1.9521034
-30.81389 3.2006071 -2.7103693
-60.411434 6.2962022 -3.1831777
-7.5998392 0.80548245 -2.0477762
-8.6465292 0.91946769 -2.0074632
-10.106597 1.0765169 -1.9756364
-12.056212 1.2884357 -1.9203898
-15.798126 1.693908 -1.9508847
-30.826302 3.3107018 -2.712461
-60.428802 6.5113058 -3.1852713
-7.5893002 0.83116311 -2.0457058
-8.6548891 0.95092136 -2.0101628
-10.098874 1.1113572 -1.9748732
-12.059493 1.3313822 -1.9216411
-15.780278 1.7477326 -1.9494221
-31.10367 3.4503655 -2.7379105
-60.366005 6.7177858 -3.1831777
-7.5825138 0.85721588 -2.0446706
-62.16922 7.0393229 1.0921018
-8.6573257 0.98178566 -2.0115123
-10.091033 1.1461593 -1.97411
-12.03122 1.3707836 -1.9178867
-15.793805 1.8050601 -1.9518596
-31.095396 3.5593634 -2.7382591
-60.354092 6.9298444 -3.1838059
-7.5813937 0.88390243 -2.0451882
-61.937702 7.2321587 1.0884717
-8.6499748 1.011547 -2.0106125
-10.09672 1.1825187 -1.9760182
-12.053829 1.4159989 -1.9222668
-15.783464 1.8597157 -1.9513721
-31.173801 3.6786263 -2.7462776
-60.321602 7.1395259 -3.1833873
-7.5859342 0.91128111 -2.0472586
-61.356171 7.3814554 1.0786984
-8.6386518 1.0408027 -2.0088129
-10.104224 1.2191645 -1.9783077
-12.031163 1.4559305 -1.9194511
-15.772936 1.9143209 -1.9508847
-31.168684 3.7883832 -2.7469747
-60.272522 7.3471456 -3.1821311
-60.488377 7.3948855 -1.0636892
-7.5922933 0.93894303 -2.0498469
-60.552094 7.4992399 1.0650157
-8.6427021 1.0719086 -2.0106125
-60.60453 7.5272126 3.2005534
-10.086269 1.2527362 -1.9756364
-12.037769 1.4993806 -1.9213283
-15.777976 1.9708438 -1.952347
-31.171087 3.8991311 -2.7483692
-60.250469 7.5579901 -3.1823406
-7.5793872 0.96422046 -2.0472586
-8.6466398 1.1030573 -2.0124121
-10.087677 1.2886829 -1.9767814
-12.03834 1.5421474 -1.9222668
-15.763125 2.0248923 -1.9513721
-31.196806 4.0130067 -2.7518554
-60.229664 7.769011 -3.1826546
-7.5663986 0.98941761 -2.0446706
-8.6446686 1.1334885 -2.012862
-10.079225 1.3233745 -1.9760182
-12.0368 1.5846757 -1.9228927
-15.772068 2.0792296 -1.9533219
-31.19446 4.1234474 -2.7529013
-60.200195 7.9789577 -3.1825497
-7.576478 1.0163014 -2.0482941
-8.6370001 1.1616279 -2.0119622
-10.084509 1.3581015 -1.9779261
-12.01582 1.6224682 -1.9203898
-15.761151 2.1309888 -1.9528345
-31.239841 4.2348995 -2.7581306
-60.171429 8.1782646 -3.182445
-7.5788083 1.0422102 -2.0498469
-8.6195869 1.1884001 -2.0088129
-10.081894 1.3918043 -1.9783077
-12.018199 1.663386 -1.9216411
-15.751652 2.1857202 -1.9525908
-31.26115 4.3434 -2.7612681
-60.140026 8.3772068 -3.182236
-7.5751238 1.0686591 -2.0498469
-8.6269627 1.2201183 -2.0115123
-10.076975 1.4269885 -1.9783077
-12.022099 1.7067159 -1.9232055
-15.741961 2.240411 -1.952347
-31.28525 4.458118 -2.7647545
-60.118324 8.5882149 -3.1826546
-7.5732594 1.0953714 -2.0503645
-8.6303663 1.2513435 -2.0133121
-10.091362 1.464976 -1.982124
-12.021932 1.7495241 -1.9241441
-15.736009 2.2956343 -1.9525908
-31.265554 4.5667214 -2.764406
-60.089954 8.7983198 -3.182759
-7.5579238 1.1200994 -2.0472586
-8.6182346 1.2803162 -2.0115123
-10.064826 1.4970132 -1.9779261
-12.021613 1.7923521 -1.9250828
-15.747531 2.3534837 -1.9550281
-31.245481 4.6752419 -2.7640572
-60.066776 9.0091915 -3.1831777
-7.5577879 1.1470547 -2.0482941
-8.6233473 1.3118553 -2.013762
-10.059539 1.5321372 -1.9779261
-12.011379 1.8337057 -1.9244571
-15.745107 2.4093397 -1.9557593
-31.311687 4.796946 -2.7713783
-60.042862 9.2200232 -3.1835964
-7.5556469 1.1737279 -2.0488117
-8.609087 1.3404496 -2.0115123
-10.067708 1.5693614 -1.9805974
-12.004905 1.8756224 -1.9244571
-15.720914 2.4618258 -1.9538096
-31.330181 4.9117708 -2.7745159
-60.0182 9.4307976 -3.184015
-7.5610433 1.2016093 -2.0513999
-8.6062803 1.3708016 -2.0119622
-10.062169 1.6044927 -1.9805974
-12.008037 1.9190776 -1.9260213
-15.716144 2.5173151 -1.9542971
-31.403337 5.0356226 -2.7825341
-59.980976 9.639596 -3.1838059
-7.5510826 1.2270657 -2.0498469
-8.6093817 1.4005835 -2.013762
-10.044881 1.637711 -1.9783077
-12.001607 1.9588848 -1.9260213
-15.719463 2.5713413 -1.9557593
-31.523199 5.1677737 -2.7947359
-59.952621 9.8390961 -3.184015
-7.5488777 1.2524157 -2.0503645
-8.6063623 1.4309471 -2.0142117
-10.049078 1.6726242 -1.9802158
-12.000541 2.0017445 -1.92696
-15.718225 2.6275065 -1.9567344
-59.941544 10.052276 -3.1852713
-7.5406504 1.2781129 -2.0493293
-8.6013145 1.4609804 -2.0142117
-10.039308 1.7070341 -1.9794526
-11.985692 2.0422924 -1.9257084
-15.710913 2.6826956 -1.9569781
-32.492813 5.5540948 -2.8839834
-59.894279 10.259442 -3.1846433
-7.5418534 1.3054137 -2.0508821
-8.5980825 1.491329 -2.0146616
-10.058434 1.7464314 -1.9844136
-11.984328 2.085134 -1.9266472
-15.705362 2.7381992 -1.9574655
-32.559586 5.6825547 -2.8916531
-59.78334 10.455362 -3.1806657
-7.5505672 1.3340849 -2.0545056
-8.5947428 1.5216706 -2.0151114
-10.038744 1.7791355 -1.9817424
-11.992537 2.1297178 -1.9291501
-15.687893 2.7916138 -1.9564906
-32.461098 5.7821999 -2.884681
-59.880184 10.687847 -3.1877835
-7.5401607 1.3594068 -2.0529528
-8.5989685 1.5533952 -2.0173612
-10.040199 1.815564 -1.9832687
-11.988917 2.1722686 -1.9297757
-15.666332 2.8442304 -1.9550281
-32.421112 5.8919134 -2.8829377
-59.873951 10.90253 -3.1894581
-7.52777 1.3843195 -2.0508821
-8.58391 1.5816382 -2.0151114
-10.028009 1.849532 -1.982124
-11.973491 2.2126718 -1.9285244
-15.66607 2.9007027 -1.9562467
-32.600163 6.0420833 -2.9007173
-59.839458 11.112179 -3.1896675
-7.5247912 1.4109442 -2.0513999
-8.5859976 1.6130316 -2.0169113
-10.029211 1.8859743 -1.9836504
-11.965694 2.2544539 -1.9285244
-15.657799 2.9557421 -1.9564906
-32.931271 6.2224293 -2.9320934
-59.815998 11.323977 -3.1905048
-7.5293069 1.4390155 -2.053988
-8.5726595 1.6415246 -2.0151114
-10.037992 1.923928 -1.9867034
-11.963573 2.2973232 -1.9294629
-15.647387 3.0103805 -1.9564906
-32.400677 6.2393808 -2.8867724
-59.787872 11.534977 -3.191133
-7.5394082 1.4682415 -2.0581291
-8.5726156 1.6725587 -2.0164614
-10.023506 1.9574529 -1.9851768
-11.963235 2.3405876 -1.9307145
-15.623147 3.0623055 -1.9547845
-31.874275 6.253479 -2.8418002
-59.747246 11.743593 -3.191133
-7.5418167 1.4960556 -2.0601997
-8.5724592 1.7036122 -2.0178108
-10.008911 1.9908954 -1.9836504
-11.956929 2.382719 -1.9310273
-15.625989 3.1195428 -1.9564906
-31.379442 6.2702351 -2.7996168
-59.717644 11.954432 -3.191761
-7.5100379 1.5170174 -2.0529528
-8.5626392 1.7327526 -2.0169113
-10.015369 2.0285492 -1.9863218
-11.944666 2.4236565 -1.9304014
-15.618895 3.17486 -1.9569781
-30.91222 6.2891588 -2.7598739
-59.706856 12.169196 -3.1934357
-7.5009127 1.5424452 -2.0519176
-8.5584478 1.7630247 -2.0173612
-10.002459 2.0623081 -1.9851768
-11.936132 2.4653368 -1.9304014
-15.619382 3.2317748 -1.9584407
-30.50378 6.3170271 -2.7253602
-59.664013 12.37754 -3.1934357
-7.5068283 1.5709915 -2.0550234
-8.556056 1.7936883 -2.0182607
-10.01057 2.1004336 -1.9882298
-11.931322 2.5077999 -1.9310273
-15.594408 3.2834144 -1.9567344
-30.017546 6.3256874 -2.6838739
-59.671257 12.596458 -3.1961572
-7.5050778 1.5979905 -2.0560586
-8.5497427 1.8235418 -2.0182607
-9.9993362 2.1345472 -1.9874666
-11.930222 2.5510824 -1.9322786
-15.594498 3.3403239 -1.9581968
-29.706961 6.3686128 -2.6580758
-59.685501 12.817255 -3.1992972
-7.4919009 1.6225448 -2.053988
-8.5528479 1.8554407 -2.0205104
-9.9879885 2.1686056 -1.9867034
-11.928965 2.5943904 -1.9335302
-15.580803 3.3943124 -1.957953
-29.365297 6.4026704 -2.6294887
-59.640404 13.025505 -3.1992972
-7.4843054 1.6482694 -2.0534704
-8.5425129 1.8844473 -2.0196106
-9.9803581 2.203455 -1.9867034
-11.919836 2.6360176 -1.9335302
-15.568859 3.4486792 -1.957953
-29.12491 6.4568381 -2.6099658
-59.692059 13.25526 -3.204531
-7.4935875 1.6777613 -2.0576115
-8.5377846 1.9146793 -2.0200605
-9.9821844 2.2404294 -1.9886116
-11.906709 2.6767409 -1.9329045
-15.570282 3.5060604 -1.9596591
-29.125519 6.563714 -2.6120574
-7.4876852 1.7039088 -2.0576115
-8.52915 1.9440373 -2.0196106
-9.9800444 2.2765701 -1.9897563
-11.904995 2.7200468 -1.9341559
-70.576691 16.138287 8.8893938
-15.544403 3.5572863 -1.957953
-29.040283 6.6511087 -2.6064796
-7.4798107 1.7295985 -2.0570939
-8.5223112 1.973798 -2.0196106
-9.9682121 2.3105068 -1.9889932
-11.897351 2.7620335 -1.9344687
-15.543493 3.614223 -1.9594156
-28.915981 6.7289562 -2.5974154
-7.4756074 1.7561412 -2.0576115
-8.534688 2.0065084 -2.0241096
-9.9581757 2.3448386 -1.9886116
-11.893895 2.8028312 -1.9354074
-15.523696 3.663924 -1.9584407
-28.810881 6.8106079 -2.5900943
-7.4641056 1.7795759 -2.0560586
-8.5219479 2.0349283 -2.0227599
-9.9694395 2.382412 -1.9924276
-11.880198 2.8434095 -1.9347818
-15.533974 3.7236423 -1.9613652
-28.788139 6.9060979 -2.5900943
-47.374924 11.382455 -2.5534716
-47.384022 11.402137 -0.85070014
-7.4578481 1.8056217 -2.0560586
-47.393261 11.483141 0.85118878
-8.5128984 2.0642037 -2.02231
-47.422729 11.507819 2.5574491
-9.9591541 2.4167345 -1.992046
-47.49485 11.534085 4.2760353
-11.870199 2.8848622 -1.9347818
-70.540367 17.156763 8.9137688
-15.509311 3.7750235 -1.959903
-28.597376 6.9660006 -2.5751035
-47.400879 11.563851 -2.5570304
-47.40609 11.582656 -0.85181707
-7.4608798 1.8339475 -2.0586467
-8.4961796 2.0915799 -2.0200605
-9.956377 2.4528904 -1.9931908
-11.867728 2.9281752 -1.9360331
-15.503747 3.8310432 -1.9608778
-28.4491 7.035172 -2.5639477
-7.4619303 1.8618506 -2.0607173
-8.4963894 2.1231124 -2.0218601
-9.9420404 2.486201 -1.992046
-11.865099 2.9715033 -1.9372847
-70.226311 17.600533 8.8893938
-15.482577 3.8832104 -1.959903
-28.339344 7.1130943 -2.556278
-7.4553857 1.8878865 -2.0607173
-8.5021496 2.156111 -2.0250094
-9.933301 2.5208905 -1.992046
-11.858484 3.0138729 -1.9379103
-15.457386 3.934294 -1.9584407
-28.229389 7.1903291 -2.5486081
-7.4506216 1.9143783 -2.061235
-8.4964581 2.1862617 -2.0254593
-9.9225397 2.5550618 -1.9916644
-11.836414 3.052289 -1.9360331
-15.451247 3.9902081 -1.9594156
-28.134676 7.2708783 -2.5423331
-49.671082 12.855056 -2.6889169
-7.4420242 1.9398888 -2.0607173
-8.4906607 2.2163968 -2.0259092
-9.9211588 2.591665 -1.9931908
-11.837154 3.0965872 -1.9379103
-15.444905 4.0461311 -1.9603903
-27.927958 7.321557 -2.5259478
-7.4370747 1.9663485 -2.061235
-8.4772205 2.2445273 -2.0245595
-9.9215403 2.6287949 -1.9950989
-11.822453 3.1368747 -1.9372847
-15.42685 4.0990005 -1.959903
-27.879128 7.4128489 -2.5238559
-7.4338984 1.993296 -2.0622702
-8.476862 2.2761261 -2.0263591
-9.9160957 2.6644309 -1.9958621
-11.826693 3.1822302 -1.9397876
-15.416282 4.1538587 -1.9603903
-27.922333 7.5287943 -2.5301311
-7.4324875 2.0207536 -2.0638232
-8.4782667 2.3082619 -2.0286086
-9.8991585 2.6969621 -1.9943358
-11.815513 3.2234941 -1.9397876
-15.382539 4.2024155 -1.957953
-26.327641 7.1974874 -2.387893
-7.4123516 2.0430925 -2.0601997
-8.4739151 2.3388777 -2.0295084
-26.014923 7.1852484 1.4144317
-9.8991451 2.7341158 -1.9962438
-11.807996 3.2657685 -1.9404132
-15.38308 4.260324 -1.959903
-26.235157 7.2707157 -2.3817921
-26.373711 7.3190336 -1.434424
-26.364792 7.3264709 -0.47763747
-7.4144769 2.0715551 -2.0627878
-25.960377 7.2580328 0.47051689
-8.4638224 2.3679183 -2.0290585
-25.924292 7.2577085 1.4108729
-9.893321 2.7697127 -1.997007
-11.794623 3.3064337 -1.9401004
-15.371939 4.3150644 -1.9603903
-26.201942 7.3601007 -2.3810949
-7.4183536 2.1005802 -2.0658937
-25.942581 7.3507891 0.47065648
-8.4536304 2.3969188 -2.0286086
-26.003845 7.3730574 1.4165251
-9.8911495 2.8063715 -1.9985336
-11.779208 3.3465078 -1.9394747
-15.360601 4.3697829 -1.9608778
-26.28915 7.4837022 -2.3913794
-7.4072623 2.125397 -2.0648584
-25.964193 7.4500151 0.4714942
-8.4493809 2.4260125 -2.0295084
-25.989468 7.4670863 1.4171531
-9.8718586 2.8381689 -1.9966254
-11.771843 3.3866434 -1.9401004
-15.330767 4.4163017 -1.9589281
-27.373188 7.8956847 -2.4924798
-7.3983183 2.1494098 -2.0643408
-25.980274 7.5528827 0.47226211
-8.446476 2.4571249 -2.0308583
-9.8586216 2.8697922 -1.9958621
-11.777019 3.432687 -1.9429164
-15.322879 4.4720135 -1.959903
-27.293304 7.9707766 -2.4875991
-7.3852105 2.1735857 -2.0627878
-8.4476271 2.4878719 -2.0331075
-9.8598433 2.9075198 -1.9981518
-11.767466 3.4722815 -1.9432292
-15.300351 4.5205526 -1.9589281
-27.257673 8.0637398 -2.486902
-7.384984 2.2015576 -2.0648584
-8.4421873 2.5199344 -2.0340075
-9.8533974 2.9430411 -1.9989152
-11.745196 3.5125582 -1.9416648
-66.700569 19.960363 8.5486479
-15.298891 4.5811563 -1.9608778
-27.221724 8.1565504 -2.4862046
-7.371706 2.2256496 -2.0633056
-8.4221468 2.5460024 -2.0313082
-9.8637342 2.9836731 -2.0031128
-11.740427 3.5558231 -1.9429164
-15.279008 4.6333799 -1.9603903
-27.135893 8.2341614 -2.4809754
-64.91259 19.7467 -1.1843202
-7.3805184 2.2564516 -2.0679643
-8.413209 2.575386 -2.0313082
-9.8419952 3.0146363 -2.0008233
-11.724165 3.5956278 -1.9422905
-15.266538 4.6878476 -1.9608778
-27.090292 8.328886 -2.4795809
-7.3740449 2.2840574 -2.0684819
-8.4116116 2.6070476 -2.0331075
-9.8290052 3.0501044 -2.0004416
-11.722226 3.6420889 -1.9441677
-15.242497 4.7387524 -1.959903
-27.00779 8.4068117 -2.4747
-36.29977 11.313069 -1.9926394
-36.359257 11.338571 -0.66479707
-7.3531232 2.3057375 -2.0648584
-8.4168758 2.6425283 -2.0367069
-9.8295355 3.0879288 -2.0027313
-11.709441 3.6829851 -1.9441677
-15.225027 4.7945871 -1.959903
-26.97448 8.4998388 -2.4743514
-35.821976 11.3015 -1.9685649
-35.968582 11.354647 -0.65837461
-7.3542366 2.3343132 -2.0674467
-8.4043512 2.6692457 -2.0358069
-9.8261824 3.124599 -2.0042579
-11.693399 3.7205975 -1.943542
-15.20526 4.8438482 -1.9594156
-26.883902 8.5745792 -2.4687736
-35.312428 11.269635 -1.9426061
-35.475376 11.335284 -0.65006721
-7.3464551 2.3586884 -2.0674467
-8.3819962 2.6943915 -2.0326576
-9.8120289 3.1559649 -2.0034947
-11.699143 3.7674477 -1.9466707
-15.210933 4.9042015 -1.9623404
-26.88566 8.6734648 -2.4715626
-34.888958 11.268821 -1.9214624
-35.047443 11.33353 -0.64294666
-7.3418522 2.3855121 -2.0684819
-8.3873653 2.7284548 -2.0362568
-9.8046856 3.1914117 -2.0042579
-11.689677 3.80949 -1.9472965
-15.178622 4.952342 -1.9603903
-26.832491 8.7598476 -2.4694707
-34.405178 11.245341 -1.8969693
-34.581955 11.316483 -0.63512796
-7.3298092 2.4099188 -2.0674467
-8.3814926 2.7589366 -2.0371568
-9.7822981 3.2219322 -2.0019681
-11.693193 3.8558362 -1.9501122
-15.165014 5.0065365 -1.9608778
-26.737429 8.8322039 -2.4635441
-33.986465 11.239953 -1.8760349
-34.10183 11.291304 -0.62703007
-7.3158536 2.4336591 -2.0658937
-8.3718109 2.788177 -2.0371568
-9.7747164 3.2572982 -2.0027313
-11.670293 3.8935039 -1.9485478
-15.132382 5.0544152 -1.9589281
-26.657301 8.9090614 -2.459012
-33.568214 11.231765 -1.8551005
-33.701939 11.28959 -0.6203981
-7.3146377 2.4616463 -2.0679643
-22.413784 7.5474277 0.41281924
-8.3657207 2.8186255 -2.0380566
-9.7744493 3.295162 -2.0050211
-11.654759 3.9335861 -1.948235
-15.129692 5.1122899 -1.9608778
-26.580744 8.9867449 -2.4548287
-33.135307 11.21568 -1.8333287
-33.294903 11.282656 -0.6136266
-7.3078294 2.4877887 -2.0684819
-8.3484526 2.8452957 -2.0362568
-9.7740364 3.3330655 -2.0073106
-11.642828 3.9748802 -1.9485478
-15.111754 5.1650715 -1.9608778
-26.51528 9.0678635 -2.4516909
-32.740715 11.20965 -1.8136505
-32.892124 11.274318 -0.60692489
-7.3045797 2.5151694 -2.0700347
-8.343997 2.8763256 -2.0376067
-9.743783 3.3607621 -2.0034947
-11.63635 4.0180798 -1.9497994
-15.071118 5.2100039 -1.957953
-26.39308 9.1291084 -2.4433239
-32.357895 11.204918 -1.7946001
-32.463356 11.254137 -0.59973449
-7.293932 2.5400152 -2.0695171
-8.3283844 2.9035115 -2.0362568
-9.7394075 3.3973382 -2.0050211
-11.633443 4.0625815 -1.9516766
-15.071581 5.2691317 -1.9603903
-26.278307 9.1922369 -2.4356544
-31.986816 11.201626 -1.7761778
-32.061554 11.240355 -0.59303278
-7.2759104 2.5622518 -2.0669291
-22.392981 7.8901987 0.41442484
-8.3347406 2.938395 -2.0403061
-9.7385979 3.4352331 -2.0073106
-11.621055 4.1038198 -1.9519895
-15.041866 5.3177438 -1.9589281
-26.204739 9.2692862 -2.4318194
-31.668888 11.214543 -1.7606864
-31.754488 11.257323 -0.58807629
-7.2705626 2.5889285 -2.0679643
-22.374718 7.9716778 0.41459936
-8.3134193 2.9635451 -2.0376067
-9.7320948 3.4711852 -2.0084558
-11.602939 4.1430321 -1.9513638
-15.045644 5.3782325 -1.9618529
-22.34141 7.990582 -2.0758755
-31.321167 11.214597 -1.7435203
-22.374432 8.0200214 -0.41487861
-7.2651157 2.6156025 -2.0689995
-22.36557 8.05651 0.4149484
-8.3066893 2.9938676 -2.0385065
-9.7346935 3.5104637 -2.0115087
-11.597694 4.1868625 -1.9529281
-15.015575 5.4266706 -1.9603903
-26.053198 9.4208384 -2.4238012
-30.90999 11.189257 -1.7227952
-31.002062 11.234827 -0.57558042
-7.2668333 2.6449111 -2.0721054
-22.3561 8.1413746 0.41529748
-8.3035135 3.0255125 -2.0403061
-9.7020903 3.5370259 -2.0073106
-11.597856 4.232739 -1.9554311
-14.974167 5.4708772 -1.9574655
-26.04261 9.5199337 -2.4258928
-30.578148 11.19001 -1.7064664
-30.628433 11.220536 -0.56936729
-7.2503042 2.6675928 -2.0700347
-22.350067 8.2276478 0.41571632
-8.2983866 3.0565012 -2.0416558
-9.6970539 3.5735869 -2.0088372
-11.592276 4.2766161 -1.9569954
-14.969877 5.5286126 -1.9594156
-25.99053 9.6038761 -2.4241498
-30.227947 11.181655 -1.6890908
-30.322792 11.228774 -0.56441081
-7.2373276 2.6915367 -2.0689995
-22.336203 8.3111925 0.41599554
-8.2876673 3.0854497 -2.0416558
-9.6845207 3.6074121 -2.0088372
-11.566171 4.3129139 -1.9551181
-14.954206 5.5822258 -1.959903
-25.870995 9.6624765 -2.4161315
-29.930561 11.190578 -1.674646
-29.965034 11.215382 -0.55847698
-7.2333131 2.7188225 -2.0705523
-22.325769 8.3961544 0.41634461
-8.2731991 3.1129861 -2.040756
-9.6792192 3.6439624 -2.0103636
-11.560289 4.3567419 -1.9566824
-14.939328 5.6331825 -1.9603903
-25.822197 9.7470894 -2.414737
-29.584913 11.179206 -1.6574799
-29.669554 11.2171 -0.55366015
-7.2278695 2.7441659 -2.0715878
-8.2628307 3.1404042 -2.040756
-9.6744223 3.6788318 -2.0118902
-11.534701 4.3908367 -1.9548053
-14.913145 5.6798668 -1.9594156
-25.774837 9.8269873 -2.4133425
-29.26778 11.170427 -1.6417791
-29.363184 11.212702 -0.54863381
-7.2259445 2.7708862 -2.0736582
-8.2614679 3.1712797 -2.0430055
-9.6640015 3.711597 -2.0122719
-11.531139 4.4333172 -1.9566824
-14.886818 5.7264395 -1.9584407
-25.63055 9.8694496 -2.4028838
-28.980856 11.171164 -1.627753
-29.016127 11.190567 -0.54283965
-7.2023044 2.7892523 -2.0695171
-8.2581739 3.2014761 -2.044805
-9.6479797 3.7422042 -2.0115087
-11.52374 4.4743915 -1.957934
-14.871447 5.7772126 -1.9589281
-25.616251 9.9616117 -2.4046268
-28.642139 11.149825 -1.6107962
-28.695625 11.176414 -0.53753412
-7.1902351 2.8149254 -2.0689995
-28.584742 11.196482 0.53585869
-8.2481985 3.2324331 -2.0452549
-9.6323729 3.7768221 -2.011127
-11.514618 4.5194855 -1.9591854
-14.863935 5.8400793 -1.9608778
-25.451727 10.010316 -2.3927736
-28.318581 11.143564 -1.5948861
-28.418068 11.194179 -0.53313613
-7.1852574 2.843394 -2.0705523
-28.314919 11.204952 0.5315305
-8.233242 3.259769 -2.0443552
-9.6294136 3.8164432 -2.0134165
-11.490632 4.5587444 -1.957934
-14.836078 5.8889995 -1.959903
-25.272209 10.041707 -2.3791776
-28.036282 11.151329 -1.5812787
-28.062965 11.167606 -0.52720231
-7.1860518 2.8727591 -2.0736582
-28.002583 11.200235 0.52643442
-8.2158108 3.2877536 -2.0430055
-9.6251478 3.8536797 -2.0153246
-11.48565 4.6032362 -1.9598112
-14.814393 5.943337 -1.959903
-25.159344 10.098691 -2.3718562
-27.722908 11.138915 -1.5657873
-27.804876 11.177486 -0.52308357
-7.1759801 2.897826 -2.0736582
-27.713118 11.191195 0.52168733
-8.2066689 3.3157101 -2.0434554
-9.6043577 3.8843102 -2.0137982
-11.48131 4.6457448 -1.9616885
-14.790923 5.9909406 -1.9594156
-25.013159 10.141531 -2.3613977
-27.426706 11.12568 -1.5511332
-27.521122 11.175168 -0.51847613
-7.1627531 2.9201481 -2.072623
-27.425766 11.186667 0.51701009
-8.2058725 3.348753 -2.0461547
-9.591424 3.9161386 -2.0137982
-11.468681 4.6872859 -1.9623141
-14.758897 6.0380244 -1.957953
-24.861378 10.176125 -2.3502417
-27.180714 11.136539 -1.53941
-27.200724 11.155829 -0.51317054
-7.1400123 2.9399846 -2.0689995
-27.135096 11.178736 0.51226306
-8.1995363 3.3796039 -2.0475044
-9.5867691 3.9533372 -2.0157063
-11.448598 4.7257838 -1.9616885
-14.741401 6.091023 -1.9584407
-24.748375 10.230871 -2.3429208
-26.920214 11.139711 -1.5268494
-26.936226 11.157351 -0.50891221
-7.1421919 2.9700825 -2.072623
-26.881742 11.184282 0.50821406
-8.1822939 3.4059591 -2.0461547
-9.5837851 3.9913061 -2.0179961
-11.433855 4.7664781 -1.9620013
-14.712721 6.1393814 -1.9574655
-24.611431 10.280048 -2.3335078
-26.637915 11.131951 -1.5130327
-26.668362 11.155618 -0.50458395
-7.1366014 2.9984851 -2.0741758
-26.610247 11.180451 0.50381607
-8.1685572 3.4337468 -2.0457051
-9.5727119 4.0279288 -2.0187593
-11.42541 4.8121877 -1.9635657
-14.687544 6.1891599 -1.9569781
-24.435881 10.307042 -2.3202603
-26.372456 11.13474 -1.5002627
-26.430315 11.164597 -0.50081426
-7.1349835 3.0271492 -2.0767641
-26.307707 11.166958 0.49885958
-8.1630917 3.4667079 -2.0475044
-9.5477533 4.0567112 -2.0164697
-11.408544 4.8520408 -1.9635657
-14.661107 6.241396 -1.9564906
-24.304436 10.351679 -2.3111959
-26.090908 11.12333 -1.4864459
-26.164827 11.165645 -0.49655586
-7.1172705 3.0489957 -2.0746937
-26.036978 11.159463 0.49446157
-8.1563148 3.497484 -2.0488544
-9.5389452 4.092339 -2.0176144
-11.398796 4.8949518 -1.964817
-14.657469 6.300375 -1.9589281
-24.154671 10.387653 -2.3003886
-25.809767 11.110099 -1.4726292
-25.88328 11.152453 -0.49194846
-7.1030369 3.0722871 -2.0736582
-25.777639 11.154974 0.490273
-8.1476336 3.527482 -2.0497539
-9.5264034 4.1263914 -2.0179961
-11.392513 4.9394264 -1.9666944
-0.92149633 0.39972216 0.12333179
-14.620818 6.3451786 -1.9569781
-24.023232 10.430644 -2.2913244
-25.562012 11.109371 -1.4606967
-25.616814 11.143821 -0.48762023
-7.0993514 3.1001554 -2.0757289
-25.525982 11.15202 0.48622403
-8.1424131 3.5590255 -2.0515537
-9.5227346 4.1643395 -2.0202856
-11.367965 4.9759955 -1.9654428
-0.83281368 0.36471319 0.11163233
-14.587672 6.3913932 -1.9555157
-23.913683 10.482442 -2.2843521
-25.314575 11.107051 -1.4487641
-25.354387 11.135075 -0.48336184
-7.0920224 3.1264749 -2.0767641
