# .PCD v0.7 - Point Cloud Data file format
VERSION 0.7
FIELDS x y z
SIZE 4 4 4
TYPE F F F
COUNT 1 1 1
WIDTH 1445
HEIGHT 1
VIEWPOINT 0 0 0 1 0 0 0
POINTS 1445
DATA ascii
-0.82576227 -0.45791605 -0.14955136
-0.76392847 -0.42345238 0.10724504
-0.81088418 -0.44929561 -0.11382597
-0.83660167 -0.46335435 -0.083669513
-0.79686803 -0.44098437 -0.047730397
-0.8102442 -0.44801709 -0.01616093
-0.83919179 -0.4624947 -0.2567485
-0.81795287 -0.45060343 0.016300548
-0.81084329 -0.44650212 -0.2137035
-0.81361401 -0.44784307 0.048672445
-0.81008112 -0.44589844 -0.17974208
-0.81519938 -0.44853041 0.081403457
-0.81350887 -0.44741505 -0.14704841
-0.77062047 -0.42365229 0.10797625
-0.81592697 -0.44837436 -0.11431345
-0.81027365 -0.44508332 -0.08088053
-0.80540597 -0.44204393 -0.048149083
-0.81530976 -0.44710934 -0.016230738
-0.82384956 -0.45029721 -0.25157213
-0.81952071 -0.44774568 0.016300548
-0.81410706 -0.44460323 -0.21415339
-0.82043141 -0.44787124 0.048986461
-0.80473977 -0.43930519 -0.17821561
-0.80626643 -0.43995598 0.080357596
-0.80986297 -0.44173512 -0.1461098
-0.76686597 -0.418109 0.10724504
-0.81923038 -0.44647324 -0.11455719
-0.80307412 -0.43748674 -0.080008969
-0.79817307 -0.43445536 -0.047625724
-0.80281186 -0.4366174 -0.015951499
-0.8084324 -0.43821248 -0.24639574
-0.805255 -0.43630835 0.015986405
-0.80708635 -0.43711841 -0.21190389
-0.8237462 -0.44595549 0.04909113
-0.79763597 -0.43182006 -0.17630751
-0.79377902 -0.42955291 0.078963101
-0.80445015 -0.43514609 -0.14485833
-0.77181315 -0.41731787 0.10773251
-0.8085593 -0.43700412 -0.11285102
-0.80109048 -0.43278676 -0.079660349
-0.83132064 -0.4487437 -0.04950982
-0.80257118 -0.43286294 -0.015916595
-0.82186818 -0.44179079 -0.25001919
-0.80677313 -0.43349481 0.015986405
-0.80860722 -0.43429846 -0.21190389
-0.8094604 -0.43457496 0.048149083
-0.80605727 -0.43274793 -0.17783399
-0.7882514 -0.42301103 0.078265861
-0.80422342 -0.43140158 -0.14454547
-0.76801676 -0.411807 0.10700129
-0.81882805 -0.43886778 -0.11406972
-0.81664616 -0.43751496 -0.081054844
-0.82583857 -0.44206879 -0.04909113
-0.80584049 -0.43100208 -0.015951499
-0.84045321 -0.44800639 -0.25519559
-0.80475175 -0.42879531 0.015916595
-0.80323815 -0.42780909 -0.21010427
-0.80744666 -0.42986941 0.04793974
-0.81449497 -0.43362182 -0.17936046
-0.81082934 -0.43148872 0.080357596
-0.81793225 -0.43508565 -0.14673555
-0.76594406 -0.4072597 0.10651381
-0.79406148 -0.42203224 -0.11041363
-0.82520628 -0.43840083 -0.081752084
-0.78856575 -0.41858202 -0.04678835
-0.80380684 -0.42631263 -0.015881689
-0.82664049 -0.4369449 -0.25053686
-0.80624354 -0.42598376 0.015916595
-0.80128038 -0.42318234 -0.20920448
-0.80211419 -0.42344365 -0.17630751
-0.81409258 -0.42958575 0.080531903
-0.80022675 -0.4220902 -0.14329399
-0.77087301 -0.40643519 0.10700129
-0.81660342 -0.43036425 -0.1133385
-0.80029041 -0.4215883 -0.079137415
-0.812998 -0.4279204 -0.048149083
-0.83183807 -0.43746588 -0.016405262
-0.81104988 -0.42508879 -0.24536048
-0.85555142 -0.44822273 0.016859025
-0.80965811 -0.42399892 -0.21100408
-0.86174327 -0.45108333 0.050975226
-0.81054479 -0.4242833 -0.17783399
-0.80676043 -0.42212299 0.079660349
-0.8121978 -0.42478719 -0.1451712
-0.77580529 -0.40558141 0.10748877
-0.83041632 -0.43394658 -0.11504468
-0.82648093 -0.43170649 -0.08157777
-0.83927572 -0.43801695 -0.049614493
-0.81562883 -0.42531377 -0.016056214
-0.83481324 -0.43383589 -0.25208977
-0.8358162 -0.43417162 0.016440166
-0.84053457 -0.43643659 -0.21865243
-0.8367219 -0.43427151 0.04940515
-0.82770365 -0.42959094 -0.18126856
-0.81707191 -0.42389166 0.080531903
-0.84348696 -0.43740907 -0.15048997
-0.77897877 -0.40378439 0.10773251
-0.84426385 -0.43743783 -0.11675084
-0.82798272 -0.42881906 -0.08157777
-0.84789485 -0.4387562 -0.050033178
-0.81710863 -0.42246386 -0.016056214
-0.83803988 -0.43180406 -0.25260741
-0.81599349 -0.42026436 0.016021309
-0.82645929 -0.42547211 -0.2146033
-0.83638155 -0.43058023 0.049300473
-0.8204698 -0.4222075 -0.17936046
-0.81677485 -0.42012584 0.080357596
-0.8291977 -0.4263328 -0.14767416
-0.78214914 -0.40196997 0.10797625
-0.83519119 -0.42904586 -0.11528841
-0.84010887 -0.43138683 -0.082623646
-0.8156575 -0.41847163 -0.048044413
-0.82562244 -0.4234021 -0.016195834
-0.84642351 -0.43239149 -0.25467795
-0.83697128 -0.42756286 0.016405262
-0.81571674 -0.41652554 -0.21145399
-0.82364798 -0.42039424 0.048463102
-0.82718498 -0.4220176 -0.18050532
-0.83598554 -0.42632362 0.082100704
-0.81652886 -0.41640139 -0.1451712
-0.77463496 -0.39486662 0.10675755
-0.84191555 -0.42897749 -0.11601962
-0.82918072 -0.4221243 -0.081403457
-0.84670341 -0.43048653 -0.016579786
-0.84440607 -0.42783612 -0.25364268
-0.83845872 -0.42463866 0.016405262
-0.83455223 -0.42247719 -0.21595301
-0.86075234 -0.43555185 0.050556537
-0.85310447 -0.43168193 -0.18584797
-0.88006449 -0.44513112 0.086284183
-0.83384329 -0.42157003 -0.14798702
-0.76892167 -0.38857883 0.1057826
-0.84517974 -0.42693108 -0.11626337
-0.83235455 -0.42027029 -0.08157777
-0.8826822 -0.44529504 -0.051812604
-0.87141478 -0.4392291 -0.017033549
-6.9363346 -3.4840631 -2.07987
-7.9752989 -4.0024433 -2.0601017
-0.85460615 -0.42870137 -0.18584797
-10.890814 -5.4584727 -1.9294629
-0.78624684 -0.39389476 0.10797625
-13.69041 -6.8556476 -1.8799566
-6.9467249 -3.4589684 -2.0793524
-8.0171385 -3.9884658 -2.0673003
-9.4979353 -4.7230835 -2.0618823
-10.945185 -5.4379992 -1.9357203
-0.78939492 -0.39203081 0.10821999
-13.701811 -6.8016424 -1.8782505
-12.823022 -6.3514628 -0.24977884
-6.9535594 -3.4321353 -2.0777996
-8.0117874 -3.9509757 -2.0623512
-9.4791441 -4.6725426 -2.0542498
-10.997769 -5.4163427 -1.9416648
-0.77294856 -0.38050565 0.1057826
-13.746844 -6.764286 -1.8811754
-12.906146 -6.3366284 -0.25096563
-6.9585562 -3.4044459 -2.0757289
-8.022027 -3.9212751 -2.0614514
-9.5218563 -4.6523533 -2.059974
-11.064537 -5.40132 -1.9501122
-0.77427214 -0.3778052 0.1057826
-13.778119 -6.7230182 -1.8823941
-6.9715457 -3.3821948 -2.0762465
-8.0402479 -3.8972011 -2.0628011
-9.5089626 -4.6070552 -2.0538683
-11.137506 -5.3912792 -1.9598112
-0.78266841 -0.37869394 0.10675755
-13.83965 -6.6963115 -1.8877563
-6.9775009 -3.3565452 -2.0746937
-8.049614 -3.8688285 -2.0619013
-9.5171089 -4.5720959 -2.0523417
-0.94651812 -0.45451161 0.09186215
-11.192722 -5.3722658 -1.9663814
-0.78570968 -0.37695506 0.10700129
-12.916072 -6.1938915 -1.7588185
-6.9880114 -3.3301189 -2.0741758
-8.0701075 -3.8440588 -2.0637012
-16.162947 -7.6954846 0.93817443
-9.5515327 -4.5456176 -2.0561578
-0.93018574 -0.44248083 0.090119034
-11.255154 -5.3515644 -1.9738904
-0.78881353 -0.37506253 0.10724504
-7.0048347 -3.3081791 -2.0757289
-8.0911903 -3.8177822 -2.0655005
-15.941756 -7.5186214 0.92372978
-9.5708914 -4.513926 -2.056921
-0.91009849 -0.4290362 0.088027291
-11.314863 -5.3316126 -1.9810863
-0.77940762 -0.3670938 0.1057826
-7.0180893 -3.2845263 -2.0762465
-0.93101102 -0.43552342 0.017941073
-8.0903463 -3.7829101 -2.0619013
-15.723636 -7.3487639 0.90959901
-9.5937033 -4.4838142 -2.0584474
-11.399632 -5.3230042 -1.9926625
-0.77169019 -0.36017308 0.10456391
-13.064034 -6.0946364 -1.7700305
-7.0382738 -3.2640738 -2.0788348
-8.1176472 -3.7612002 -2.0655005
-15.816246 -7.324892 0.91347188
-9.6110773 -4.4511261 -2.0588293
-11.477304 -5.3105531 -2.0029871
-0.78735656 -0.36414343 0.10651381
-13.132078 -6.0706539 -1.7763678
-92.859634 -42.828537 -1.7849624
-7.0443583 -3.2370653 -2.0772817
-8.1271858 -3.7312152 -2.0646007
-15.752771 -7.2288203 0.90834296
-9.6212034 -4.4150929 -2.0576842
-11.564007 -5.3017411 -2.0148761
-0.79584128 -0.36470091 0.10748877
-13.196503 -6.0446172 -1.7822174
-7.048583 -3.2092543 -2.0752113
-8.1401596 -3.7028251 -2.0646007
-15.703938 -7.1434631 0.90415609
-9.6419191 -4.3839169 -2.0588293
-11.639994 -5.2874885 -2.0248878
-0.78987962 -0.35863775 0.10651381
-14.05808 -6.3799858 -1.895556
-7.0597434 -3.184629 -2.0752113
-8.1523943 -3.6758108 -2.0646007
-16.083847 -7.2486243 0.92456704
-9.6571627 -4.3502336 -2.0588293
-11.715102 -5.2748117 -2.0348997
-0.7910645 -0.35601661 0.10651381
-14.035709 -6.313787 -1.8897061
-7.073792 -3.1627769 -2.0762465
-8.1651754 -3.647331 -2.0646007
-16.224506 -7.2473817 0.93126607
-9.6787062 -4.3213868 -2.0603557
-15.97278 -7.1282501 1.5302805
-11.796586 -5.2620511 -2.0458503
-0.78686333 -0.35082781 0.1057826
-14.072168 -6.2712221 -1.891656
-7.0883207 -3.1396317 -2.0772817
-8.1772261 -3.6202338 -2.0646007
-15.926428 -7.0476532 0.91273916
-9.6973219 -4.2891655 -2.0611188
-15.979342 -7.064395 1.5285373
-11.848297 -5.2380786 -2.0517945
-0.79346961 -0.35062355 0.10651381
-14.145547 -6.2477808 -1.8987246
-17.180038 -7.5808797 -1.6428857
-7.0916181 -3.1130025 -2.0752113
-8.1898136 -3.5916677 -2.0646007
-15.946055 -6.9931917 0.91252983
-9.7025023 -4.2530432 -2.0592108
-15.703395 -6.8802381 1.4999503
-11.850224 -5.1895566 -2.0489788
-0.80378115 -0.35183185 0.10773251
-14.181819 -6.2047305 -1.9006745
-17.219685 -7.5302567 -1.6442802
-7.0988975 -3.0866883 -2.0741758
-8.2052526 -3.5660424 -2.0655005
-15.74871 -6.8412027 0.89986449
-9.7154884 -4.2183671 -2.0588293
-15.663348 -6.7976193 1.4938494
-11.86012 -5.1470847 -2.0477273
-0.81040686 -0.35153437 0.10846373
-14.216887 -6.1639848 -1.9026244
-17.234896 -7.4653506 -1.6432343
-7.1137118 -3.0621784 -2.0752113
-8.2153053 -3.5329709 -2.0646007
-15.766339 -6.7802739 0.89944583
-9.7362947 -4.1850576 -2.059974
-15.799823 -6.7881393 1.5044824
-11.852569 -5.0898151 -2.0430343
-0.81175059 -0.3484202 0.10846373
-14.25322 -6.1148286 -1.9043305
-16.196421 -6.9451418 -1.541785
-16.172342 -6.9281354 -0.92205495
-15.985557 -6.8448157 -0.30353224
-7.1208038 -3.0358107 -2.0741758
-15.278887 -6.513845 0.28991938
-8.214426 -3.5003605 -2.0614514
-15.76786 -6.7158103 0.89818978
-9.7598763 -4.1548886 -2.0618823
-15.79592 -6.7212443 1.5018677
-11.869382 -5.0504823 -2.0430343
-0.80924803 -0.34417257 0.10797625
-14.266112 -6.0644226 -1.9033556
-16.198557 -6.8792205 -1.5396932
-15.998305 -6.7842932 -0.30332282
-7.1415086 -3.0166924 -2.0772817
-15.20942 -6.4215808 0.28817415
-8.2337761 -3.4746981 -2.0632513
-15.7452 -6.6413231 0.89557302
-9.7681732 -4.120214 -2.0607371
-15.992534 -6.7423563 1.5184274
-11.885119 -5.0082555 -2.0427215
-0.8269096 -0.34828025 0.11016989
-14.294512 -6.0176682 -1.9043305
-15.075341 -6.3432875 -1.430923
-15.10336 -6.3488679 -0.85862374
-15.088971 -6.3366227 -0.28566098
-7.1448679 -2.9887619 -2.0752113
-15.113666 -6.3190861 0.28594023
-8.2512484 -3.4481897 -2.0646007
-15.700099 -6.5578351 0.89170009
-9.7861204 -4.0876026 -2.0615005
-16.00494 -6.6818886 1.5173815
-11.911644 -4.9705415 -2.0442858
-0.83178461 -0.34691992 0.11065737
-14.326423 -5.9723201 -1.905793
-17.42205 -7.2592392 -1.6512526
-15.151621 -6.300806 -0.2864289
-7.1570411 -2.9645441 -2.0757289
-8.2614346 -3.4186211 -2.0641508
-9.7876282 -4.0481672 -2.0588293
-16.076036 -6.6457696 1.5219135
-11.910666 -4.9213848 -2.041157
-0.83849472 -0.34628776 0.11138859
-14.358193 -5.9268193 -1.9072554
-17.532005 -7.2333302 -1.6592709
-28.852467 -11.892136 -1.6354988
-29.489069 -12.142483 -0.55666196
-7.1691327 -2.9402759 -2.0762465
-29.041842 -11.905007 0.54786599
-8.2733173 -3.3897622 -2.0641508
-16.004255 -6.5540376 0.90635419
-9.8126001 -4.0184407 -2.0611188
-15.999567 -6.5488577 1.5125006
-11.935084 -4.8827734 -2.0424087
-14.393495 -5.8826718 -1.9092052
-17.557146 -7.172092 -1.6592709
-29.559519 -12.063013 -1.6731807
-7.1829324 -2.9166865 -2.0772817
-15.909055 -6.4567633 0.29969272
-8.2851 -3.3608623 -2.0641508
-16.044411 -6.5084376 0.90740091
-9.8356638 -3.9878519 -2.0630269
-15.954007 -6.465281 1.5060512
-11.975858 -4.8507223 -2.0464759
-14.421302 -5.835371 -1.9101802
-17.521122 -7.0861106 -1.6535187
-29.712555 -12.004647 -1.6794609
-7.1966543 -2.8930383 -2.0783172
-15.900691 -6.3920407 0.29913425
-8.2961998 -3.333369 -2.0641508
-16.137461 -6.4806752 0.91137844
-9.8495235 -3.9534967 -2.0630269
-15.963535 -6.4043584 1.5048311
-11.991878 -4.8109822 -2.0464759
-14.453472 -5.7926855 -1.9118865
-17.601242 -7.0471234 -1.6587481
-29.800413 -11.925343 -1.6821826
-7.2026186 -2.8677278 -2.0772817
-15.906187 -6.3298397 0.29882011
-8.3077841 -3.3043892 -2.0641508
-16.309185 -6.4869156 0.91985685
-9.851635 -3.9164612 -2.0607371
-16.193914 -6.4345212 1.5245281
-12.015942 -4.7720094 -2.0477273
-14.479981 -5.7476563 -1.9128615
-17.665258 -7.0048728 -1.6625829
-29.834429 -11.818312 -1.6817639
-7.2031035 -2.8402841 -2.0746937
-15.958714 -6.2895255 0.29941347
-8.3259487 -3.2796776 -2.0659504
-16.603777 -6.5404 0.93524361
-9.8755274 -3.8880851 -2.0630269
-12.022509 -4.7285213 -2.0461631
-14.526673 -5.7105007 -1.9165175
-17.62163 -6.9200368 -1.6563078
-29.839991 -11.706182 -1.6798798
-58.029213 -22.753086 -1.087983
-7.2160816 -2.8177869 -2.0757289
-16.504807 -6.4415956 0.30925664
-8.333148 -3.2506332 -2.0650506
-16.777231 -6.541172 0.94372207
-9.8853807 -3.8521636 -2.0622637
-12.025239 -4.6836085 -2.043973
-14.56687 -5.6676755 -1.9191986
-17.732956 -6.8924112 -1.6645004
-29.951418 -11.629418 -1.6838571
-7.2317667 -2.7934079 -2.0772817
-16.54323 -6.3868203 0.30953586
-8.3340969 -3.2158616 -2.0623512
-16.810413 -6.4832258 0.94424546
-9.9049292 -3.8180242 -2.0634086
-12.055226 -4.6444759 -2.0461631
-14.546786 -5.5985608 -1.9138362
-17.520063 -6.7358479 -1.6421884
-29.792479 -11.442234 -1.6725527
-7.2527843 -2.7710202 -2.0803876
-16.674879 -6.3675194 0.31156036
-8.3549309 -3.1887681 -2.0646007
-9.9053574 -3.7785282 -2.0607371
-12.07586 -4.6016674 -2.0467887
-14.551399 -5.5420966 -1.9118865
-17.593746 -6.693779 -1.6468949
-30.597694 -11.629083 -1.715468
-7.243865 -2.740119 -2.0752113
-8.3763971 -3.1651771 -2.0673003
-9.9215069 -3.7470469 -2.0615005
-12.096599 -4.5636849 -2.0477273
-14.597559 -5.5043168 -1.9155425
-17.806026 -6.7070341 -1.6646746
-30.811804 -11.593677 -1.7253073
-7.2547207 -2.7167594 -2.0757289
-58.708992 -21.973753 1.0941961
-8.3831968 -3.136019 -2.0664005
-9.9412317 -3.7168748 -2.0630269
-12.109814 -4.5228605 -2.0474145
-14.642721 -5.4630418 -1.9189547
-17.728514 -6.6072693 -1.6552618
-30.865055 -11.497014 -1.7261447
-7.2682519 -2.6914945 -2.0767641
-58.665318 -21.724257 1.0919622
-8.3904371 -3.1053817 -2.0655005
-9.9511051 -3.679054 -2.0622637
-12.11334 -4.4736519 -2.0452244
-14.721293 -5.4338961 -1.9267545
-18.059914 -6.6590748 -1.6840231
-30.251022 -11.142202 -1.6895095
-7.2757888 -2.6654425 -2.0762465
-8.4035921 -3.0752802 -2.0659504
-9.9767942 -3.649014 -2.064935
-12.141869 -4.4360886 -2.0474145
-14.782138 -5.3948722 -1.9321167
-18.302046 -6.6758747 -1.7044177
-29.385225 -10.706967 -1.6390576
-7.2923145 -2.6426599 -2.0783172
-8.4051142 -3.0426104 -2.0637012
-9.9765482 -3.6094902 -2.0622637
-12.160995 -4.3950214 -2.0480404
-14.871831 -5.3688536 -1.9413787
-18.143448 -6.5463552 -1.6875095
-29.163126 -10.510874 -1.6246129
-7.2978568 -2.6158867 -2.0772817
-8.4285269 -3.0178487 -2.0668504
-9.9927835 -3.5759661 -2.0630269
-12.183704 -4.3552012 -2.0492916
-14.982085 -5.3496203 -1.9533219
-18.20747 -6.4977145 -1.6913443
-30.821318 -10.98711 -1.7148402
-7.3014812 -2.5884597 -2.0757289
-8.4390106 -2.9884093 -2.0668504
-10.001503 -3.5397551 -2.0622637
-12.204421 -4.3146205 -2.0502305
-15.081157 -5.3257098 -1.9638027
-18.333374 -6.4705887 -1.7009314
-29.367649 -10.353505 -1.6319399
-30.551987 -10.759061 -0.56538814
-7.3122954 -2.563596 -2.0762465
-8.4493895 -2.9589353 -2.0668504
-30.49012 -10.677491 1.6930684
-10.021211 -3.507416 -2.0637903
-12.206352 -4.2674322 -2.0480404
-15.200857 -5.3083754 -1.9769646
-18.410402 -6.4255986 -1.7059865
-30.278685 -10.556004 -1.6805077
-30.755804 -10.71633 7.5192142
-30.663031 -10.684005 -0.56678438
-7.3303251 -2.5412211 -2.0788348
-8.4499483 -2.9277096 -2.0646007
-30.523428 -10.569687 1.6928589
-10.03525 -3.4730537 -2.0641718
-12.220437 -4.2269301 -2.0480404
-15.300933 -5.2864609 -1.9876893
-18.340431 -6.3294454 -1.6974453
-30.483454 -10.514148 -1.6899282
-30.699049 -10.582523 7.4967184
-7.3387122 -2.5168986 -2.0788348
-30.554031 -10.472901 0.56378251
-8.4656477 -2.9000902 -2.0659504
-30.592319 -10.48006 1.694743
-10.046711 -3.4397583 -2.0641718
-30.606207 -10.472881 2.830121
-12.248201 -4.1887217 -2.0502305
-30.601065 -10.459191 3.9707472
-15.428246 -5.2702403 -2.001826
-18.517818 -6.3220196 -1.711913
-30.53887 -10.414129 -1.690975
-30.564695 -10.416983 -0.56364292
-7.3419642 -2.4894049 -2.0772817
-30.588593 -10.371529 0.56378251
-8.4789095 -2.8732517 -2.0668504
-30.590885 -10.360395 1.6926497
-10.045639 -3.4002614 -2.0615005
-30.55954 -10.33789 2.8224516
-12.254539 -4.1455493 -2.0489788
-30.526514 -10.320781 3.9566107
-15.547192 -5.2533631 -2.0149879
-30.590305 -10.330452 5.1138434
-18.552988 -6.2618012 -1.7131332
-30.612705 -10.332066 6.2802877
-30.266655 -10.209386 -1.6740181
-30.548779 -10.298613 7.4427309
-30.449268 -10.259149 -0.56085056
-7.3428531 -2.4625876 -2.0752113
-8.498127 -2.8467319 -2.0690999
-10.060581 -3.3681786 -2.0622637
-12.261441 -4.1002417 -2.0477273
-15.678407 -5.2367954 -2.0296123
-18.553944 -6.1900649 -1.7112159
-30.097479 -10.035443 -1.6627135
-30.374855 -10.116149 -0.55882603
-7.3554978 -2.4368711 -2.0762465
-8.4987621 -2.8139899 -2.0668504
-10.078452 -3.3331287 -2.0634086
-12.270761 -4.0534148 -2.0467887
-15.80969 -5.2193732 -2.0442364
-18.605713 -6.1352444 -1.7140048
-30.160614 -9.9338169 -1.664179
-30.463163 -10.027564 -0.55980337
-7.3694673 -2.4129858 -2.0777996
-8.5016098 -2.780396 -2.0650506
-10.095623 -3.2997603 -2.0645535
-12.28859 -4.0117826 -2.0474145
-15.858913 -5.1712399 -2.0481365
-18.570187 -6.0517406 -1.7087754
-30.977571 -10.083159 -1.7073038
-30.897324 -10.051074 -0.56713343
-7.379683 -2.3878415 -2.0783172
-8.5181999 -2.7545867 -2.0668504
-30.512098 -9.8610258 1.6805077
-10.101475 -3.2626891 -2.0634086
-12.326264 -3.978898 -2.0514817
-15.847632 -5.1094866 -2.0444803
-18.727743 -6.0308576 -1.7213258
-30.862545 -9.9326506 -1.6991395
-82.760056 -26.603237 -1.5173821
-7.3820405 -2.3615899 -2.0767641
-8.5333319 -2.7266169 -2.0681999
-30.569166 -9.7617483 1.6817639
-10.101018 -3.2255898 -2.0611188
-12.340077 -3.9358497 -2.0514817
-15.86159 -5.0529284 -2.0439928
-18.941286 -6.0303717 -1.7391056
-31.251049 -9.9374332 -1.7186083
-82.757118 -26.283918 -1.5156368
-7.3865552 -2.3346431 -2.0757289
-8.542798 -2.6968131 -2.0681999
-30.671623 -9.6766138 1.685532
-10.127194 -3.1950364 -2.0641718
-12.359394 -3.894532 -2.0524204
-15.867767 -4.993957 -2.0425303
-18.909004 -5.9474783 -1.7342249
-31.418926 -9.8701935 -1.7259353
-82.65757 -25.934996 -1.5121464
-7.3965034 -2.3094203 -2.0762465
-8.5465784 -2.6652362 -2.0668504
-10.14016 -3.1602502 -2.0645535
-12.372913 -3.8513656 -2.0524204
-15.873731 -4.9350014 -2.0410681
-19.081863 -5.9287295 -1.7481698
-31.716427 -9.8421478 -1.74038
-82.66671 -25.637074 -1.5107501
-7.4137502 -2.2864342 -2.0788348
-8.5479202 -2.6345837 -2.0650506
-10.162388 -3.1283007 -2.0668433
-12.387506 -3.8108945 -2.0527334
-15.890009 -4.8823347 -2.0410681
-19.121489 -5.8679299 -1.749913
-31.958935 -9.8013344 -1.751894
-24.951757 -7.6428018 -0.45550779
-7.4194441 -2.2612734 -2.0783172
-8.5607929 -2.6058667 -2.0659504
-10.170829 -3.0940123 -2.0664616
-12.395061 -3.7659109 -2.0517945
-15.914553 -4.8291435 -2.042043
-19.26668 -5.8426533 -1.7614175
-32.314087 -9.7869778 -1.7694788
-24.871094 -7.5232401 -0.45355314
-7.4198923 -2.2331336 -2.0762465
-8.5791674 -2.5787728 -2.0681999
-10.174045 -3.0562308 -2.064935
-12.423268 -3.7271588 -2.0542977
-15.914197 -4.7684374 -2.0398493
-19.787025 -5.9251013 -1.8070872
-32.627422 -9.757678 -1.784761
-7.4257903 -2.206671 -2.0757289
-8.5937233 -2.5504713 -2.0695498
-10.173357 -3.0173507 -2.0626454
-12.424839 -3.6804044 -2.0524204
-15.928841 -4.7122936 -2.0396054
-19.891657 -5.8808494 -1.8147568
-32.921799 -9.7206383 -1.7989963
-82.517914 -24.333302 -1.5016749
-7.4390082 -2.1823678 -2.0772817
-24.953714 -7.3158884 0.45390218
-8.596962 -2.518816 -2.0681999
-10.198901 -2.9862339 -2.0656981
-12.433818 -3.6359048 -2.0517945
-15.941384 -4.6555462 -2.0391181
-19.910151 -5.8108249 -1.8145826
-32.955528 -9.6056595 -1.7989963
-30.680378 -8.9367056 7.3774948
-25.090591 -7.3037457 -0.45613611
-7.4502931 -2.1574621 -2.0783172
-24.986782 -7.2309675 0.45404181
-8.5982151 -2.4866259 -2.0664005
-10.203605 -2.9489791 -2.0645535
-12.45023 -3.593576 -2.0524204
-15.968984 -4.6031709 -2.0405805
-19.782892 -5.6988225 -1.8011605
-33.054119 -9.5093384 -1.8025552
-25.065966 -7.2017546 -0.45522857
-7.4577785 -2.1314425 -2.0783172
-25.54641 -7.2963738 0.46374533
-8.6180859 -2.4598062 -2.0690999
-10.213837 -2.9133439 -2.0645535
-12.462698 -3.5500941 -2.0524204
-15.969677 -4.5430579 -2.0386305
-19.959814 -5.6744084 -1.8154541
-33.463688 -9.500824 -1.823071
-25.133278 -7.1262145 -0.45599648
-7.4577355 -2.1032991 -2.0762465
-25.140589 -7.0856438 0.45592666
-8.6209917 -2.4281254 -2.06775
-10.216384 -2.8755448 -2.0630269
-12.482621 -3.5087044 -2.0536718
-15.992299 -4.4922223 -2.0396054
-20.079256 -5.6326785 -1.8245183
-34.092846 -9.5509777 -1.8555192
-25.087448 -7.0234222 -0.45473993
-7.4628086 -2.0780385 -2.0757289
-47.284027 -13.157467 0.8567037
-8.6289959 -2.3995235 -2.06775
-10.229647 -2.8427014 -2.0637903
-12.482765 -3.4641273 -2.0517945
-16.014761 -4.4412875 -2.0405805
-20.293671 -5.6203122 -1.842298
-34.10508 -9.4325428 -1.8544725
-25.183844 -6.9604325 -0.45606631
-7.4715209 -2.053793 -2.0762465
-47.647488 -13.088522 0.86249793
-8.635026 -2.3703792 -2.0673003
-10.250378 -2.8118789 -2.0660799
-12.486565 -3.4206259 -2.0505433
-16.049313 -4.3905954 -2.0430176
-20.500542 -5.6044688 -1.8593806
-34.120762 -9.3151855 -1.8536352
-25.2157 -6.8745909 -0.4562059
-7.4786453 -2.027698 -2.0762465
-48.119438 -13.037704 0.8702119
-8.6319618 -2.3371668 -2.0646007
-10.277186 -2.7806959 -2.0695145
-12.506056 -3.3790793 -2.0517945
-16.051126 -4.3309264 -2.0413115
-20.650791 -5.5681453 -1.8712338
-25.219927 -6.7906942 -1.3687947
-25.328375 -6.8104143 -0.4578115
-7.489409 -2.0025799 -2.0772817
-25.35836 -6.7757845 0.45816058
-8.6438332 -2.3080244 -2.0655005
-10.281139 -2.7432861 -2.0683696
-12.536864 -3.340487 -2.0549233
-16.056555 -4.2723222 -2.0400932
-20.791409 -5.5282798 -1.8822154
-25.285944 -6.7139006 -1.3710976
-25.28241 -6.7035098 -0.45655498
-7.4926181 -1.9754394 -2.0762465
-25.405062 -6.6933393 0.45857942
-8.6631451 -2.2808146 -2.0681999
-10.283058 -2.7053857 -2.0668433
-12.540806 -3.294697 -2.0536718
-16.09441 -4.2222886 -2.0430176
-20.94356 -5.4905319 -1.8942429
-34.34782 -8.9917622 -1.8607527
-25.332739 -6.622303 -0.45704362
-7.4938598 -1.9478154 -2.0746937
-25.381821 -6.5925465 0.45774171
-8.6710529 -2.2505627 -2.0681999
-10.294339 -2.6699672 -2.0672247
-12.548405 -3.2499135 -2.0530462
-16.109051 -4.1660824 -2.0430176
-21.043615 -5.4383345 -1.9015639
-34.433151 -8.8857832 -1.8636836
-25.417667 -6.5497956 -0.45816058
-7.5099688 -1.9240437 -2.0772817
-25.427925 -6.5098639 0.45816058
-8.6826315 -2.221247 -2.0690999
-25.42824 -6.5004816 1.3754938
-10.316912 -2.637418 -2.069896
-12.559672 -3.2060912 -2.0530462
-16.133114 -4.1122808 -2.0442364
-21.149355 -5.3869748 -1.909408
-34.463955 -8.765542 -1.8636836
-25.231054 -6.4078698 -0.45439085
-7.5278788 -1.9006528 -2.0803876
-8.6827736 -2.1890216 -2.0673003
-25.551485 -6.4370575 1.3809367
-10.316536 -2.5989933 -2.0679879
-12.570787 -3.1622298 -2.0530462
-16.162771 -4.0598092 -2.0461864
-21.19895 -5.3208718 -1.9121969
-31.053629 -7.7828531 -1.6777864
-25.544247 -6.3925824 -0.45962656
-7.5232186 -1.8715655 -2.0772817
-8.6865807 -2.157758 -2.0664005
-10.325545 -2.5629656 -2.0679879
-12.589419 -3.1202309 -2.0542977
-16.153721 -3.997643 -2.0432615
-21.244471 -5.2535415 -1.9146372
-31.274509 -7.7222857 -1.6882535
-25.205278 -6.2143407 -0.45313427
-7.529706 -1.8452929 -2.0772817
-25.63843 -6.2784324 0.46074355
-8.7016306 -2.1292753 -2.0681999
-10.319172 -2.5231767 -2.064935
-12.613667 -3.0795457 -2.0564878
-16.177221 -3.9435818 -2.0444803
-21.299461 -5.1883116 -1.9179492
-31.153778 -7.5771961 -1.6802984
-24.682716 -5.994185 -0.44336092
-7.5285897 -1.8171867 -2.0752113
-25.586321 -6.1710763 0.45941716
-8.7127991 -2.0998011 -2.0690999
-10.33746 -2.4894409 -2.0668433
-25.499929 -6.1361141 2.2946362
-12.622419 -3.0350351 -2.056175
-16.187029 -3.8861618 -2.0439928
-21.363939 -5.1250849 -1.9221327
-26.436899 -6.3323002 -1.4246895
-26.259371 -6.2800875 -0.47128481
-7.5367665 -1.7913425 -2.0757289
-25.596033 -6.0789528 0.45920774
-8.7068033 -2.066227 -2.0659504
-10.342266 -2.4524324 -2.0660799
-12.623324 -2.9886832 -2.0546105
-16.215948 -3.8332872 -2.0459425
-21.430174 -5.0619345 -1.9264905
-26.513271 -6.2528162 -1.4276204
-7.5467358 -1.7659016 -2.0767641
-31.188654 -7.2980022 0.55910534
-8.7155056 -2.0377862 -2.0664005
-10.358412 -2.4181013 -2.0676064
-12.638937 -2.9481521 -2.0555491
-16.220837 -3.7776906 -2.0449677
-21.486526 -4.9961171 -1.9299767
-26.218699 -6.0916348 -1.4106635
-7.5600801 -1.7426032 -2.0788348
-31.147682 -7.1738358 0.55791855
-8.7225647 -2.0073509 -2.0664005
-10.35872 -2.3819778 -2.0660799
-12.654927 -2.9053416 -2.0564878
-16.233925 -3.7210498 -2.0449677
-21.543758 -4.9341831 -1.9336373
-26.352728 -6.0259051 -1.4167345
-7.5566969 -1.714066 -2.0762465
-31.000912 -7.0261683 0.55484694
-8.7352209 -1.9781821 -2.06775
-10.359311 -2.344074 -2.0645535
-12.674626 -2.8633261 -2.0580521
-16.242943 -3.6634862 -2.0444803
-21.601669 -4.868144 -1.9372978
-31.174824 -7.0141211 -1.674646
-31.111898 -6.988555 -0.55659217
-7.5607491 -1.6872568 -2.0757289
-31.208715 -6.9588199 0.55812794
-8.7420731 -1.9476781 -2.06775
-10.37318 -2.3091784 -2.0656981
-12.684544 -2.8190656 -2.0580521
-16.267258 -3.609345 -2.0459425
-21.665215 -4.8030648 -1.9414812
-31.374626 -6.9441023 -1.6840665
-30.422348 -6.7166219 8.34795
-7.5722523 -1.662097 -2.0772817
-31.162495 -6.8344231 0.55687135
-8.7526245 -1.9179847 -2.0686498
-10.390766 -2.2750545 -2.0676064
-12.676939 -2.7709744 -2.0552363
-16.287518 -3.5542321 -2.0469177
-21.716885 -4.7350488 -1.9446188
-43.577156 -9.4933939 8.6692162
-31.461126 -6.8481274 -1.6874161
-30.26815 -6.5718565 8.2992916
-7.5761194 -1.6352487 -2.0767641
-31.17248 -6.7226448 0.55662704
-8.7497425 -1.8853681 -2.0664005
-10.392887 -2.2375326 -2.0664616
-12.688465 -2.7271211 -2.0555491
-16.290119 -3.4952738 -2.0456991
-21.764452 -4.6658955 -1.947408
-35.039356 -7.4989972 -1.8779188
-30.48361 -6.5073042 8.3520908
-7.5950103 -1.6115999 -2.0803876
-31.168371 -6.607985 0.5561384
-8.7372046 -1.8507776 -2.0619013
-10.398713 -2.2008314 -2.0660799
-12.709503 -2.6852665 -2.0574262
-16.280855 -3.4338822 -2.0430176
-21.80595 -4.5952406 -1.9496739
-34.971504 -7.356905 -1.8728948
-30.521267 -6.4040298 8.3562326
-7.5892429 -1.5827101 -2.0772817
-31.185371 -6.4979296 0.55603367
-8.7531519 -1.8222536 -2.0641508
-10.396723 -2.1625209 -2.0641718
-12.730404 -2.6432948 -2.0593035
-16.304405 -3.3794515 -2.0444803
-21.845274 -4.5239387 -1.9517657
-34.996967 -7.2347941 -1.8728948
-30.520727 -6.292769 8.3500204
-7.5871515 -1.5546596 -2.0752113
-31.223537 -6.39224 0.55631292
-8.7651863 -1.7928573 -2.0655005
-10.415749 -2.128577 -2.0664616
-48.090324 -9.8190632 4.2941632
-12.739553 -2.5988379 -2.0593035
-16.319992 -3.3233094 -2.0449677
-21.890219 -4.4536142 -1.9543804
-35.014179 -7.1109962 -1.872476
-48.1334 -9.7578621 -0.85726219
-30.523575 -6.1823578 8.3448439
-7.6038947 -1.530453 -2.0783172
-48.109455 -9.6743622 0.8565641
-8.7675705 -1.7614844 -2.0646007
-10.428888 -2.093365 -2.0676064
-12.742737 -2.5531912 -2.0583651
-16.319815 -3.2639818 -2.0435054
-21.94861 -4.3857636 -1.9582151
-35.081882 -6.9973164 -1.8747789
-30.547697 -6.0818648 8.3458796
-7.6129813 -1.50465 -2.0793524
-8.7657156 -1.73089 -2.0628011
-10.43806 -2.057328 -2.0679879
-48.185074 -9.4884806 4.2966037
-12.755011 -2.5116837 -2.0589907
-16.334446 -3.2106144 -2.0439928
-22.002888 -4.3167987 -1.9617014
-35.077454 -6.8755627 -1.8733134
-30.49859 -5.9614754 8.3267269
-7.6217217 -1.4801323 -2.0803876
-8.7736177 -1.7006521 -2.0632513
-10.439042 -2.0215828 -2.0668433
-48.517513 -9.3869085 4.3234477
-12.755941 -2.4656448 -2.0577393
-16.329958 -3.150564 -2.042043
-22.054255 -4.2509747 -1.9650134
-35.116932 -6.7560954 -1.8741508
-30.763958 -5.9019318 8.3935013
-7.6154552 -1.4513501 -2.0772817
-8.785244 -1.6711082 -2.0646007
-10.444106 -1.9847671 -2.0664616
-48.620449 -9.2308836 4.3297229
-12.76447 -2.421103 -2.0577393
-16.344757 -3.0942845 -2.0425303
-22.088535 -4.1776671 -1.9667566
-35.140301 -6.6334805 -1.8741508
-30.845127 -5.8059521 8.4100666
-7.6204753 -1.4247564 -2.0772817
-8.800602 -1.6422211 -2.0668504
-10.44904 -1.9479355 -2.0660799
-12.774786 -2.3768961 -2.0580521
-16.36717 -3.0393865 -2.0439928
-22.134329 -4.1063523 -1.9695455
-35.108253 -6.5005946 -1.87122
-30.538448 -5.6379209 8.3210325
-7.6159024 -1.3964053 -2.0746937
-8.8062811 -1.6114911 -2.0668504
-10.461571 -1.9125087 -2.0672247
-48.907143 -8.9320421 4.3495946
-12.781062 -2.3319311 -2.0577393
-16.393303 -2.98508 -2.0459425
-22.19165 -4.0369081 -1.9733802
-35.16217 -6.3837123 -1.8728948
-7.6378417 -1.3728896 -2.0793524
-8.7984257 -1.5783305 -2.0637012
-28.403904 -5.090198 1.5123
-10.485575 -1.8790958 -2.0706592
-12.779402 -2.2855637 -2.056175
-16.391897 -2.9257493 -2.0444803
-22.256605 -3.968513 -1.9779123
-35.20784 -6.2651324 -1.8741508
-7.6444898 -1.3465551 -2.07987
-8.8153982 -1.5496329 -2.0664005
-28.393957 -4.9861889 1.5108346
-10.474668 -1.8394291 -2.0672247
-48.72105 -8.5469999 4.3276315
-12.800921 -2.2433279 -2.0583651
-16.390278 -2.8664567 -2.0430176
-22.303686 -3.8966272 -1.9808756
-28.012415 -4.8839111 -1.4902141
-7.6434331 -1.3188771 -2.0783172
-27.925859 -4.8135915 0.49463609
-8.8207531 -1.5188538 -2.0664005
-27.917131 -4.8020611 1.4845619
-10.471349 -1.8011899 -2.0653167
-12.808674 -2.1986332 -2.0583651
-16.415836 -2.8119071 -2.0449677
-22.344646 -3.8234582 -1.9833159
-27.972198 -4.77635 -1.4871787
-27.976448 -4.7670264 -0.49536911
-7.6422758 -1.2912209 -2.0767641
-28.05883 -4.735724 0.49669549
-8.8413744 -1.490646 -2.0699997
-28.296118 -4.7656093 1.5038215
-10.477573 -1.7646244 -2.0653167
-12.79679 -2.150635 -2.0552363
-16.429468 -2.7552483 -2.0454552
-22.389299 -3.7507045 -1.9861051
-35.275452 -5.8967638 -1.8743602
-7.6505485 -1.2651685 -2.0777996
-8.8369102 -1.4581881 -2.06775
-28.424908 -4.6853294 1.5097878
-10.483669 -1.7280421 -2.0653167
-12.800322 -2.1053083 -2.0546105
-16.442902 -2.6985242 -2.0459425
-22.453373 -3.6809022 -1.9906371
-35.276112 -5.7703686 -1.8733134
-7.664453 -1.2399979 -2.0803876
-8.8342505 -1.4260901 -2.0659504
-28.427288 -4.5838528 1.5090551
-10.497391 -1.6926868 -2.0668433
-12.801742 -2.0596752 -2.0536718
-16.444382 -2.6398525 -2.0449677
-22.519201 -3.6110251 -1.9953436
-35.288151 -5.645925 -1.8728948
-90.140755 -14.389818 -1.5933349
-7.6627989 -1.213668 -2.0788348
-8.8370047 -1.3964843 -2.0655005
-10.495189 -1.656642 -2.0653167
-12.83582 -2.0215139 -2.0580521
-16.449125 -2.5846896 -2.0444803
-22.560577 -3.540962 -1.9979583
-35.33036 -5.5325894 -1.8741508
-7.6688976 -1.1872076 -2.0793524
-8.8418264 -1.3656266 -2.0655005
-10.493147 -1.6187992 -2.0637903
-12.833036 -1.9751933 -2.0564878
-16.469818 -2.5290668 -2.0459425
-22.60037 -3.4664176 -2.0003986
-35.325764 -5.4056034 -1.8728948
-7.6653538 -1.1592771 -2.0772817
-8.8542471 -1.3359174 -2.0673003
-10.512322 -1.5842117 -2.0664616
-12.832039 -1.9292103 -2.0552363
-16.480509 -2.4718511 -2.0461864
-22.661592 -3.3948853 -2.0047565
-35.372074 -5.2863922 -1.8743602
-7.6712656 -1.132795 -2.0777996
-8.8624849 -1.3071165 -2.0681999
-10.519731 -1.5477926 -2.0668433
-12.846184 -1.8877954 -2.0564878
-16.48665 -2.4168975 -2.0459425
-22.734419 -3.324703 -2.01016
-35.397312 -5.1702189 -1.8747789
-7.6807156 -1.1081772 -2.0793524
-8.8534908 -1.2742313 -2.0650506
-10.524806 -1.5128989 -2.0668433
-12.852695 -1.8429451 -2.0564878
-16.494987 -2.3593333 -2.0459425
-22.804489 -3.2577467 -2.0153892
-35.403282 -5.0449362 -1.8741508
-7.6902761 -1.0821671 -2.0809052
-8.8673172 -1.2462208 -2.0673003
-10.526134 -1.4756058 -2.0660799
-12.876342 -1.8027785 -2.0593035
-16.490925 -2.302973 -2.0444803
-22.849268 -3.1827967 -2.0183527
-35.411903 -4.926405 -1.8737321
-7.6842537 -1.0553448 -2.0783172
-8.8735437 -1.2155248 -2.06775
-10.53486 -1.4412237 -2.0668433
-12.866898 -1.7556838 -2.0568006
-16.502796 -2.2459335 -2.0449677
-22.914978 -3.1145205 -2.0232334
-35.448673 -4.8054543 -1.8747789
-7.6840601 -1.0280045 -2.0772817
-8.8758011 -1.1842848 -2.0673003
-10.535933 -1.4039224 -2.0660799
-12.865116 -1.709718 -2.0555491
-16.522345 -2.1898789 -2.0464303
-22.984964 -3.042356 -2.0284626
-35.485035 -4.684299 -1.8758256
-7.6971803 -1.0024213 -2.07987
-8.8856783 -1.1540501 -2.0686498
-10.544664 -1.3676414 -2.0668433
-12.869046 -1.6645494 -2.0552363
-16.531857 -2.1324456 -2.046674
-23.03153 -2.9626665 -2.0316002
-35.489285 -4.558877 -1.8751975
-7.7046361 -0.9746896 -2.0809052
-8.885787 -1.1225356 -2.06775
-10.54571 -1.3284956 -2.0660799
-12.869182 -1.6166288 -2.0542977
-16.517534 -2.0720112 -2.0439928
-23.099064 -2.8894243 -2.0366554
-35.541431 -4.4332209 -1.8770815
-7.7137442 -0.94849658 -2.0824583
-8.8782349 -1.088539 -2.0650506
-10.546385 -1.2911987 -2.0653167
-12.882588 -1.5726572 -2.0555491
-16.517134 -2.0104938 -2.0430176
-23.186144 -2.8181565 -2.0434535
-35.576511 -4.3115325 -1.8781283
-7.713172 -0.92110461 -2.081423
-8.8974609 -1.0593845 -2.0686498
-10.550829 -1.2543743 -2.0653167
-12.897808 -1.5288414 -2.0571134
-16.527994 -1.9532955 -2.0435054
-23.259157 -2.7446754 -2.0490315
-35.587379 -4.1868534 -1.8779188
-7.7048254 -0.89284241 -2.0783172
-8.9011049 -1.0283177 -2.0686498
-10.562944 -1.2184396 -2.0668433
-12.895217 -1.4829041 -2.0558619
-16.540627 -1.8962679 -2.0442364
-23.314125 -2.6686742 -2.0530407
-35.629559 -4.0657825 -1.8793843
-7.713654 -0.86658883 -2.07987
-8.9083405 -0.99923128 -2.0695498
-10.567134 -1.1815603 -2.0668433
-12.890247 -1.4390407 -2.0542977
-16.564581 -1.8433821 -2.0464303
-23.408449 -2.5967216 -2.0605359
-35.619022 -3.9449685 -1.8781283
-7.7356911 -0.84309751 -2.0850463
-8.905961 -0.96749759 -2.0681999
-10.582705 -1.1477816 -2.0691328
-12.903048 -1.3948823 -2.0555491
-16.566967 -1.7851238 -2.0459425
-23.436741 -2.5212123 -2.0622792
-35.644493 -3.8218875 -1.8787564
-7.7385864 -0.81608957 -2.0850463
-8.9110575 -0.93816477 -2.0686498
-10.578835 -1.1100143 -2.0676064
-12.895814 -1.3508575 -2.0536718
-16.564898 -1.7293508 -2.0449677
-23.429546 -2.4377432 -2.0608847
-35.649029 -3.7028384 -1.8783377
-7.7316413 -0.78944153 -2.0824583
-8.9200954 -0.90764314 -2.0699997
-10.57074 -1.0737367 -2.0653167
-12.912243 -1.3070247 -2.0555491
-16.566885 -1.6711233 -2.0444803
-23.362169 -2.3524482 -2.054261
-35.649807 -3.5771801 -1.8777096
-7.7247362 -0.76150221 -2.07987
-8.934845 -0.87764341 -2.0726991
-10.590055 -1.0383662 -2.0683696
-12.916727 -1.2619442 -2.0555491
-16.564714 -1.61251 -2.0435054
-23.330576 -2.26703 -2.0507746
-35.737625 -3.4600301 -1.8816872
-7.7350407 -0.7352643 -2.0819407
-8.9262142 -0.84534913 -2.0699997
-10.593615 -1.0013933 -2.0683696
-12.91712 -1.2164779 -2.0549233
-16.566288 -1.5543071 -2.0430176
-23.310957 -2.1789076 -2.0483341
-35.773346 -3.3374867 -1.8829432
-7.7338357 -0.70655733 -2.0809052
-8.9213476 -0.81347758 -2.0681999
-10.601125 -0.96291167 -2.0691328
-12.921492 -1.1691259 -2.0549233
-16.571613 -1.4964701 -2.0430176
-23.33033 -2.0985944 -2.0493801
-35.729633 -3.2013655 -1.8800124
-7.7420282 -0.68006384 -2.0824583
-8.9359169 -0.78179049 -2.0708995
-10.596597 -0.92522013 -2.0676064
-12.92943 -1.1243563 -2.0555491
-16.561165 -1.4343514 -2.0410681
-23.337513 -2.017143 -2.0493801
-35.772434 -3.0793576 -1.8816872
-7.7462802 -0.65319705 -2.0829759
-8.9405336 -0.75075853 -2.0713491
-10.59585 -0.88789725 -2.0668433
-12.929338 -1.0788914 -2.0549233
-16.570028 -1.3768619 -2.0415554
-23.312641 -1.9330381 -2.046591
-35.814808 -2.9570982 -1.8833618
-7.733108 -0.6249103 -2.0788348
-8.9489269 -0.72001433 -2.0726991
-10.610626 -0.85184526 -2.0691328
-12.913336 -1.0321789 -2.0517945
-16.582647 -1.3196465 -2.0425303
-23.319246 -1.8516495 -2.046591
-35.840847 -2.8333302 -1.8841994
-7.7467995 -0.59880424 -2.0819407
-8.9513865 -0.68877208 -2.0726991
-10.607663 -0.81435347 -2.0679879
-12.91686 -0.98709619 -2.0517945
-16.591112 -1.262055 -2.0430176
-23.329542 -1.7705343 -2.0469398
-35.858482 -2.7088058 -1.884618
-7.7545214 -0.57354057 -2.0834932
-8.9477911 -0.65865487 -2.0713491
-10.616179 -0.77960366 -2.0691328
-12.924003 -0.94454449 -2.0524204
-16.607086 -1.2078934 -2.0444803
-23.323656 -1.6882299 -2.0458939
-35.851334 -2.5887277 -1.8837807
-7.7642803 -0.54565471 -2.0855639
-8.9480906 -0.6272828 -2.0708995
-10.618965 -0.74068809 -2.0691328
-12.931318 -0.89744258 -2.0530462
-16.591396 -1.1485451 -2.042043
-23.341335 -1.6076257 -2.0469398
-35.888477 -2.4592197 -1.885246
-7.7603545 -0.51816452 -2.0840108
-8.9600534 -0.59512579 -2.073149
-10.601895 -0.70232087 -2.0653167
-12.93043 -0.8520382 -2.0524204
-16.607191 -1.0914079 -2.0435054
-23.346804 -1.5261388 -2.0469398
-35.900826 -2.3341885 -1.8854553
-7.7523913 -0.49181563 -2.081423
-8.961977 -0.56540954 -2.073149
-10.615923 -0.66789919 -2.0676064
-12.933186 -0.80915421 -2.0524204
-16.618643 -1.0368242 -2.0444803
-23.347757 -1.4484619 -2.046591
-35.908371 -2.2151229 -1.8854553
-7.7578359 -0.46633658 -2.0824583
-53.747345 -3.2214293 0.93984699
-8.9638033 -0.53568709 -2.073149
-10.620039 -0.63280821 -2.0679879
-12.941712 -0.76661164 -2.053359
-16.628105 -0.97915757 -2.0452116
-23.356413 -1.3712627 -2.0469398
-35.927483 -2.0967312 -1.8860834
-7.7671318 -0.43969035 -2.0845287
-53.68639 -3.0297387 0.93859041
-8.9558887 -0.50384885 -2.0708995
-10.628064 -0.59606296 -2.0691328
-12.958116 -0.72220415 -2.0555491
-16.625477 -0.920775 -2.0444803
-23.369013 -1.2901695 -2.047637
-35.966492 -1.9730575 -1.8877583
-7.7763357 -0.41298491 -2.0865991
-53.768524 -2.8461237 0.93984699
-8.9556475 -0.47248101 -2.0704496
-10.63008 -0.5589602 -2.0691328
-12.966475 -0.67727625 -2.0564878
-16.62859 -0.86273915 -2.0444803
-23.381542 -1.2049133 -2.0483341
-35.989117 -1.8483262 -1.8885956
-7.7777972 -0.3844803 -2.0865991
-8.9689207 -0.4417921 -2.073149
-10.624213 -0.51961142 -2.0676064
-12.968871 -0.62974703 -2.0564878
-16.629517 -0.80459291 -2.0442364
-23.389587 -1.1234851 -2.0486827
-35.979687 -1.7156452 -1.8877583
-7.7636533 -0.356619 -2.0824583
-8.9782667 -0.40927118 -2.0749483
-10.629885 -0.48270062 -2.0683696
-12.95915 -0.58393943 -2.0546105
-16.642269 -0.74407631 -2.0454552
-23.393366 -1.0418328 -2.0486827
-35.953533 -1.5886221 -1.8860834
-7.7764311 -0.3300097 -2.0855639
-8.979641 -0.37792844 -2.0749483
-10.637389 -0.44584137 -2.0695145
-12.965057 -0.53886372 -2.0552363
-16.642782 -0.68590117 -2.0452116
-23.380936 -0.9595142 -2.0472884
-36.030697 -1.4660418 -1.8898515
-7.7891188 -0.3033137 -2.0886698
-8.9672737 -0.34605718 -2.071799
-10.648691 -0.40908125 -2.0714226
-12.966859 -0.49360669 -2.0552363
-16.660944 -0.62840092 -2.0471613
-23.412016 -0.87894499 -2.0497289
-35.991688 -1.3386282 -1.8875488
-7.7785459 -0.27571008 -2.0855639
-8.9722672 -0.31645578 -2.0726991
-10.634356 -0.37135944 -2.0683696
-12.976321 -0.4508782 -2.0564878
-16.666903 -0.57328355 -2.0476489
-23.406975 -0.79693902 -2.0490315
-36.02787 -1.2203486 -1.8892236
-7.7871404 -0.25016364 -2.0876343
-8.9811077 -0.28538209 -2.0744987
-10.639455 -0.33621621 -2.0691328
-12.981765 -0.40570271 -2.0571134
-16.668802 -0.51510125 -2.0476489
-23.393559 -0.71882945 -2.047637
-36.019932 -1.0942155 -1.8885956
-7.7783117 -0.22270328 -2.0850463
-8.9859457 -0.25414041 -2.0753984
-10.630752 -0.29880199 -2.0672247
-12.979153 -0.36027542 -2.0564878
-16.682405 -0.45724303 -2.0491114
-23.395926 -0.63716006 -2.047637
-36.007557 -0.968054 -1.8877583
-7.7771106 -0.19550179 -2.0845287
-8.9789858 -0.22257861 -2.0735989
-10.653319 -0.26222304 -2.0714226
-12.972432 -0.3147724 -2.0552363
-16.693823 -0.39924461 -2.0503302
-23.429876 -0.55624509 -2.050426
-36.0826 -0.84403861 -1.8915263
-7.7816076 -0.1684368 -2.0855639
-8.9796743 -0.1928038 -2.0735989
-10.656132 -0.22507554 -2.0718043
-12.97933 -0.27187613 -2.056175
-16.695055 -0.34388304 -2.0503302
-23.435659 -0.47454181 -2.0507746
-36.049255 -0.72365695 -1.8896422
-7.7898498 -0.14277242 -2.0876343
-8.9880867 -0.16159545 -2.0753984
-10.654858 -0.18970194 -2.0714226
-12.978224 -0.22653641 -2.0558619
-16.69417 -0.28556991 -2.0500863
-23.445072 -0.39695778 -2.0514719
-36.111473 -0.5988009 -1.8927823
-7.7903004 -0.11558155 -2.0876343
-8.9846983 -0.13016346 -2.0744987
-10.641712 -0.15231396 -2.0687513
-12.994738 -0.18145287 -2.0583651
-16.691095 -0.22724016 -2.0495987
-23.430378 -0.31490195 -2.0500774
-36.161274 -0.47337979 -1.8952944
-7.7887244 -0.088365488 -2.0871167
-8.9909439 -0.098866403 -2.0758483
-10.653957 -0.11529369 -2.0710409
-12.987391 -0.13600856 -2.0571134
-16.711637 -0.16917646 -2.0520363
-23.447273 -0.23327065 -2.0514719
-36.162704 -0.34714949 -1.8952944
-7.7754631 -0.061068941 -2.0834932
-8.9892864 -0.067466676 -2.0753984
-10.652332 -0.07808651 -2.0706592
-12.989761 -0.090689801 -2.0574262
-16.720064 -0.11089312 -2.0530112
-23.455912 -0.15147938 -2.0521691
-36.183666 -0.22103696 -1.8963412
-7.7891517 -0.033985931 -2.0871167
-8.9816713 -0.036056258 -2.0735989
-10.646649 -0.040879544 -2.0695145
-12.988024 -0.045336168 -2.0571134
-16.708441 -0.052494626 -2.0515487
-23.484192 -0.069678545 -2.0546095
-36.144272 -0.094634078 -1.8942477
-7.7988825 -0.0068065776 -2.089705
-8.9914865 -0.0047068619 -2.0758483
-10.656545 -0.0037212209 -2.0714226
-12.999955 1.1364922e-06 -2.0589907
-16.710505 0.0058301925 -2.0517924
-23.472338 0.012291399 -2.0535636
-36.16436 0.031560622 -1.8952944
-7.7891998 0.020391574 -2.0871167
-8.9972935 0.026694763 -2.077198
-10.656493 0.033477381 -2.0714226
-12.99395 0.045356028 -2.0580521
-16.718323 0.064195648 -2.0527673
-23.480122 0.094252124 -2.054261
-36.136066 0.15767659 -1.8938291
-7.7890806 0.047581047 -2.0871167
-8.999094 0.058113851 -2.0776479
-10.660237 0.070701614 -2.0721858
-13.007539 0.090809993 -2.0602422
-16.725939 0.1226078 -2.0537424
-23.467695 0.1761234 -2.0532148
-36.215183 0.28443387 -1.898016
-7.7927313 0.07480704 -2.0881522
-8.9929905 0.089468293 -2.0762982
-10.655999 0.10787291 -2.0714226
-12.991341 0.13604909 -2.0577393
-16.733349 0.18107785 -2.0547173
-23.482876 0.25821579 -2.0546095
-36.229946 0.41102901 -1.8988533
-7.7866273 0.10193264 -2.0865991
-8.9829016 0.11916073 -2.0740488
-10.667336 0.14522929 -2.0737123
-12.996744 0.17921141 -2.0586779
-16.728685 0.23651116 -2.0542297
-23.473864 0.34006998 -2.0539122
-36.252354 0.53152239 -1.9001095
-7.8036299 0.12803899 -2.0912578
-82.524086 1.3684299 1.4406613
-8.9960709 0.15074284 -2.077198
-10.658944 0.18047012 -2.0721858
-13.00394 0.22471118 -2.0599291
-16.725773 0.29486918 -2.0539861
-23.476591 0.41797647 -2.054261
-36.218323 0.65748441 -1.8984346
-7.7973413 0.15516289 -2.089705
-9.0013676 0.18069175 -2.0785477
-10.650397 0.21751562 -2.0706592
-13.007073 0.26791444 -2.060555
-16.740582 0.35066551 -2.0559361
-23.490923 0.5002681 -2.0556552
-36.215942 0.77758646 -1.8984346
-7.7890587 0.18083988 -2.0876343
-9.0045767 0.21220335 -2.0794475
-10.66532 0.2532056 -2.0737123
-13.002109 0.31322116 -2.0599291
-16.743225 0.40919235 -2.0564234
-23.504971 0.58265936 -2.0570498
-36.348778 0.90738052 -1.9055523
-7.7902756 0.20943722 -2.0881522
-8.9901447 0.2432673 -2.0762982
-10.67217 0.29250702 -2.0752387
-12.991 0.36060035 -2.0583651
-16.761539 0.46818936 -2.0588608
-23.486856 0.66424787 -2.0556552
-36.261356 1.0382079 -1.9011561
-7.7914276 0.23668794 -2.0886698
-8.9911413 0.27627409 -2.0767481
-10.675008 0.32987964 -2.0760019
-12.989662 0.4059456 -2.0583651
-16.747805 0.52924442 -2.0573983
-23.520243 0.74736804 -2.0587931
-36.313404 1.1665653 -1.9040868
-7.7982764 0.26414543 -2.0907402
-8.995965 0.30785754 -2.0780978
-10.665944 0.36687076 -2.0744755
-12.996063 0.4515602 -2.0596163
-16.75379 0.58798087 -2.0583735
-23.529436 0.82988638 -2.0598388
-36.349033 1.2947387 -1.9061804
-7.7992373 0.29143727 -2.0912578
-8.9987307 0.33940247 -2.0789976
-10.652827 0.40365386 -2.0721858
-13.010199 0.49752641 -2.0621192
-16.757586 0.64668906 -2.0591044
-23.542324 0.91263807 -2.0612333
-36.35627 1.4220821 -1.9068084
-7.7885218 0.31826577 -2.0886698
-9.0052786 0.37113515 -2.0807972
-10.6592 0.44116175 -2.0737123
-12.990621 0.54219651 -2.0593035
-16.761179 0.70542693 -2.0598357
-23.550938 0.99531037 -2.0622792
-36.355076 1.5491601 -1.9070178
-7.791223 0.34562042 -2.089705
-8.994195 0.40213227 -2.0785477
-10.653671 0.47818828 -2.0729489
-12.986675 0.58744997 -2.0589907
-16.760597 0.76402497 -2.0600796
-23.555283 1.0778774 -2.0629764
-36.381367 1.6775178 -1.9086925
-7.7957578 0.373092 -2.0912578
-85.232735 4.0940261 1.4894582
-8.9830036 0.4330543 -2.0762982
-10.65586 0.51556373 -2.0737123
-12.996384 0.63335252 -2.060868
-16.751879 0.82223415 -2.0593483
-23.571274 1.161075 -2.0647194
-36.411194 1.8062845 -1.9105766
-92.506531 4.6214275 -1.616721
-7.7982669 0.40050226 -2.0922933
-8.9892216 0.464811 -2.0780978
-10.653996 0.55275935 -2.0737123
-12.994094 0.67871493 -2.060868
-16.764767 0.88153857 -2.0612984
-23.551163 1.2425023 -2.0633252
-36.412643 1.933797 -1.9109952
-7.7948928 0.42761341 -2.0917757
-8.9933815 0.4965089 -2.0794475
-10.648081 0.58972591 -2.0729489
-13.001508 0.72462171 -2.0624323
-16.763569 0.94016069 -2.061542
-23.578508 1.3265004 -2.0661139
-36.397697 2.06043 -1.9105766
-7.789495 0.45459512 -2.0907402
-8.9935389 0.52801526 -2.0798974
-10.649878 0.62712222 -2.0737123
-12.996925 0.76988447 -2.0621192
-16.772074 0.99937975 -2.0630045
-23.573734 1.4087974 -2.0661139
-36.406235 2.1884377 -1.911414
-7.7878604 0.481783 -2.0907402
-8.9917383 0.55783635 -2.0798974
-10.655459 0.66478258 -2.0752387
-12.976559 0.8118701 -2.0593035
-16.772629 1.0552423 -2.0634918
-23.576626 1.4915748 -2.0668113
-36.45459 2.3126862 -1.9143449
-7.7881479 0.5077318 -2.0912578
-8.9839039 0.58883578 -2.0785477
-10.637526 0.69908422 -2.0721858
-12.977587 0.85741949 -2.0599291
-16.772806 1.1140509 -2.0639794
-23.567575 1.5694857 -2.0664625
-36.470203 2.4415329 -1.9156008
-7.7901831 0.53517765 -2.0922933
-8.9856806 0.62046057 -2.0794475
-10.646772 0.73702312 -2.0744755
-12.990281 0.90381181 -2.0624323
-16.764854 1.1723115 -2.0634918
-23.593752 1.6539721 -2.0692515
-36.413643 2.5654464 -1.9130887
-7.7901945 0.56250656 -2.0928109
-8.9873476 0.65210497 -2.0803473
-10.632385 0.7733286 -2.0721858
-12.979165 0.9485752 -2.0611808
-16.792336 1.2331513 -2.0673916
-23.599758 1.7371979 -2.0702975
-36.504059 2.6999052 -1.9183224
-7.7785511 0.58896869 -2.0902226
-8.9929094 0.6824947 -2.0821469
-10.645281 0.8116346 -2.0752387
-12.979887 0.99191195 -2.0618064
-16.79607 1.2894384 -2.0683665
-23.625334 1.8220121 -2.0730865
-36.447117 2.8172495 -1.9158102
-7.7746301 0.61460632 -2.089705
-8.9904728 0.71387982 -2.0821469
-10.654273 0.84786606 -2.0775285
-12.976346 1.0372114 -2.0618064
-16.807297 1.3493311 -2.0703166
-23.646967 1.9025844 -2.0755267
-36.49678 2.9492836 -1.9189503
-7.7801385 0.64237905 -2.0917757
-8.9762726 0.74429214 -2.0794475
-10.655162 0.88537669 -2.0782917
-12.980521 1.0831585 -2.0630579
-16.810398 1.4086508 -2.0712914
-23.628271 1.9841224 -2.074481
-36.573833 3.0840397 -1.923556
-7.7874722 0.67035961 -2.0943637
-8.9813862 0.77629429 -2.0812473
-10.636358 0.92120725 -2.0752387
-12.984533 1.1291504 -2.0643096
-16.801424 1.4669766 -2.0708041
-23.680744 2.0717983 -2.0797102
-36.662323 3.2204266 -1.9287894
-7.7773886 0.69684952 -2.0922933
-8.9922085 0.80886066 -2.0843966
-10.633079 0.9583298 -2.0752387
-12.986414 1.1749992 -2.065248
-16.812016 1.5270566 -2.0727541
-23.657494 2.1529973 -2.0783157
-36.65086 3.3483922 -1.9287894
-7.7710605 0.72363532 -2.0912578
-8.9873896 0.84006333 -2.0839467
-10.637488 0.9961729 -2.0767653
-12.980268 1.2201385 -2.0649352
-16.816465 1.5866611 -2.0739727
-36.658829 3.4781857 -1.9298362
-7.760797 0.75001216 -2.0891874
-8.9785833 0.87086576 -2.0825968
-10.637854 1.0336787 -2.0775285
-12.977895 1.2656327 -2.065248
-16.834532 1.6476727 -2.0768976
-23.66568 2.3204384 -2.0804076
-36.626591 3.6041729 -1.9287894
-7.7735095 0.77864015 -2.0933285
-8.9774275 0.90239459 -2.0830467
-10.645902 1.0719858 -2.0798182
-12.977328 1.3113209 -2.0658739
-16.816828 1.705225 -2.0754352
-36.613785 3.7320027 -1.9287894
-7.7822728 0.80696577 -2.0964344
-8.9860163 0.93336821 -2.085746
-10.634283 1.1083266 -2.0782917
-12.986661 1.3557843 -2.0680637
