# .PCD v0.7 - Point Cloud Data file format
VERSION 0.7
FIELDS x y z
SIZE 4 4 4
TYPE F F F
COUNT 1 1 1
WIDTH 1473
HEIGHT 1
VIEWPOINT 0 0 0 1 0 0 0
POINTS 1473
DATA ascii
54.197361 -69.921188 1.544189
3.7192273 -4.7999859 -1.4018949
3.7737348 -4.8720894 -1.197899
4.0601153 -5.2456021 -1.050614
4.1802602 -5.4047246 -0.83894861
4.524941 -5.852478 -0.64721853
5.4815278 -7.0948262 -0.46987227
3.4587297 -4.4928741 -1.5192679
54.033501 -70.18927 1.5461435
3.6807084 -4.7829494 -1.3933468
3.7997894 -4.9412594 -1.2116373
3.9584246 -5.1494083 -1.0287131
4.1320829 -5.3792009 -0.83285517
4.5214691 -5.8903637 -0.64965892
3.5435476 -4.6347675 -1.5632671
53.776024 -70.361565 1.5457946
3.6864691 -4.825191 -1.4018949
3.8036399 -4.9803567 -1.2181247
4.0446887 -5.2998118 -1.0559328
4.1409674 -5.4298964 -0.8384611
4.5502276 -5.9687042 -0.65663135
5.1450534 -6.7538471 -0.44496036
3.4946437 -4.6040225 -1.5487732
53.542179 -70.564781 1.5461435
3.7225981 -4.9078989 -1.4221406
3.8799393 -5.1171923 -1.2482725
4.0034981 -5.2839828 -1.0499883
4.1303763 -5.4553967 -0.84016734
4.5449963 -6.0052037 -0.6588974
3.4680877 -4.6023078 -1.5441145
53.338844 -70.808746 1.5474001
3.4088678 -4.5270071 -1.3083154
3.8148253 -5.0679626 -1.2330078
4.097836 -5.447897 -1.0797108
4.2126889 -5.6046605 -0.86088508
4.5252032 -6.022625 -0.65907168
4.4166341 -5.8824043 -0.38550669
24.774853 -33.021004 -0.72057498
3.4763036 -4.6468706 -1.5549849
53.160816 -71.087387 1.5494246
3.4455504 -4.6091151 -1.3285609
3.8782012 -5.1897612 -1.2593395
3.9665117 -5.3118033 -1.0499883
4.3391223 -5.8150225 -0.89086497
4.4898582 -6.0192199 -0.65697998
5.2662172 -7.0651722 -0.46181253
3.3587017 -4.5224953 -1.5094327
52.902813 -71.259682 1.5491455
3.6942267 -4.9779091 -1.4311386
3.8050852 -5.1291604 -1.2414035
4.1220512 -5.5604773 -1.0962929
4.1250129 -5.5685344 -0.85089183
4.4628911 -6.0268502 -0.65610844
3.3474801 -4.5404115 -1.5115032
52.713066 -71.524399 1.5508907
3.7299976 -5.0629454 -1.4518342
3.8279057 -5.1977396 -1.25476
3.9281616 -5.3377748 -1.0496755
4.1937532 -5.7028418 -0.86917222
4.5669146 -6.2125545 -0.6745854
5.2427783 -7.1371765 -0.46411529
2.9083135 -3.9737062 -1.3194594
52.479618 -71.730553 1.5513793
3.7761364 -5.1651082 -1.2436931
3.8360927 -5.2509642 -1.0299646
4.2417064 -5.8104386 -0.88330907
4.3995667 -6.0288901 -0.65297085
5.2213635 -7.1602759 -0.46442932
3.2305372 -4.4464531 -1.4726803
52.243008 -71.932724 1.5517982
3.6404636 -5.0161896 -1.2047681
3.7272835 -5.1395912 -1.0055609
4.226058 -5.8316393 -0.88428408
4.3107023 -5.9506269 -0.64286077
5.0757103 -7.0118184 -0.45364809
3.2161269 -4.4592695 -1.4731981
52.005627 -72.134109 1.552217
3.6630974 -5.0846186 -1.2181247
4.1144137 -5.715281 -1.1153778
4.3250766 -6.0123353 -0.90938914
4.2864151 -5.9607854 -0.6423378
4.4556413 -6.2006812 -0.40016076
23.844612 -33.207741 -0.71359396
3.2207835 -4.4987426 -1.4825156
51.781448 -72.35424 1.5530548
3.7632592 -5.2603431 -1.4932251
3.6693087 -5.1309099 -1.2261386
4.1587553 -5.8196106 -1.1328986
4.1794748 -5.8529224 -0.88306534
4.2817869 -5.998414 -0.64477819
23.728546 -33.290771 -0.71359396
3.1591778 -4.4453955 -1.4612924
51.500771 -72.495422 1.552217
3.8622186 -5.4386888 -1.5400149
3.5888724 -5.0556378 -1.2051498
4.1544166 -5.856648 -1.1372787
4.004046 -5.6488423 -0.8501606
4.2239623 -5.9613028 -0.63920021
4.3833914 -6.1908846 -0.39754397
23.612198 -33.373398 -0.71359396
3.0278289 -4.2922206 -1.4074581
51.362648 -72.838173 1.5557076
3.3020399 -4.6844106 -1.3231622
3.5406697 -5.0248027 -1.1948459
3.5937483 -5.1039124 -0.98866594
4.2310376 -6.0134625 -0.90280819
4.2420993 -6.0314193 -0.64512682
4.3330436 -6.165297 -0.39492717
2.9884501 -4.2679491 -1.3960699
51.153942 -73.082542 1.5571036
3.3392932 -4.7725501 -1.3447573
3.4882264 -4.9872589 -1.1830158
3.9233165 -5.6134963 -1.0847167
4.2244411 -6.0510912 -0.64564973
4.3320651 -6.2098694 -0.39681125
23.337467 -33.478371 -0.71233743
3.1091461 -4.4734745 -1.4597394
50.939606 -73.319794 1.5583603
3.3982036 -4.8930173 -1.3753507
3.4741549 -5.0042429 -1.1841607
3.6086967 -5.2019148 -1.002745
4.1862712 -6.0412359 -0.64303505
4.8208752 -6.9622273 -0.44380894
3.1209362 -4.5240545 -1.4726803
50.710606 -73.536659 1.559198
3.4231319 -4.9658194 -1.392447
3.4700336 -5.0357389 -1.1887401
3.5625098 -5.1738048 -0.99492329
3.5062015 -5.0958366 -0.75948983
4.1843514 -6.0837188 -0.64599836
4.2388315 -6.1675377 -0.39220569
3.0822055 -4.5014472 -1.46181
3.3309491 -4.8683724 -1.3618537
3.5300171 -5.1612549 -1.2154534
3.5310528 -5.1666384 -0.99116892
4.124897 -6.0423403 -0.64007175
5.5014811 -8.064868 -0.51163632
3.0860193 -4.5409389 -1.4711276
3.3248827 -4.8960919 -1.3663527
3.5020556 -5.1589265 -1.2120188
3.5240853 -5.1952801 -0.99429762
4.0825458 -6.025363 -0.63675982
4.2180657 -6.2300563 -0.39429915
3.0733902 -4.556488 -1.4726803
3.4471843 -5.1145105 -1.4239402
1.9241127 -2.8558388 -0.66935802
3.4937937 -5.1895251 -0.99085599
4.077054 -6.0627236 -0.63920021
4.668613 -6.9476285 -0.43867999
2.8059912 -4.1915393 -1.3515531
3.0045743 -4.49157 -1.2475786
3.3480945 -5.0069928 -1.170804
3.4998019 -5.2378235 -0.99773914
3.8348391 -5.7435813 -0.84796697
3.9872916 -5.9741721 -0.62839293
4.6720366 -7.0054235 -0.44129682
3.0521963 -4.593924 -1.4778568
3.0209291 -4.5485854 -1.2606257
1.8801748 -2.8320346 0.17815161
3.3251681 -5.0104704 -1.168896
3.5435658 -5.3415818 -1.0152597
4.0044217 -6.0408535 -0.88989002
1.7434512 -2.6430786 -0.84840888
3.1090612 -4.7169304 -1.3042662
1.8268065 -2.7715502 0.17396474
3.3344586 -5.0608153 -1.1780548
3.509691 -5.3308201 -1.0108796
3.6778252 -5.5904441 -0.82164317
3.9191661 -5.9595571 -0.62403512
4.7152815 -7.1756005 -0.44998461
19.757421 -30.077797 -0.62814701
1.7447956 -2.6653116 -0.85358524
3.0357811 -4.6391602 -1.2799715
3.1792457 -4.8620996 -1.1292077
3.3482504 -5.1225142 -0.96926802
5.2087326 -7.984086 -0.4995991
19.621733 -30.099672 -0.62716967
2.9413202 -4.5257764 -1.4462808
3.117214 -4.8000889 -1.3213625
3.1898293 -4.9137831 -1.1387482
3.3142242 -5.109313 -0.96457505
4.0897508 -6.3145404 -0.65820014
15.242909 -23.543924 -1.4699078
19.553476 -30.225073 -0.62835646
1.8234968 -2.8284285 -0.90172559
3.1215534 -4.8437018 -1.3303605
1.8526956 -2.8770256 -0.66516018
3.4761229 -5.4021649 -1.0174499
4.0461397 -6.2952566 -0.65471393
4.944243 -7.6984935 -0.47950208
19.516991 -30.400839 -0.63059032
1.8146534 -2.8364038 -0.9022432
3.1226723 -4.8846645 -1.3384588
3.2930746 -5.1531992 -1.1887401
1.7264959 -2.7038033 -0.5080992
3.5438888 -5.5542302 -0.80896878
3.8784313 -6.0808883 -0.63100755
15.028962 -23.581657 -1.4655116
19.404306 -30.458664 -0.63038093
1.829592 -2.8818634 -0.91466653
1.841327 -2.9003475 0.059966467
1.8356814 -2.8925705 -0.79092795
3.2761173 -5.1663208 -1.1891217
1.7206932 -2.7145188 -0.50903779
3.516953 -5.5525355 -0.80701888
3.8699675 -6.1145921 -0.63309932
5.0476298 -7.9783926 -0.49478418
19.319241 -30.560011 -0.63107902
1.809725 -2.8715711 -0.90949017
1.7938855 -2.8475397 0.058744799
1.8172656 -2.8857687 -0.78732872
3.2683809 -5.1921096 -1.1925563
1.8216418 -2.8960793 -0.54188907
3.6676207 -5.8353696 -0.84626079
3.9238338 -6.2478576 -0.64547539
14.853231 -23.659729 -1.4640461
19.25708 -30.698412 -0.63254505
3.0966103 -4.9536881 -1.5653377
1.7701552 -2.8317406 0.058291037
1.8061485 -2.8904419 -0.78687876
3.2462091 -5.1990581 -1.1914115
1.6897229 -2.7083271 -0.50559622
1.9034503 -3.0520804 -0.44165453
3.7565846 -6.0281687 -0.62142044
3.6517501 -5.8645 -0.36206019
19.168825 -30.796005 -0.63317335
2.9194286 -4.7067223 -1.4840684
1.7376359 -2.8025191 0.057558037
3.1609347 -5.1000533 -1.3852487
1.9045649 -3.0741444 -0.7029404
1.669861 -2.6974127 -0.50246757
1.892251 -3.0590363 -0.44165453
3.7114191 -6.0022688 -0.61741126
1.8791416 -3.0414014 -0.18736275
19.107441 -30.937586 -0.63470912
2.8483043 -4.6280417 -1.4561161
1.7545354 -2.8508413 0.058430657
3.1705546 -5.1536617 -1.3969461
1.7745591 -2.8867621 -0.65867269
3.3786938 -5.4984374 -1.0221429
1.8852124 -3.0703697 -0.44238573
3.8456903 -6.2682261 -0.64338368
1.8763546 -3.0595343 -0.18809544
19.005602 -31.01433 -0.63491851
2.8581183 -4.6786761 -1.469057
1.7456156 -2.8586552 0.058465563
3.1525455 -5.1646981 -1.3969461
1.751683 -2.8708436 -0.65371162
1.7913117 -2.9380975 -0.54501772
3.4783804 -5.7097006 -0.820912
3.736764 -6.1386542 -0.6287415
1.8646251 -3.0643592 -0.18799078
18.961641 -31.186417 -0.63708264
2.763871 -4.5618963 -1.4291989
1.7231921 -2.8442078 0.058046706
1.8019576 -2.9753857 -0.80307525
1.7269192 -2.8537297 -0.64836901
1.6180136 -2.6758728 -0.49527156
3.3732002 -5.5808001 -0.80068165
3.7678452 -6.2386403 -0.63763142
14.326551 -23.740028 -1.4531603
1.8137888 -3.0067523 -0.061292849
2.7728117 -4.6129098 -1.4421397
1.7168754 -2.8573606 0.058186322
1.7820098 -2.9669352 -0.79902619
1.8432677 -3.0701392 -0.69607127
1.6157771 -2.6933618 -0.49746165
3.5507221 -5.9234352 -0.84796697
3.7173715 -6.2039003 -0.63275069
4.5891814 -7.664928 -0.46819749
1.8012283 -3.0096333 -0.061223041
2.6913872 -4.513052 -1.4079756
1.7104638 -2.8681908 0.058291037
1.8200577 -3.0531747 -0.82062149
1.7350855 -2.9129438 -0.65905434
1.5987518 -2.6851268 -0.4949587
3.338217 -5.6110382 -0.80165666
3.7150371 -6.2493787 -0.63606262
14.16259 -23.833561 -1.452951
1.7570214 -2.9591608 -0.060071182
2.6990378 -4.5601897 -1.4198813
1.7538377 -2.9655769 -0.79542696
1.6604754 -2.8088298 -0.63424915
1.6084577 -2.7230067 -0.50090319
3.2933855 -5.5799174 -0.79556316
3.6881394 -6.2537279 -0.63519108
4.2326169 -7.1798248 -0.43679595
1.7608901 -2.989398 -0.060559854
2.6510139 -4.5167375 -1.403317
1.8036288 -3.0742109 -0.82287097
1.6461984 -2.8081222 -0.63272268
1.6004636 -2.7322924 -0.50152892
3.4052849 -5.8157887 -0.82749295
3.6200058 -6.187458 -0.62717271
13.955391 -23.872223 -1.4491827
1.7393465 -2.9765348 -0.060175899
2.7023032 -4.6411572 -1.439034
1.7756898 -3.0521657 -0.81522262
3.0181355 -5.1898417 -1.1669879
3.1550362 -5.4296098 -0.99461043
3.2812812 -5.6514091 -0.80238777
3.4883249 -6.0128369 -0.60817277
3.5499034 -6.1214423 -0.37085262
1.7274225 -2.9811594 -0.060140993
2.7045922 -4.6844916 -1.4493867
2.7907264 -4.835629 -1.2889696
2.9932089 -5.1906643 -1.1646981
1.8076957 -3.1373403 -0.57348883
3.3209786 -5.7660398 -0.81701219
1.7917937 -3.1135089 -0.31428361
13.772263 -23.950695 -1.4479266
45.70467 -97.924698 1.886291
2.3175783 -4.9677992 -1.2655747
1.4560348 -3.1224768 0.18055905
2.2800353 -4.8895516 -1.0486863
1.4342655 -3.0771942 0.29702678
1.5007355 -3.2212729 -0.56285131
1.4391345 -3.0918674 -0.4187431
1.3807245 -2.967732 0.51842386
2.8732407 -6.1785679 -0.59614527
1.3560077 -2.915936 0.6250903
1.4488517 -3.1170087 -0.18014038
1.3310133 -2.864804 0.72929132
1.4857469 -3.1993046 -0.06157209
1.453858 -3.1435552 0.060455136
2.2961354 -4.9670143 -1.2633251
1.4426135 -3.1221011 0.18024506
2.3213677 -5.0262041 -1.0761628
1.4740217 -3.1944661 -0.55721962
1.3967401 -3.028373 -0.40948102
1.3645678 -2.9599762 0.5162338
2.8591595 -6.2048459 -0.59771407
1.3395618 -2.9084039 0.62241894
1.4415935 -3.1313694 -0.18066373
1.3042119 -2.8342574 0.72029328
1.4369532 -3.122725 -0.060001373
2.0417926 -4.4555516 -1.3132479
1.4356649 -3.1343184 0.060175899
2.2762918 -4.9718537 -1.2624253
1.4208975 -3.1035101 0.17888431
2.2931888 -5.0110688 -1.0712018
1.3749148 -3.0058455 0.28918275
1.4505408 -3.1726441 -0.55252659
1.4290658 -3.1271157 0.42215544
1.5049747 -3.2932212 -0.44457942
1.3648971 -2.9880798 0.5203011
1.4563496 -3.1927137 -0.18390857
1.2875274 -2.8226097 0.71624416
1.4218965 -3.1186242 -0.059826851
2.0589652 -4.5326538 -1.3339534
1.4186493 -3.1244955 0.059896659
2.2557657 -4.9705014 -1.2601758
2.2798028 -5.0257974 -1.0727283
1.3525982 -2.9831698 0.28656808
1.4400122 -3.1774368 -0.55252659
1.3695416 -3.0233443 0.40753111
1.5309051 -3.3795636 -0.45554763
1.4334847 -3.1674442 -0.30417353
1.4597425 -3.2284634 -0.18568799
1.2821746 -2.8357422 0.7184937
1.4337822 -3.1725228 -0.060769279
2.0240943 -4.4954181 -1.3210124
1.3951497 -3.1000061 0.059338182
2.2616551 -5.0277166 -1.2727731
2.3017688 -5.119278 -1.091046
1.3361646 -2.9731002 0.28517357
1.502317 -3.3443675 -0.58068478
1.3521904 -3.0115712 0.40533748
1.4069343 -3.1349595 -0.42191169
1.3437178 -2.9954989 0.51998824
1.4188961 -3.1630909 -0.30330199
1.4612807 -3.2606254 -0.18725806
1.277845 -2.8526495 0.72164297
1.4300543 -3.193934 -0.061083425
2.0280652 -4.5465636 -1.3339534
1.385134 -3.1066837 0.059373088
2.2282267 -4.99998 -1.263775
2.2750983 -5.107554 -1.086848
1.3346921 -2.9977679 0.28709102
1.4625237 -3.2864256 -0.56973439
1.3400565 -3.0126452 0.40485001
1.3992084 -3.1471074 -0.42288667
1.3260335 -2.9839246 0.5171724
1.4418286 -3.2444942 -0.31062305
1.4409754 -3.2456264 -0.18610668
1.2583941 -2.8357179 0.71624416
1.387275 -3.1276166 -0.059722137
2.0160863 -4.5624499 -1.3365415
1.3653944 -3.0913785 0.058989134
2.1981673 -4.9792042 -1.2565767
2.2509151 -5.1010952 -1.0837952
1.3354765 -3.02793 0.28953138
1.4406843 -3.2680128 -0.56566709
2.527591 -5.7389507 -0.7699706
1.3076506 -2.9704556 0.51404375
1.4507903 -3.2971718 -0.31515515
1.4368739 -3.2670908 -0.18704872
1.2508404 -2.8454452 0.71759385
1.3562392 -3.0866709 -0.058849517
2.0225813 -4.6229048 -1.3520708
1.3489847 -3.0833013 0.058744799
2.1651573 -4.9511375 -1.2475786
2.2337754 -5.1129093 -1.0845585
1.3291535 -3.0437598 0.29057723
2.2781706 -5.2194915 -0.90200126
1.3827598 -3.1695352 -0.42459282
1.4504174 -3.3277862 -0.31759554
1.4583789 -3.3492453 -0.19144495
1.2520686 -2.8768132 0.72434241
1.3366785 -3.0712168 -0.058465563
1.4633428 -3.3767343 -0.98610061
1.3289313 -3.0680406 0.058360845
2.1431253 -4.950098 -1.245329
2.2244909 -5.1404948 -1.0887562
1.3533225 -3.1288419 0.29824695
1.3906105 -3.2165899 -0.55502951
1.379005 -3.1928055 -0.42703021
1.4427402 -3.3419752 -0.31846708
1.404758 -3.2571156 -0.18589734
1.3322822 -3.090555 -0.058744799
1.4568809 -3.394248 -0.98972404
1.3084968 -3.048542 0.057907082
1.5251068 -3.5549126 -0.89305568
2.1841052 -5.0958977 -1.0776893
1.3078717 -3.0529649 0.29057723
1.4437208 -3.3700774 -0.58068478
1.2525427 -2.9252205 0.39071316
1.3840306 -3.2338605 -0.431905
1.3887686 -3.248065 -0.30905426
1.3311588 -3.1148303 -0.17752358
1.3552499 -3.1742675 -0.060245708
1.3017589 -3.0622923 0.058081608
1.5088781 -3.5512466 -0.8908062
2.2094026 -5.2025008 -1.0986782
1.2798351 -3.0151031 0.28656808
1.4365773 -3.3860073 -0.58256203
1.3928756 -3.2861922 -0.4382422
1.3741038 -3.2434797 -0.30818272
1.32417 -3.1286542 -0.17804694
1.3137887 -3.1071479 -0.05888442
1.2918373 -3.068661 0.058116514
2.0746553 -4.9305911 -1.2349813
2.1569796 -5.1287432 -1.0815054
1.2747074 -3.0324087 0.28778824
1.4951453 -3.558548 -0.61134595
1.2159493 -2.8954585 0.38559461
1.3959941 -3.3258114 -0.44287321
2.6715918 -6.3679051 -0.60416359
1.3194171 -3.1479936 -0.17888431
1.2766756 -3.0490012 -0.057697657
1.2988153 -3.1156037 0.058919325
2.0544333 -4.9306078 -1.2331817
1.2610519 -3.0294824 0.28709102
1.4766439 -3.5491548 -0.60884303
1.2172686 -2.9271793 0.38925073
1.3729476 -3.3031681 -0.43921715
2.6287088 -6.3275137 -0.5994572
10.516367 -25.338701 -1.4377736
1.2660251 -3.0534389 -0.057697657
1.8944277 -4.5871329 -1.3298123
1.2818274 -3.1053309 0.058640085
2.0253179 -4.908926 -1.2259833
1.4026047 -3.4012883 -0.71515214
1.2489508 -3.0301821 0.28674239
1.3686862 -3.3223274 -0.56910866
1.243323 -3.0195177 0.40095019
1.3629199 -3.3116121 -0.43970463
2.5512748 -6.2021427 -0.58673245
3.3205757 -8.0803261 -0.45783499
1.227259 -2.9893944 -0.056406178
1.3826628 -3.3813627 -0.97885364
1.1620392 -2.8432331 0.053613789
2.0184879 -4.9412217 -1.2322818
1.397402 -3.4225223 -0.71858674
1.3414139 -3.2886741 -0.56253839
1.2140397 -2.9778845 0.39485672
1.3670826 -3.3549542 -0.44482315
2.5859745 -6.349402 -0.59980583
1.288638 -3.1671875 -0.17919834
1.2243466 -3.0121851 -0.056755226
1.375926 -3.3987031 -0.98247713
1.1326056 -2.7990763 0.052706268
1.9997661 -4.9446249 -1.2313821
1.369996 -3.3891554 -0.71057272
1.3454586 -3.3318017 -0.56910866
1.2073528 -2.9913082 0.3960754
1.3338264 -3.3063188 -0.43775472
1.4469305 -3.5884898 -0.3385129
1.2678733 -3.1475825 -0.1778376
1.2227827 -3.0387022 -0.057174087
1.3769906 -3.4357626 -0.99179465
1.21429 -3.0313377 0.05699956
1.4305537 -3.5730217 -0.88855666
1.3399223 -3.3483489 -0.70103228
1.3235548 -3.3107984 -0.5647285
1.3384742 -3.3515117 -0.44311696
1.4395661 -3.6064715 -0.33973309
1.2627966 -3.1668308 -0.17867498
1.1951476 -3.0002246 -0.056371275
1.3756748 -3.4674842 -0.99955922
1.259722 -3.1768332 0.059652328
1.4187911 -3.5798051 -0.88900656
1.2688483 -3.2031114 0.18055905
1.3282259 -3.3530056 -0.70103228
1.5351057 -3.8772345 0.36483395
1.3170782 -3.3282557 -0.56691855
1.3530395 -3.4226222 -0.45189157
1.4181825 -3.5892386 -0.33764133
1.242202 -3.1470685 -0.17731424
1.2000721 -3.0434439 -0.057104275
1.383335 -3.5226135 -1.0140531
1.2522781 -3.1905181 0.059826851
1.4027277 -3.5756652 -0.88675708
1.1971464 -3.0531881 0.1718713
1.3208138 -3.368588 -0.70332199
1.4961183 -3.8176429 0.35873303
1.3249041 -3.3824947 -0.57536602
1.3541043 -3.4605997 -0.45627886
1.4150788 -3.618289 -0.33990738
1.2450184 -3.1867311 -0.17930301
1.2817755 -3.2841959 -0.061537188
1.378029 -3.5454271 -1.0192294
1.2367886 -3.183686 0.059617419
1.3740151 -3.5387578 -0.87640929
1.1915394 -3.0703819 0.17260399
1.311178 -3.3786688 -0.70446682
1.485665 -3.8302722 0.35943025
1.308091 -3.3742061 -0.57317597
1.3377148 -3.4541984 -0.45481643
1.4182628 -3.664084 -0.34374225
1.2346072 -3.1929207 -0.17940767
1.4230571 -3.684109 -0.068937011
1.3815968 -3.591686 -1.0311351
1.2701594 -3.3037069 0.061781518
1.3595575 -3.538075 -0.8750596
1.1750858 -3.0596068 0.17176662
1.3007839 -3.3868909 -0.70523006
1.4472955 -3.7703333 0.35332939
1.2878133 -3.3566201 -0.56942153
2.2619872 -5.9019122 -0.7760641
2.4167988 -6.3091383 -0.59109026
1.1963302 -3.1263275 -0.17543015
13.697747 -35.833317 -0.6696139
1.378082 -3.6221113 0.067645527
1.3596661 -3.5755863 -0.88315785
1.1700754 -3.0786257 0.17260399
1.2875588 -3.3877404 -0.70446682
1.4327105 -3.7716372 0.35298076
1.2683764 -3.3407805 -0.56597996
2.1949112 -5.7872701 -0.75997728
2.3290837 -6.1442738 -0.57487923
1.1896532 -3.1416914 -0.17605817
13.605127 -35.966957 -0.67121959
1.3654301 -3.6269 0.067645527
1.3437456 -3.5711911 -0.88090831
1.167758 -3.1051247 0.17386007
1.3234092 -3.5190086 -0.73079848
1.376074 -3.6609855 0.34217343
1.255318 -3.3414891 -0.56535423
2.2353759 -5.9565892 -0.78118259
2.3349111 -6.2251201 -0.58167744
1.1765774 -3.1402142 -0.17574416
13.476697 -36.006733 -0.67107999
1.3493069 -3.6204383 -1.0352762
1.3548554 -3.6372657 0.067750245
1.3380703 -3.5941229 -0.88540733
1.2397976 -3.3319347 0.18631603
1.3323424 -3.580647 -0.74262863
1.9346366 -5.2048621 -0.87947464
2.1468549 -5.7819824 -0.75729614
1.3886719 -3.7440238 0.77621108
1.1510304 -3.1049747 -0.17354605
13.34537 -36.038555 -0.67080069
1.3439801 -3.6430175 -1.0404526
1.3434781 -3.643615 0.067785151
1.3247969 -3.5948832 -0.88450754
1.3626606 -3.6996174 0.20662238
1.3211395 -3.5868876 -0.74301028
1.099207 -2.9859486 0.27837545
1.8743947 -5.0944552 -0.85976392
2.1947796 -5.9716668 -0.78118259
1.3888102 -3.7807839 0.63793981
1.376249 -3.7486079 0.77621108
1.1166465 -3.043149 -0.16988252
1.4010081 -3.820169 0.93939561
13.099163 -35.737141 -0.66437823
1.331918 -3.6495016 -1.0409703
1.2505771 -3.4284837 0.063701279
1.3095706 -3.5921624 -0.88270795
1.3442686 -3.6893387 0.20578501
1.3112997 -3.598856 -0.74453676
1.0942314 -3.0047441 0.27976993
1.2140868 -3.3356757 -0.56222552
1.3619825 -3.7440488 0.4891836
2.1678162 -5.9625006 -0.7789889
1.3364751 -3.6779253 0.61979342
1.3364177 -3.6777673 -0.34234774
1.3638251 -3.7552347 0.77659267
1.1837045 -3.2610526 -0.18181513
1.1696939 -3.2259657 -0.059896659
1.3112985 -3.6323237 -1.0347586
1.2148482 -3.366993 0.062479615
1.7703516 -4.9092731 -1.2048379
1.3279955 -3.6846137 0.20526163
1.2787175 -3.5517733 -0.59789258
2.1060119 -5.8560858 -0.76412088
2.3003066 -6.4033699 -0.59527373
1.360665 -3.7876868 0.78231698
1.1601657 -3.2313287 -0.17993104
1.3782533 -3.8408623 0.94209504
1.155051 -3.2206173 -0.059722137
1.2869387 -3.6061745 -1.0259588
1.2037599 -3.3730965 0.062514521
1.294281 -3.6287494 -0.88945645
1.2004466 -3.3675249 0.18736275
1.1749595 -3.2996702 0.30643961
1.2709894 -3.5713243 -0.60039556
1.3264933 -3.7272832 0.48577127
1.2637874 -3.5550165 0.59757972
1.3277214 -3.7389965 0.77125001
1.0928693 -3.0793338 -0.17124327
1.3752418 -3.87711 0.94974333
1.1979502 -3.377286 -0.062549427
1.2891308 -3.6525445 -1.0378644
1.1873974 -3.3661711 0.062305093
1.2777325 -3.6242795 -0.88720697
1.205286 -3.4187853 0.18997954
1.7433199 -4.9476681 -1.0196834
1.0681362 -3.0331368 0.28133872
1.2401519 -3.5235658 -0.59163523
1.2871331 -3.6590879 0.47626543
1.2874049 -3.6619024 0.61478752
1.1429294 -3.2545869 0.67050284
1.0754997 -3.0642843 -0.17019655
1.3320274 -3.7972982 0.92904782
1.2371215 -3.5267434 -0.065237097
1.2598217 -3.6095996 -1.0244058
1.2408054 -3.5551147 0.065725766
1.2637817 -3.6229765 -0.88585728
1.2117546 -3.4757779 0.19291034
1.7292683 -4.9629927 -1.0215914
1.0654051 -3.0594254 0.28343046
1.227162 -3.5239279 -0.5910095
1.2136567 -3.4871063 0.453354
1.2482654 -3.5885623 -0.46651587
1.2914791 -3.7148857 0.62292212
1.2600976 -3.6266572 -0.33589822
1.1185993 -3.2194142 0.66248888
1.0718839 -3.0867014 -0.17124327
1.2178351 -3.5089736 0.85751343
1.2642392 -3.6612344 -1.0378644
1.2355644 -3.5802171 0.066109717
1.2530332 -3.6328926 -0.88720697
1.1520988 -3.3421466 0.18526931
1.6974455 -4.9241538 -1.0124326
1.0597967 -3.076128 0.28465065
1.2064927 -3.5039091 -0.5869422
1.9995087 -5.8135867 -0.75485879
1.2598822 -3.6651967 0.61384892
1.2253957 -3.5648696 -0.32979733
1.1277667 -3.2827151 0.67470068
1.0649943 -3.1017582 -0.1718713
1.2036817 -3.5076733 0.85616374
1.2144166 -3.5409689 -0.065341808
1.1810853 -3.4614918 0.063840903
1.2365708 -3.6261778 -0.88450754
1.1236731 -3.2969954 0.18254784
1.710013 -5.0173893 -1.0303686
1.0413435 -3.0571766 0.28255892
1.2012572 -3.5286691 -0.59038377
1.134294 -3.3338745 0.43239245
1.2161523 -3.5765162 -0.46383476
1.2375468 -3.6415169 0.60915589
1.2046107 -3.5446017 -0.32753128
1.1074613 -3.2606063 0.66935802
1.1517442 -3.3929288 -0.18778142
1.1995693 -3.5358441 0.86201245
1.2129649 -3.5773811 -0.065935194
1.5864582 -4.7004919 -1.3292947
1.1510992 -3.4125395 0.062863566
1.1057808 -3.2819705 0.18150112
1.0516477 -3.1231041 0.28831118
1.0973366 -3.2625527 0.42264292
1.2049259 -3.5845027 -0.46432224
1.2267145 -3.6514323 0.61009449
1.1897084 -3.5433269 -0.32700834
1.0904492 -3.2477019 0.66592342
1.1386231 -3.3931417 -0.18757208
1.1773053 -3.5104482 0.85481399
1.1756853 -3.5076485 -0.064573906
1.5343889 -4.6018128 -1.2997893
1.1840899 -3.5512252 0.065341808
1.6264672 -4.8808069 -1.1877415
1.0917933 -3.2782309 0.18108243
1.189207 -3.5728059 -0.73194337
1.0974233 -3.2989762 0.30417353
1.1716136 -3.5240533 -0.58819366
1.0514969 -3.1627591 0.4092373
1.1899025 -3.5811515 -0.46334729
1.2077361 -3.6369448 0.60696578
1.17796 -3.5493491 -0.32718265
1.079156 -3.25354 0.66630507
1.1324635 -3.41625 -0.18861879
1.1442065 -3.4536943 0.83996725
1.1376499 -3.4339035 -0.063142806
1.126025 -3.4187894 0.06282866
1.1948485 -3.6298819 -0.88225806
1.0765966 -3.2706392 0.1804544
1.2166069 -3.6981559 -0.7567485
1.0939912 -3.3273919 0.30643961
1.0411364 -3.1703634 0.40972477
1.9542657 -5.9544387 -0.76948309
1.1938013 -3.6373849 0.60634005
1.1692891 -3.5647986 -0.32822853
1.0647351 -3.2479596 0.66439694
1.1211531 -3.4220805 -0.18872347
1.1430594 -3.491003 0.8480655
1.0946975 -3.3452756 0.94313669
1.1060117 -3.3958852 0.062339999
1.0719701 -3.2952697 0.18160579
1.0811379 -3.3274007 0.30609095
1.1482093 -3.5338254 -0.58850652
1.0085458 -3.1058292 0.40095019
1.9492164 -6.0062022 -0.77533287
1.1562241 -3.566963 -0.32805422
1.1104151 -3.4276795 -0.18882816
1.1512848 -3.5559561 0.86291224
1.0748655 -3.3218992 -0.060943801
1.077069 -3.3306949 0.93796021
1.4448775 -4.4868102 -1.263037
1.0886375 -3.3825934 0.062025853
1.1623565 -3.6138141 -0.87640929
1.0720738 -3.3351183 0.18359455
1.0755827 -3.3480396 0.30765978
1.1322441 -3.5265269 -0.58662933
0.98314238 -3.0639665 0.39510044
1.9476355 -6.0734587 -0.78313243
1.1973171 -3.7359245 0.62135774
1.1456057 -3.5745721 -0.32840282
1.2246534 -3.8235178 0.7804088
1.0704339 -3.3440347 -0.18401325
1.125802 -3.5191195 0.85301441
1.0121098 -3.1656351 -0.0580118
1.0601445 -3.3178725 0.93330151
1.4649369 -4.6041222 -1.2946129
1.0731875 -3.374939 0.06181642
1.1550471 -3.6345644 -0.88045847
1.1499027 -3.6205671 0.199086
1.5766307 -4.9641566 -1.0124326
1.0608754 -3.3422787 0.30678821
1.1276921 -3.5549357 -0.59069663
0.98563898 -3.10901 0.40046272
1.9180298 -6.0537262 -0.77972013
1.2462846 -3.9359367 0.65389615
1.10786 -3.4987729 -0.32108176
1.0418954 -3.292443 0.67126608
1.0503234 -3.3210905 -0.18254784
1.1111617 -3.5155952 0.85121477
0.99503016 -3.1500807 -0.057662752
1.0415782 -3.2994461 0.92708987
1.42105 -4.5207462 -1.2697662
1.0560066 -3.3614943 0.061502282
0.9123643 -2.9060252 -0.703197
1.0403932 -3.3158426 0.18212914
1.561056 -4.9752498 -1.0135775
1.0444334 -3.3307524 0.30539373
1.1028709 -3.5192657 -0.58412635
1.0127512 -3.2336705 0.416062
1.9134904 -6.11343 -0.7865448
1.0898232 -3.4840219 0.57818186
1.1170536 -3.5710738 -0.32735696
1.0216093 -3.2679524 0.66554183
1.0375324 -3.320924 -0.18233849
1.071005 -3.4301641 0.82961947
0.97330672 -3.119174 -0.057034463
1.0081992 -3.2329803 0.90741962
1.4344776 -4.6197724 -1.2961658
1.0501925 -3.3842587 0.06185133
1.5430989 -4.9787931 -1.0131959
1.0410531 -3.3610225 0.30783406
1.0835705 -3.5004494 -0.58037198
1.0231644 -3.3073533 0.4250803
1.8827565 -6.0897274 -0.78264499
1.0963157 -3.5481999 0.58819366
2.0480044 -6.6283174 -0.60695255
1.027701 -3.330251 -0.1826525
1.053856 -3.4171219 0.82557034
0.96064574 -3.1168194 -0.056929749
0.99633944 -3.2346334 0.90690196
1.0407171 -3.3955517 0.06199095
1.1203475 -3.6576402 -0.88315785
1.0125425 -3.3077466 0.18129177
1.5670855 -5.1193128 -1.0406723
1.0345604 -3.381783 0.30940288
1.0719221 -3.5060997 -0.58068478
1.0388757 -3.4001322 0.43653604
1.9101851 -6.2557406 -0.803119
1.0804641 -3.540669 0.58631647
2.0033383 -6.5649171 -0.60050309
1.0760829 -3.5285175 0.71706021
1.0096653 -3.3128021 -0.18150112
1.0811001 -3.5494084 0.85661358
0.94801313 -3.1144145 -0.056825034
1.0768421 -3.5554564 -0.99541807
0.89429605 -2.9564559 -0.71309483
1.0027238 -3.3169966 0.18160579
1.5645446 -5.1754918 -1.050976
1.0400358 -3.4425912 0.31463224
1.5666779 -5.1890874 -0.85851246
1.0275744 -3.4056382 0.43677977
1.1062857 -3.67114 0.60727865
2.0051301 -6.6538992 -0.60799843
1.0061532 -3.3430817 -0.18296652
1.0883489 -3.6184762 0.87236023
0.94980031 -3.1598361 -0.057592943
0.99818766 -3.3229182 0.92967808
1.0948687 -3.6609905 -1.0238881
0.98491919 -3.2954409 0.060036276
0.88285542 -2.9558251 -0.71219504
0.99629176 -3.335613 0.18244316
1.4914392 -4.9965601 -1.0135775
1.0792702 -3.6180336 0.33032027
1.6213552 -5.4387274 -0.89887255
1.021348 -3.4282286 0.43921715
1.9387079 -6.5157247 -0.59475076
0.99434769 -3.3439977 0.67813522
0.99504691 -3.3484879 -0.1830712
0.96142775 -3.2374237 0.77968031
0.97836858 -3.2965779 0.92139584
0.90319437 -3.0589325 -0.85462052
0.9637931 -3.2641678 0.05940799
1.4052609 -4.7623882 -1.1463506
0.98407692 -3.3371549 0.18233849
1.4911919 -5.0601144 -1.0254076
1.0666348 -3.6217787 0.33032027
1.5581082 -5.2905865 -0.87353015
1.0004458 -3.3992233 0.43507358
1.7784493 -6.0465484 -0.77387041
1.0757011 -3.6596334 0.60415
1.9170749 -6.5262756 -0.59509945
0.98214644 -3.3435097 0.67737198
1.0255675 -3.4935822 -0.19081691
0.99292725 -3.3845789 0.81432283
1.0317861 -3.5193102 -0.064015426
1.0776638 -3.6781719 1.026994
0.89899552 -3.0823112 -0.86031455
0.9512738 -3.2636726 0.059338182
0.85617512 -2.9393144 -0.70679623
0.96069974 -3.3002985 0.18014038
1.4288608 -4.9085755 -0.99373329
1.0797265 -3.7140241 -0.61259741
1.0024201 -3.4503515 0.44116706
1.7529047 -6.0374684 -0.77192044
1.8709937 -6.4484043 -0.5874297
0.97648352 -3.3676591 0.68156981
1.0155903 -3.5048144 -0.1912356
0.94153732 -3.2513804 0.78147995
1.0144922 -3.5056026 -0.063701279
1.0701849 -3.7004693 1.0321704
0.87112916 -3.0260239 -0.84375012
0.8416025 -2.9273019 -0.703197
0.94751889 -3.297873 0.17982636
1.566355 -5.4589324 -0.89949834
0.98927552 -3.4500134 0.44067958
1.0542929 -3.6791806 -0.46992823
1.0332673 -3.6081836 0.59445107
1.8753506 -6.5487499 -0.59597093
0.96634305 -3.3767095 0.68271458
1.0038986 -3.5102582 -0.19134027
0.9264338 -3.2415311 0.77833068
0.95721638 -3.3514521 -0.060839087
1.0249178 -3.5908649 1.0005945
0.86372828 -3.0401962 -0.84685594
0.93501991 -3.2933183 0.059757043
1.0643572 -3.751359 -0.90025413
0.9240154 -3.2588873 0.17752358
0.99825484 -3.5207207 -0.71133596
1.5575161 -5.5004783 -0.90544277
0.98911774 -3.4954677 0.44604182
1.0351701 -3.6630936 0.60289848
1.8367668 -6.4996548 -0.59091592
0.9593522 -3.3970666 0.68614918
1.0019467 -3.5502625 -0.19332905
0.91299671 -3.2372429 0.77653104
0.95419109 -3.3855686 -0.061397567
0.87918413 -3.1361997 -0.87273788
0.91596645 -3.269604 0.059268374
1.0202588 -3.6443326 -0.87370992
0.91101998 -3.2563224 0.17720957
1.5510629 -5.5515428 -0.91295165
0.9731732 -3.4855151 0.44433567
1.8096225 -6.4857063 -0.82676172
1.0176022 -3.6495595 0.6000827
1.8028299 -6.465724 -0.58725542
0.93958378 -3.3720262 0.68042493
0.98686939 -3.5441179 -0.19280569
0.89385521 -3.2122488 0.76978248
0.8914724 -3.205852 -0.058081608
0.94809991 -3.4118006 0.94883066
0.90081882 -3.2592895 0.05902404
0.90230465 -3.269109 0.17773293
1.4870584 -5.395052 -0.88635778
0.91988301 -3.3396132 0.42532405
1.0251905 -3.7244694 -0.47431552
1.792932 -6.5180826 -0.59143883
0.94133681 -3.4245043 0.69034702
0.9707883 -3.5340598 -0.19207297
0.90017599 -3.2792432 0.78507918
0.88926965 -3.2417283 -0.058674991
0.90554082 -3.3033025 0.91777241
0.91065651 -3.3379536 -0.92708987
0.88838416 -3.2585554 0.058954231
0.82882273 -3.0421786 -0.72794157
0.89823318 -3.2992184 0.17919834
0.97886699 -3.5953872 -0.72431099
1.5019037 -5.5241122 -0.90669429
0.91758841 -3.3772855 0.42971134
1.735172 -6.3909006 -0.81311232
1.0081336 -3.7156749 0.60978162
1.8040792 -6.6492882 -0.60276914
0.97304612 -3.5888309 0.72278452
0.94695568 -3.4950163 -0.18977019
0.90654916 -3.3482008 0.80082577
0.85862404 -3.1733921 -0.057383511
0.89097941 -3.295254 0.91466653
0.89154351 -3.3157077 0.059931565
0.88826495 -3.3081205 0.17951234
1.427359 -5.3232594 -0.87290442
0.88729769 -3.3114395 0.42093676
1.7847342 -6.6653743 -0.84723574
0.99924254 -3.7344372 0.6122846
0.96152747 -3.595999 0.72354776
0.93320274 -3.4925117 -0.18945618
0.87876916 -3.2910957 0.78642887
9.5704184 -35.867477 -0.64797294
0.82540154 -3.1108246 -0.86238509
0.89072597 -3.3593905 0.060664564
0.88143319 -3.3266842 -0.79452711
0.87262273 -3.2957549 0.17867498
0.86964798 -3.2914858 0.41801187
1.5977777 -6.0516229 -0.76850814
0.9720906 -3.684422 0.60352427
0.98452872 -3.7315652 -0.33764133
0.95697731 -3.6297073 0.7296536
0.93067425 -3.532444 -0.19144495
0.85636032 -3.2526836 0.77653104
9.430912 -35.846516 -0.6469956
0.81453764 -3.1136868 -0.86238509
0.87848872 -3.3605444 0.060629662
0.9126659 -3.4937766 -0.83366859
0.85058314 -3.2561173 0.17637219
1.3214966 -5.0624342 -1.017012
1.3891642 -5.3292713 -0.87227869
0.87916923 -3.3751831 0.42824891
1.5846454 -6.0879002 -0.77240795
0.9583748 -3.6818902 0.60258561
0.96999252 -3.7291946 -0.33711842
0.94825238 -3.648227 0.73270655
0.90980262 -3.5028076 -0.18966553
0.8494072 -3.2726295 0.78058016
9.3170109 -35.89695 -0.64734471
0.82644463 -3.186445 0.88205534
0.81475878 -3.1595364 -0.87429082
0.81694907 -3.1703167 -0.75583553
1.2759304 -4.9586406 -0.99525976
1.3350816 -5.192276 -0.8491264
0.8684662 -3.3800027 0.42849267
0.94355249 -3.6775596 0.60133415
0.96043324 -3.7460673 -0.33833858
0.89958119 -3.5087202 0.70408523
0.90958256 -3.5503054 -0.19207297
0.88591474 -3.460438 0.82467055
9.1837196 -35.898254 -0.64678615
0.85168099 -3.3315568 0.92139584
0.81046748 -3.1865597 -0.88102001
0.77181923 -3.0390458 -0.72389251
1.2585145 -4.9590383 -0.99449658
1.3528574 -5.338603 -0.87227869
0.84886569 -3.3522239 0.42459282
1.5412217 -6.090848 -0.771433
0.93797356 -3.7095571 0.60602719
0.96540976 -3.8208692 -0.3447881
0.87770909 -3.4737701 0.69645286
0.90060616 -3.5670142 -0.19280569
0.86715639 -3.4370558 0.81837195
9.032939 -35.829266 -0.64497113
0.8924309 -3.5424478 0.97885364
0.79549742 -3.1763909 -0.87739658
0.8643409 -3.4538381 -0.82197118
1.2427094 -4.9731417 -0.99640459
1.3442804 -5.3876081 -0.87947464
1.5746981 -6.3157692 -0.79921919
0.93457049 -3.7511444 0.6122846
1.6860915 -6.7726135 -0.61061317
0.87445027 -3.5150678 0.70408523
6.0869274 -24.486151 -1.3223203
0.8446874 -3.4004946 0.80892402
8.9107084 -35.872223 -0.64518058
0.87912953 -3.5417914 0.97781837
0.7871815 -3.1904023 -0.88050246
1.2154875 -4.9374161 -0.98839068
1.2877442 -5.2388062 -0.85444516
0.82343584 -3.3524289 0.42386162
1.5094265 -6.1499176 -0.77752644
0.90858144 -3.7046633 0.60415
1.6790503 -6.8461843 -0.616714
0.879933 -3.5905581 0.71858674
6.3748159 -26.03204 -1.4045925
0.83142269 -3.3977437 0.80757427
0.88532633 -3.6207664 -0.065062575
0.87118596 -3.5656331 0.9835124
0.78653359 -3.2363062 -0.89240813
0.73528504 -3.0300465 -0.71984333
1.2324808 -5.082818 -1.0166303
1.245743 -5.1453538 -0.83848882
0.80332619 -3.3205531 0.4194743
0.91282749 -3.7760587 -0.47699666
0.88080215 -3.6463671 0.59413815
1.649997 -6.8306994 -0.61479658
0.88397694 -3.6623123 0.73232496
6.2899985 -26.079374 -1.4059533
0.82047033 -3.4044139 0.80847406
0.84178227 -3.4955232 -0.062758856
0.85014683 -3.5329657 0.97367728
0.76803678 -3.2089715 -0.88412589
0.74508595 -3.1178865 -0.740089
1.1850921 -4.9629679 -0.99182522
1.2763357 -5.3533516 -0.8716529
0.87126839 -3.6628718 0.59632826
1.6224548 -6.8209109 -0.61340207
0.8616544 -3.6252644 0.72431099
6.2118444 -26.155582 -1.4088842
0.82748002 -3.4868927 0.82736999
0.82311642 -3.4711995 -0.062270187
0.80128598 -3.3817682 0.93123102
0.75683099 -3.2116327 -0.88412589
0.70607996 -3.0009611 -0.71174508
1.1870818 -5.049253 -1.0082349
1.2571898 -5.3558517 -0.87134004
1.5156051 -6.4668913 -0.81554973
0.85082018 -3.633194 0.5910095
0.89267361 -3.8119175 -0.34252208
0.84675759 -3.6186922 0.72240293
6.1291485 -26.214058 -1.4108729
0.81175703 -3.4745786 0.82377076
0.8023569 -3.4370525 -0.061606996
0.79210985 -3.3958325 0.93433678
1.0808806 -4.6595407 -1.2816719
0.69735909 -3.0110013 -0.71354473
0.66572696 -2.8767083 -0.57395351
1.2193652 -5.2774467 -0.85788667
1.5305045 -6.6346226 -0.83602375
0.8241148 -3.5724761 0.58068478
0.88831228 -3.8538399 -0.3460083
0.83147734 -3.6101468 0.72011316
6.0102825 -26.116562 -1.4044878
0.79394615 -3.4527018 0.81792206
0.78512937 -3.4143593 -0.061153233
0.7894963 -3.4360962 0.94468951
1.0315014 -4.5182643 -1.2418139
0.68216956 -2.9904981 -0.70814592
1.1674969 -5.1263304 -1.021973
1.1983513 -5.2660522 -0.85538375
1.4288919 -6.289289 -0.79190701
0.81338823 -3.5830369 0.5819363
1.5377162 -6.7792363 -0.60817277
0.81515801 -3.5937381 0.71629703
5.9170241 -26.107132 -1.4029177
0.79066998 -3.4914274 0.8264702
0.77055812 -3.4053767 -0.060943801
0.77323735 -3.4199882 0.93951315
0.99236012 -4.4142251 -1.2123084
0.66447151 -2.9605367 -0.70049757
1.1221366 -5.0037394 -0.9967863
1.1501822 -5.1371951 -0.83379585
1.4073616 -6.2961764 -0.7921508
0.81766903 -3.6610413 0.59413815
0.80517453 -3.6080582 0.71858674
1.5417669 -6.914474 -0.37127131
0.78737742 -3.5341101 0.83591807
0.76257747 -3.4256132 -0.061257947
0.75877756 -3.4113522 0.93640739
0.97277457 -4.3987994 -1.207132
7.3260241 -33.155087 0.59268373
0.67387938 -3.0522749 -0.72164297
1.109316 -5.0287142 -1.0009841
1.3289516 -6.0343738 -0.97865415
1.3994428 -6.3650303 -0.8001942
0.80318916 -3.6561556 0.59288669
1.4774292 -6.7253284 -0.60242045
1.5099207 -6.8846974 -0.36938724
0.74676532 -3.4106734 -0.060943801
0.74603957 -3.4102051 0.93537205
0.9611088 -4.419158 -1.2117908
7.2255359 -33.250805 0.59394032
0.68058687 -3.1345921 -0.74053884
1.0880096 -5.0152884 -0.99754947
1.1209797 -5.1759892 -0.83880174
1.3658901 -6.3174887 -0.7936132
0.79000467 -3.657006 0.59257382
1.4299642 -6.6194391 -0.59248471
0.8106178 -3.7556019 0.74682647
1.4951422 -6.9328785 -0.37169001
0.74298209 -3.4480803 0.81432283
0.73653919 -3.4210787 -0.061083425
0.74631888 -3.4694486 0.95090121
0.9582001 -4.48105 -1.2278377
7.1528802 -33.479202 0.59757042
0.68469357 -3.2074635 -0.75718528
1.083601 -5.0804977 -1.0097612
1.3401144 -6.3047438 -0.79141963
0.77272081 -3.6384864 0.58913231
1.4176112 -6.6750622 -0.59701681
0.79424363 -3.7430446 0.74377352
5.5950122 -26.390402 -1.4138037
0.73300505 -3.4663622 0.94934833
7.0524073 -33.582249 0.5989666
0.68189681 -3.2498856 -0.76663321
7.1177545 -33.952335 1.8180467
0.71299022 -3.4010284 -0.67546391
1.0888641 -5.2030239 -0.84193045
1.2969899 -6.2083387 -0.77874517
0.75032848 -3.5947528 0.58162344
1.3417869 -6.4283743 -0.57453066
1.4475207 -6.9470577 -0.37189934
0.7105515 -3.4131184 0.80487484
6.8111873 -32.746044 -0.58381796
0.73269325 -3.5256429 0.96487743
0.66429937 -3.2162607 -0.8799848
6.7484274 -32.701866 0.58284056
0.67054838 -3.2522459 -0.76663321
6.9347186 -33.663986 1.8012992
0.62704146 -3.0439179 -0.6041013
1.0714911 -5.2106628 -0.84255612
1.2820965 -6.2458858 -0.78288871
1.374979 -6.7043142 -0.59875995
1.4284687 -6.9775057 -0.37326008
0.69824255 -3.4136689 0.804425
6.7264714 -32.9146 -0.58640087
0.73429441 -3.5963197 0.9835124
0.64615393 -3.1844811 -0.87066728
6.8003049 -33.54443 0.59743077
0.65880525 -3.2526567 -0.76618326
6.7675414 -33.412739 1.7866449
0.64834315 -3.2038767 -0.63539398
1.0204414 -5.0517244 -0.81627518
1.25588 -6.2228618 -0.7794764
0.7590304 -3.7643714 0.6082173
1.3665197 -6.7832923 -0.60538375
0.68845522 -3.4236073 0.80622458
7.2774372 -36.222557 -0.64490134
0.72350502 -3.6044173 0.98506534
6.6679296 -33.460896 0.59554589
0.64535171 -3.2414451 -0.76303399
6.6418834 -33.360565 1.7826674
0.62699062 -3.1520941 -0.62470871
1.0163792 -5.11902 -0.82659984
1.2506871 -6.3048778 -0.78922594
0.73847842 -3.726176 0.60164702
1.3049326 -6.5903878 -0.58777833
1.3941085 -7.0536847 -0.37681893
0.67483115 -3.4144013 0.80352521
6.5351415 -33.095814 -0.58884418
0.71379209 -3.6181684 0.9881711
0.90222824 -4.6029458 -1.2568253
6.5907502 -33.655521 0.59861755
0.64058584 -3.2741671 -0.77023244
6.5243149 -33.347126 1.7807834
0.58866453 -3.0115738 -0.59646893
0.68164855 -3.4937534 -0.56378984
1.221037 -6.2641768 -0.78361994
0.71592319 -3.6762531 0.59319955
1.2450198 -6.399107 -0.57034713
1.3642379 -7.0249386 -0.37503949
0.66313362 -3.4147072 0.80307525
6.6295071 -34.169514 -0.60755318
0.67127717 -3.4631019 0.94520718
0.90120602 -4.6798954 -1.2770132
6.5123525 -33.849995 0.60168916
0.63046068 -3.2801006 -0.77113223
6.4114366 -33.356808 1.7801553
0.97593468 -5.0822845 -1.0059451
1.036695 -5.4088974 -0.87227869
1.1912981 -6.2213993 -0.77777022
0.69444901 -3.6301017 0.58537781
1.2776514 -6.6850042 -0.59544802
1.346174 -7.05689 -0.3765049
0.65034562 -3.4092307 0.80127567
6.4974413 -34.093098 -0.60580796
0.87177336 -4.6225734 -1.2604488
6.2194204 -33.010094 0.58633101
6.2612424 -33.295914 1.7755499
0.93899703 -4.9933805 -0.98762739
0.96162522 -5.123558 -0.82566124
1.1838576 -6.319787 -0.78946966
0.67878127 -3.6270354 0.58443922
1.2061607 -6.4450617 -0.57365906
1.3278687 -7.109127 -0.37901706
0.63593996 -3.4079823 0.80037582
0.8605516 -4.6521826 -1.2676958
6.1208739 -33.122055 0.58793664
6.1326613 -33.250786 1.771991
0.91621971 -4.9676681 -0.9819032
6.2000127 -33.648876 2.9934511
0.94444984 -5.1307693 -0.82628691
1.1560518 -6.2926416 -0.78556985
0.66754264 -3.6371543 0.58569074
1.1761026 -6.4080801 -0.56999856
0.62298763 -3.4044311 0.79902619
6.0702195 -33.204563 -0.58919328
0.85292596 -4.7026796 -1.2806368
5.9638662 -32.91497 0.5838877
0.87608153 -4.8399701 -1.135553
6.0336151 -33.366325 1.7770153
0.5743289 -3.1760802 -0.62738001
6.0301013 -33.380138 2.967653
0.92057019 -5.100987 -0.82096815
1.1400602 -6.3298516 -0.78971344
0.64679724 -3.5947466 0.57849473
1.1794837 -6.5552921 -0.58272326
1.2764403 -7.1083941 -0.37849367
0.62864852 -3.5044091 0.82197118
6.0791507 -33.92234 -0.60154957
0.83143401 -4.6770973 -1.2728721
5.8258538 -32.805645 0.58158398
0.8585012 -4.8391609 -1.1346531
5.8013968 -32.734268 1.7422642
0.54508114 -3.0756097 -0.60715425
5.9114566 -33.389214 2.9666071
0.92064875 -5.2053194 -0.83723736
1.1100225 -6.2888308 -0.78410745
1.1209587 -6.3572712 -0.56476921
0.6661709 -3.7819016 0.74644482
1.2128533 -6.892498 -0.36677042
0.62653404 -3.5641613 0.83546823
5.7704697 -32.860096 -0.58235186
0.80913603 -4.6457138 -1.2635547
5.7270756 -32.916405 0.58318961
0.84460729 -4.8594074 -1.1387023
5.6542931 -32.565414 1.7322158
0.88429993 -5.093049 -1.0048002
5.8132596 -33.515648 2.9760199
0.936535 -5.4050851 -0.86883712
1.1097105 -6.4178548 -0.7997067
1.1082561 -6.4161177 -0.56964993
1.1942146 -6.9281816 -0.36844519
0.62235606 -3.6143384 0.84671575
5.6469207 -32.828804 -0.58144438
0.80298424 -4.7075443 -1.2796015
5.6920795 -33.405361 0.59149694
0.82698554 -4.8584838 -1.1378024
5.5506306 -32.644016 1.7353557
0.84644186 -4.9780402 -0.98152149
5.7189159 -33.669308 2.9878731
0.60604715 -3.5717902 -0.5738017
1.069405 -6.315999 -0.7865448
1.1207409 -6.6262188 -0.58795261
1.1750091 -6.9618492 -0.37001523
0.63500643 -3.7663751 0.8818081
5.7680931 -34.248375 -0.60622674
0.77127463 -4.618856 -1.2547548
5.5326695 -33.168606 0.5869593
0.80970079 -4.8594193 -1.1373526
5.464849 -32.832634 1.7443576
0.55313647 -3.3232257 -0.6548565
5.6680202 -34.090012 3.0234327
1.0726676 -6.4724464 -0.80555642
1.1272172 -6.8089633 -0.60381496
1.1516778 -6.9718199 -0.37032926
0.61931717 -3.7531872 0.87820894
5.4839411 -33.269932 -0.58856499
0.75327724 -4.6100807 -1.251649
5.3633866 -32.860107 0.58116519
0.78991091 -4.8449054 -1.1333034
5.3476391 -32.835735 1.7435203
0.52038902 -3.1953084 -0.62928808
5.5931411 -34.380966 3.0474877
1.0576932 -6.52318 -0.8114062
1.0556605 -6.5178423 -0.57766825
1.1493194 -7.1118436 -0.37755162
0.6086967 -3.7707167 0.8818081
5.3041096 -32.894032 -0.58158398
0.74663198 -4.6718192 -1.2676958
5.2448626 -32.854931 0.58074629
0.76931238 -4.8245401 -1.1279047
5.2700629 -33.086948 1.7558715
0.51170295 -3.212616 -0.63234103
0.88360989 -5.5600495 -0.89167655
1.0526365 -6.638586 -0.82529926
1.0640702 -6.7182741 -0.59509945
1.1142004 -7.0507102 -0.37409744
5.1786613 -32.845184 -0.58039719
0.74165159 -4.7469273 -1.287366
5.1282983 -32.861183 0.58053684
0.767474 -4.9234705 -1.1503997
5.200007 -33.397213 1.7713629
0.7744382 -4.9738545 -0.9784686
0.8599515 -5.5357723 -0.88729644
7.3607183 -47.43782 5.8943329
1.0443554 -6.7383418 -0.83724248
1.0525006 -6.7987351 -0.60189754
1.1215924 -7.2618113 -0.385088
5.0895638 -33.029079 -0.5833292
0.71458137 -4.680737 -1.2687311
5.1684995 -33.894981 0.5984779
0.7514568 -4.9338255 -1.1521993
5.1488843 -33.845615 1.7941815
0.75972933 -4.9939961 -0.9819032
0.80534983 -5.3063326 -0.85006499
7.2022295 -47.510326 5.9001827
1.0113169 -6.6791387 -0.8294428
1.0777627 -7.1432381 -0.37859833
5.2671256 -34.992424 -0.6176756
0.69937819 -4.690846 -1.2708015
5.1638441 -34.676281 0.61195123
0.74999821 -5.0424333 -1.1769439
4.9162517 -33.092903 1.7533594
0.73652309 -4.9577789 -0.97427082
0.78971809 -5.3286514 -0.8531937
7.0415678 -47.570522 5.9045701
0.98828715 -6.6845918 -0.82968652
0.99365979 -6.7290483 -0.59509945
1.0618455 -7.2082105 -0.38184318
5.1490121 -35.038296 -0.61816424
0.69663131 -4.7869329 -1.2961658
6.5557194 -45.103115 0.79555053
0.7349124 -5.062377 -1.1809931
4.8012733 -33.113815 1.7535686
0.72456443 -4.9972348 -0.98152149
0.49173668 -3.3998027 -0.54407912
6.8754768 -47.59481 5.9045701
0.96182919 -6.6663895 -0.82700545
0.97954249 -6.7975526 -0.60085171
1.0059865 -6.998364 -0.37053862
5.1901655 -36.196217 -0.63826942
0.68915004 -4.8543658 -1.3137655
4.9603758 -34.984711 0.616768
0.72379434 -5.1112194 -1.1917907
0.71206564 -5.0347242 -0.98839068
0.48069349 -3.4073668 -0.54501772
6.7131805 -47.646046 5.9079823
0.92306274 -6.5596256 -0.81335604
0.94721252 -6.7397671 -0.59544802
0.998465 -7.1224856 -0.37692359
5.0621223 -36.202229 -0.63805997
0.66928798 -4.8356924 -1.3080715
6.2718949 -45.3736 0.79952961
0.68889248 -4.9901667 -1.1629969
4.7565646 -34.499851 1.8251643
0.69341362 -5.0293999 -0.98686421
0.7338745 -5.3366294 -0.8531937
6.5392542 -47.61412 5.9011579
0.94682723 -6.9030433 -0.85552287
0.93233389 -6.8061986 -0.601026
0.99387419 -7.2743425 -0.38477397
4.9351816 -36.215721 -0.63799024
0.6531781 -4.8437433 -1.3096244
4.5297232 -33.635189 0.59240448
0.65016979 -4.8341703 -1.126105
4.6361117 -34.516247 1.8251643
0.67742199 -5.0434642 -0.98915386
0.4563697 -3.4067237 -0.54439199
6.3766994 -47.664204 5.9045701
0.8619988 -6.4517884 -0.79921919
0.88906962 -6.66327 -0.5881269
0.95266914 -7.1589799 -0.37849367
4.8187361 -36.308052 -0.6393165
0.63148838 -4.8096004 -1.2997893
4.432044 -33.801483 0.59505725
0.63784492 -4.871191 -1.1342032
6.3279929 -48.326576 2.5543089
0.65650409 -5.0204916 -0.98419291
0.72010088 -5.5218315 -0.88197768
6.2107935 -47.690113 5.9050579
0.87454647 -6.7244444 -0.83261144
0.86862856 -6.688067 -0.59004438
4.6731672 -36.129478 -0.63589585
0.61445034 -4.8098598 -1.2992717
0.6202088 -4.861681 -1.1315038
6.1400857 -48.197792 2.5463538
0.63649696 -5.0032768 -0.9803766
6.0531168 -47.714382 5.9055452
0.84303063 -6.6732678 -0.58847558
0.92816514 -7.3575091 -0.38864684
4.5589991 -36.24081 -0.63757133
0.59921318 -4.8176212 -1.3008245
0.61210907 -4.9353714 -1.1481502
5.9644403 -48.15947 2.5432136
0.61773074 -4.9878249 -0.97694212
0.66506714 -5.3854499 -0.85945106
0.80376625 -6.5273094 -0.80750632
0.84594148 -6.8797088 -0.60642964
0.85556728 -6.9780984 -0.36844519
4.3218164 -35.351379 -0.62165475
0.58818597 -4.867631 -1.3137655
0.59068173 -4.9026527 -1.140052
0.62517291 -5.1965656 -1.0173936
0.64626426 -5.3877387 -0.85945106
0.77767646 -6.502481 -0.80409402
0.80396634 -6.7322664 -0.59318197
3.1181917 -26.188826 -1.3821927
4.2856145 -36.100975 -0.63456947
0.52392995 -4.4667282 -1.2050616
0.57673341 -4.9317822 -1.1463506
0.58539933 -5.0134659 -0.9811399
0.60438359 -5.1917868 -0.8278513
0.74856585 -6.449944 -0.79726928
0.80041432 -6.907218 -0.60834706
0.84969294 -7.3549213 -0.38801882
4.1380601 -35.928982 -0.63128841
0.3923873 -3.4492903 -0.93019569
0.56105232 -4.9473195 -1.1494999
0.57739276 -5.0993629 -0.99754947
0.38042498 -3.3703198 -0.53719604
0.72826624 -6.4722443 -0.7997067
0.75872624 -6.7535553 -0.59457648
4.019722 -36.006798 -0.6324054
0.52003706 -4.7179856 -1.2718368
0.54995143 -5.0054235 -1.162547
0.55295336 -5.0408492 -0.98571932
0.5790742 -5.2960267 -0.84380758
0.72696197 -6.670114 -0.8238368
0.75001806 -6.8928304 -0.60660398
0.79401809 -7.3209615 -0.38592538
3.8884213 -35.968922 -0.63149786
0.48389018 -4.5353613 -1.2221435
0.53433037 -5.0247531 -1.1665962
0.53804898 -5.0681281 -0.9906804
0.53730428 -5.078002 -0.80876625
0.69097567 -6.5521884 -0.80896878
0.72511923 -6.8874803 -0.60590672
0.76950109 -7.3336196 -0.38644874
3.7690816 -36.041946 -0.63254505
0.50750583 -4.9194317 -1.3251536
0.47294167 -4.6001129 -1.0676178
0.52837163 -5.1480956 -1.0059451
0.66648948 -6.5387616 -0.80701888
0.70026606 -6.882041 -0.60520947
0.74470305 -7.3442092 -0.3868674
3.6436539 -36.058857 -0.63261485
0.44551188 -4.4713473 -1.2040263
0.48306516 -4.8654675 -1.1288043
0.51485211 -5.1948428 -1.0147223
0.50863475 -5.1504326 -0.81971669
0.65027034 -6.6082172 -0.81530601
0.69240463 -7.0490193 -0.61967731
0.72684431 -7.4262748 -0.3910543
3.4540992 -35.418556 -0.62116605
0.42897746 -4.4632597 -1.2014381
0.46793664 -4.8865228 -1.1333034
0.50437385 -5.2767367 -1.0303686
0.48615924 -5.1049819 -0.81220788
0.64182442 -6.7645912 -0.83431756
0.65295547 -6.8946958 -0.60590672
2.1104434 -22.367825 -1.1774545
2.0952008 -22.247765 5.1590276
2.1012709 -22.354038 -0.39191124
2.0823352 -22.194164 5.9730263
0.41766915 -4.5108972 -1.2138613
2.0617375 -22.309523 0.39107352
0.45409891 -4.9230552 -1.1414016
2.0540113 -22.310902 1.1742096
0.48955157 -5.3175645 -1.0380009
2.0482185 -22.290592 1.9583895
0.46977967 -5.1223845 -0.8147108
2.03966 -22.282806 2.7474227
0.46397224 -5.0785518 -0.62616473
2.0296481 -22.259045 3.5401123
0.67827511 -7.4386086 -0.6534937
2.0234766 -22.234245 4.3397603
0.67986041 -7.4848733 -0.39388046
2.0124233 -22.198658 5.1459804
2.0163798 -22.285559 -0.39058486
