# .PCD v0.7 - Point Cloud Data file format
VERSION 0.7
FIELDS x y z
SIZE 4 4 4
TYPE F F F
COUNT 1 1 1
WIDTH 1503
HEIGHT 1
VIEWPOINT 0 0 0 1 0 0 0
POINTS 1503
DATA ascii
11.076611 -0.46812081 -2.1549969
13.475644 -0.57422143 -2.1362693
17.78405 -0.76091987 -2.1856048
30.696093 -1.3241177 -2.6880574
0.67160296 -0.030262399 -0.18013807
0.66578305 -0.030233031 -0.15386651
11.074998 -0.50484961 -2.1549969
13.483532 -0.61935818 -2.1378336
17.777464 -0.81970686 -2.1851175
30.56814 -1.4201695 -2.6772501
0.67149889 -0.032489348 -0.18013807
0.64816129 -0.031586979 -0.14981739
11.073262 -0.54157287 -2.1549969
13.46562 -0.66329038 -2.1353307
17.774649 -0.8786546 -2.1851175
30.491625 -1.5179628 -2.670975
0.66945815 -0.034616176 -0.17962041
0.6461069 -0.033634879 -0.1493675
11.075325 -0.57849497 -2.15576
13.467292 -0.70814776 -2.1359563
17.767673 -0.93738347 -2.1846299
30.434692 -1.6163212 -2.6664429
0.6712622 -0.037059307 -0.18013807
0.65182275 -0.036214311 -0.1507172
11.057558 -0.61627752 -2.1527071
13.472628 -0.75559562 -2.137208
17.756191 -1.0020517 -2.183655
30.377146 -1.7196205 -2.6619108
72.899635 -4.1523061 -3.8267009
73.312523 -4.201498 -1.2817745
0.66148609 -0.038836099 -0.17754988
0.643911 -0.038029805 -0.1489176
11.05142 -0.65463966 -2.1519439
13.473851 -0.80285418 -2.1378336
17.736732 -1.063076 -2.1817052
30.339138 -1.8237332 -2.6591218
72.984383 -4.412775 -3.8319345
73.429146 -4.4653916 -1.2840782
0.65749025 -0.040904969 -0.1765146
0.65349901 -0.040885657 -0.15116711
11.056905 -0.69370401 -2.1534703
13.455195 -0.84888685 -2.1353307
17.748762 -1.1259878 -2.183655
30.22488 -1.9280702 -2.649709
73.492943 -4.7268143 -1.2854745
0.65926361 -0.043441541 -0.17703223
0.64751875 -0.042781129 -0.14981739
11.054288 -0.73422503 -2.1534703
13.451994 -0.89819682 -2.1353307
17.728878 -1.186875 -2.1817052
30.114595 -2.0266068 -2.6406448
0.67259836 -0.046678782 -0.1806557
0.64346963 -0.044882927 -0.1489176
11.047741 -0.7725333 -2.1527071
13.433012 -0.94403982 -2.1328278
17.700645 -1.2501682 -2.1787803
30.067587 -2.1288991 -2.6371584
0.67243135 -0.049026299 -0.1806557
0.64914793 -0.047442626 -0.1502673
11.029313 -0.80994207 -2.1496544
13.441628 -0.98945016 -2.1347051
17.700363 -1.3091516 -2.1792676
30.012287 -2.2302983 -2.6329749
0.66070753 -0.050374709 -0.17754988
0.64897835 -0.049708296 -0.1502673
11.038312 -0.8474139 -2.1519439
13.438092 -1.0363642 -2.1347051
17.675896 -1.3693962 -2.1768305
29.925272 -2.3236406 -2.6260026
64.448639 -5.0495825 -1.1284028
0.65860194 -0.052527115 -0.17703223
0.66045594 -0.052906998 -0.15296671
11.027458 -0.88531113 -2.1504176
13.426517 -1.0826305 -2.1334534
17.671007 -1.4310883 -2.1768305
29.889175 -2.4258287 -2.6235621
64.474472 -5.2781091 -1.1291708
0.66419017 -0.055306673 -0.17858516
0.65832531 -0.05504971 -0.15251681
11.024301 -0.9237988 -2.1504176
13.418719 -1.1291599 -2.1328278
17.681726 -1.4940999 -2.1787803
29.836405 -2.5316558 -2.6197271
64.475571 -5.5048361 -1.1295197
0.66590756 -0.05790804 -0.17910279
0.65424639 -0.057009026 -0.15161701
11.020841 -0.96419859 -2.1504176
13.418427 -1.1786801 -2.1334534
17.652674 -1.5537229 -2.1758554
29.783726 -2.6319304 -2.6158924
64.487839 -5.732697 -1.1300783
0.66762537 -0.060406223 -0.17962041
0.65597379 -0.059582859 -0.15206692
11.013498 -1.0023067 -2.1496544
13.422099 -1.2262307 -2.1347051
17.650816 -1.6187755 -2.176343
29.679125 -2.7271285 -2.6075253
64.48336 -5.9592385 -1.1303575
0.66164035 -0.062193908 -0.17806751
0.66353321 -0.062488675 -0.15386651
10.998204 -1.0396364 -2.1473646
13.410092 -1.2699884 -2.1334534
17.641397 -1.676923 -2.1758554
29.594055 -2.8235204 -2.6009016
64.537811 -6.1915483 -1.1316838
0.65950769 -0.064200476 -0.17754988
0.6497345 -0.063478053 -0.1507172
10.994697 -1.076102 -2.1473646
13.401646 -1.3164043 -2.1328278
17.651243 -1.7400508 -2.1778054
29.540911 -2.9173346 -2.5970669
64.533707 -6.41857 -1.1319979
0.66696793 -0.06727773 -0.17962041
0.64757013 -0.065549403 -0.1502673
10.99478 -1.1148703 -2.1481278
13.389108 -1.362377 -2.1315763
17.645061 -1.8016546 -2.1778054
29.475048 -3.0147572 -2.592186
64.578545 -6.6507611 -1.1331847
0.66480762 -0.069404878 -0.17910279
9.2294025 -0.96679217 -2.1424339
10.994725 -1.1536521 -2.148891
13.384271 -1.4091053 -2.1315763
17.611025 -1.8603168 -2.1743929
29.38509 -3.1092403 -2.5852134
64.579994 -6.8674116 -1.1336036
7.9555287 -0.85862786 -2.144057
9.2319584 -0.99802107 -2.1437836
10.973065 -1.1901188 -2.1454566
13.375596 -1.4530547 -2.1309505
17.608706 -1.9191369 -2.1748805
29.318602 -3.2057309 -2.5803328
64.599365 -7.0976019 -1.1343715
7.9545574 -0.88521826 -2.1445746
9.236165 -1.0311053 -2.1455832
10.967108 -1.2262819 -2.1450748
13.382221 -1.5010566 -2.1328278
17.594011 -1.9797035 -2.1739056
29.303852 -3.3024909 -2.5799842
64.602013 -7.3262067 -1.1348602
7.9322271 -0.91077584 -2.1393983
9.2305737 -1.0631162 -2.1451333
10.95886 -1.2641069 -2.1443117
13.384748 -1.5486683 -2.1340792
17.575161 -2.0397327 -2.1724429
29.201111 -3.3941789 -2.5719659
64.631653 -7.5581689 -1.1358374
7.9328361 -0.93891311 -2.1404335
9.2190666 -1.0944117 -2.1433337
10.962178 -1.3032799 -2.145838
13.355725 -1.5925738 -2.1303248
17.552166 -2.0991831 -2.1704934
29.137648 -3.4899285 -2.5674338
64.632668 -7.7870774 -1.1363262
7.931428 -0.96683174 -2.1409512
9.2093859 -1.1258761 -2.141984
10.957562 -1.3415371 -2.145838
13.357926 -1.6401472 -2.1315763
17.560492 -2.16238 -2.1724429
29.089693 -3.5872269 -2.5642962
64.676544 -8.0215015 -1.1375828
7.9375892 -0.99571407 -2.1435394
9.1996002 -1.1572864 -2.1406343
10.956709 -1.3802687 -2.1466014
13.35604 -1.68726 -2.1322021
17.521328 -2.2196724 -2.1685433
29.025604 -3.6822281 -2.5597641
64.652115 -8.2477226 -1.1376526
7.9359813 -1.0236626 -2.144057
9.1974363 -1.1896417 -2.1410842
10.945984 -1.4177498 -2.1454566
13.350069 -1.733871 -2.1322021
17.51741 -2.2813325 -2.1690307
28.973064 -3.7783713 -2.556278
64.650688 -8.4769888 -1.1381413
7.911293 -1.0485657 -2.1383629
9.1970921 -1.222253 -2.141984
10.942913 -1.4562087 -2.145838
13.340019 -1.7799386 -2.1315763
17.513273 -2.3429921 -2.1695182
28.872807 -3.8678429 -2.5486081
64.68412 -8.7111502 -1.1392581
7.9114137 -1.076696 -2.1393983
9.1985626 -1.2551399 -2.1433337
10.939709 -1.4946635 -2.1462197
13.327854 -1.8256888 -2.1306376
17.493191 -2.4024901 -2.1680558
28.807812 -3.9615474 -2.544076
64.712746 -8.9451036 -1.1403054
7.9248266 -1.1067102 -2.144057
9.1883345 -1.2864305 -2.141984
10.926648 -1.531751 -2.1446934
13.309662 -1.8705511 -2.1287606
17.468971 -2.4613223 -2.1661057
28.770134 -4.0587411 -2.5419843
64.706482 -9.1630125 -1.1407242
7.9151783 -1.1335447 -2.1425042
9.1936626 -1.318276 -2.1442335
10.923178 -1.5701618 -2.1450748
13.315118 -1.9163655 -2.1306376
17.460714 -2.5192382 -2.1661057
28.692692 -4.1500163 -2.5364063
64.733482 -9.3974447 -1.1417713
7.9037299 -1.1586653 -2.1404335
9.1832209 -1.3495097 -2.1428835
10.908199 -1.604947 -2.1431668
13.31421 -1.9636968 -2.1315763
17.451815 -2.5801721 -2.1661057
28.627527 -4.2375569 -2.5318742
64.795219 -9.6374693 -1.1434468
7.891995 -1.1850998 -2.1383629
9.1842356 -1.3824272 -2.1442335
10.912237 -1.6444768 -2.1450748
13.299461 -2.0089803 -2.1303248
17.442699 -2.6410744 -2.1661057
28.537706 -4.3261123 -2.5252504
64.765137 -9.8641911 -1.1435165
7.8897195 -1.2129344 -2.1388805
9.1812801 -1.4147747 -2.1446834
10.90643 -1.6825575 -2.1450748
13.292368 -2.0553918 -2.1303248
17.429451 -2.7013364 -2.1656184
28.471241 -4.417758 -2.5207183
64.805389 -10.101906 -1.1448429
7.8911629 -1.2413679 -2.1404335
9.1608858 -1.4443866 -2.1410842
10.908248 -1.7218425 -2.1466014
13.289014 -2.1023955 -2.1309505
17.412075 -2.7609172 -2.1646435
28.372999 -4.5039945 -2.5133972
64.832924 -10.338134 -1.1459599
7.8905959 -1.2695192 -2.1414688
9.1519413 -1.4757349 -2.1401844
10.894419 -1.7586573 -2.1450748
13.273794 -2.1475081 -2.129699
17.386654 -2.8191378 -2.1626935
28.207642 -4.5787463 -2.5001495
64.875397 -10.577252 -1.1473562
7.8842106 -1.2967414 -2.1409512
9.1621161 -1.5102077 -2.1437836
10.89015 -1.7969948 -2.1454566
13.274013 -2.1951184 -2.1309505
17.380625 -2.8804603 -2.1631808
28.167902 -4.6732683 -2.4980578
64.842026 -10.804302 -1.1474259
7.8682051 -1.3223336 -2.1378453
9.1510239 -1.5412091 -2.1424339
10.885746 -1.8353239 -2.145838
13.254583 -2.2394655 -2.1290734
17.37438 -2.9417753 -2.1636686
28.092485 -4.7615752 -2.4928286
64.839394 -11.036617 -1.1480542
7.8673496 -1.3504442 -2.1388805
9.1379061 -1.5718216 -2.1406343
10.885079 -1.8743107 -2.1469829
13.242792 -2.2850473 -2.1284475
17.344444 -2.999023 -2.161231
28.040356 -4.8534908 -2.489691
64.847755 -11.271099 -1.1488919
7.8587818 -1.3772314 -2.1378453
9.1323633 -1.6037092 -2.1406343
10.884271 -1.9133147 -2.1481278
13.223063 -2.3292029 -2.1265705
17.34169 -3.0609283 -2.1622059
27.976154 -4.9430203 -2.4855075
64.878906 -11.509968 -1.1501485
7.867238 -1.4070358 -2.1414688
9.1247921 -1.6352335 -2.1401844
10.873661 -1.9506031 -2.1473646
13.226518 -2.3774426 -2.1284475
17.303547 -3.1165173 -2.1587937
27.88422 -5.0272117 -2.4788835
64.877686 -11.74349 -1.1508466
7.8546772 -1.4331024 -2.1393983
9.120945 -1.6674254 -2.1406343
10.855199 -1.9864269 -2.1450748
13.229795 -2.4257348 -2.1303248
17.292562 -3.176899 -2.1587937
27.776365 -5.1079402 -2.4708652
64.934616 -11.988036 -1.1525918
7.8420296 -1.4590979 -2.1373277
9.1246471 -1.7010387 -2.1428835
10.859777 -2.0264673 -2.1473646
13.205712 -2.4689963 -2.1278217
17.289173 -3.2387037 -2.1597686
27.680033 -5.1901789 -2.4638927
64.92775 -12.221285 -1.1532202
7.8482766 -1.4886228 -2.1404335
9.1129112 -1.7317882 -2.1415341
10.856495 -2.0650964 -2.1481278
13.189253 -2.5135989 -2.1265705
17.258265 -3.2953117 -2.1573315
27.575642 -5.2703118 -2.456223
64.949722 -12.448572 -1.1543372
7.8392401 -1.5152761 -2.1393983
9.0956383 -1.7597769 -2.1388347
10.864639 -2.105969 -2.1511807
13.184723 -2.5580745 -2.1271961
17.247242 -3.3525243 -2.1573315
27.506229 -5.3566341 -2.4516909
64.960823 -12.685946 -1.1553144
7.8474407 -1.543874 -2.1430218
9.0856171 -1.7907624 -2.1379349
10.849893 -2.140466 -2.1496544
13.179588 -2.6048481 -2.1278217
17.223751 -3.4103944 -2.1558688
27.437504 -5.4377484 -2.4471588
64.98674 -12.926667 -1.156571
7.8382139 -1.5704981 -2.1419864
9.0926847 -1.8251507 -2.1410842
10.830805 -2.1760056 -2.1473646
13.158797 -2.6484993 -2.1259446
17.184496 -3.4650021 -2.1524565
27.301172 -5.509841 -2.4367003
64.988258 -13.162961 -1.1574087
7.8156495 -1.5943738 -2.1373277
9.0862579 -1.8568791 -2.1410842
10.826991 -2.2145858 -2.1481278
13.153342 -2.695209 -2.1265705
17.184582 -3.5243628 -2.153919
27.21542 -5.5914736 -2.4307737
65.006927 -13.391308 -1.1585257
7.819777 -1.6222447 -2.1399159
9.0743265 -1.8858105 -2.1397343
10.817665 -2.2500777 -2.1477461
13.128861 -2.7355886 -2.1240675
17.1728 -3.5813291 -2.153919
27.138218 -5.6694694 -2.4255443
65.040459 -13.623205 -1.1599219
7.8219151 -1.6497618 -2.1419864
9.069931 -1.9162945 -2.1401844
10.815507 -2.2890439 -2.148891
13.131313 -2.7815666 -2.1259446
17.14854 -3.6387789 -2.1524565
27.114365 -5.7633362 -2.4251957
65.068779 -13.866408 -1.1612831
7.8177052 -1.6788254 -2.1425042
9.0628462 -1.9495246 -2.1401844
10.803206 -2.3278425 -2.1481278
13.109444 -2.827178 -2.1240675
17.123447 -3.6990924 -2.1509941
27.011271 -5.8449783 -2.4178746
44.060955 -9.5504665 -2.3627594
65.029243 -14.107349 -1.1614926
7.8133869 -1.7078799 -2.1430218
9.0575428 -1.9831454 -2.1406343
10.773507 -2.3627963 -2.14393
13.102853 -2.8760548 -2.1246932
17.109776 -3.7618277 -2.1509941
26.923512 -5.9293714 -2.411948
65.027878 -14.356808 -1.1624001
7.7919879 -1.7331502 -2.1388805
9.0426044 -2.0146344 -2.1388347
10.778188 -2.4052603 -2.1466014
13.084512 -2.9223371 -2.1234417
17.099747 -3.8253801 -2.1514816
26.761618 -5.996644 -2.3993976
43.650669 -9.7970839 -2.3445463
65.177727 -14.640629 -1.1660302
7.7975035 -1.761534 -2.1419864
9.0472794 -2.0471904 -2.1415341
10.774407 -2.4399762 -2.1473646
13.067043 -2.9639628 -2.1221902
17.083773 -3.8782024 -2.1509941
26.742645 -6.0806885 -2.3993976
43.763783 -9.9669886 -2.3522921
7.7878542 -1.786518 -2.1409512
9.0366421 -2.076308 -2.1406343
10.777738 -2.478332 -2.1496544
13.060993 -3.0081651 -2.1228158
17.043737 -3.9285908 -2.1475818
26.726217 -6.1702328 -2.3997462
7.7912946 -1.8145245 -2.1435394
9.0221157 -2.1044924 -2.1388347
10.757989 -2.5113807 -2.1473646
13.054791 -3.0523598 -2.1234417
17.026052 -3.9871547 -2.1470942
26.70949 -6.2597361 -2.4000947
43.806782 -10.29899 -0.78549796
7.7830334 -1.8412656 -2.1430218
9.0204039 -2.1373208 -2.1401844
10.741515 -2.5471058 -2.145838
13.028682 -3.0942595 -2.1209388
16.992722 -4.0419698 -2.1446569
26.637083 -6.3409352 -2.3955626
44.437771 -10.594767 -2.394161
43.895046 -10.481565 -0.78773183
7.7709227 -1.8670679 -2.1414688
44.440422 -10.685609 0.79781932
9.0204659 -2.1706183 -2.141984
10.726833 -2.5832064 -2.1446934
13.025484 -3.1415718 -2.1221902
16.963072 -4.0975313 -2.1427069
26.587675 -6.4273238 -2.3931224
44.350052 -10.7376 -2.3914394
44.060303 -10.683732 -0.79136193
7.7699895 -1.8955561 -2.1430218
44.33292 -10.823596 0.79656273
9.0147276 -2.2025547 -2.1424339
10.723471 -2.6220329 -2.145838
13.014439 -3.1870201 -2.1221902
16.944811 -4.1557732 -2.1422195
26.537987 -6.5134435 -2.390682
44.265751 -10.880902 -2.3889275
43.793617 -10.78106 -0.78724313
7.7708254 -1.9245242 -2.1450922
44.31039 -10.982129 0.79684198
8.9918528 -2.2302556 -2.1388347
10.723781 -2.661814 -2.1477461
12.987898 -3.2286172 -2.1196871
16.914789 -4.2110596 -2.1402695
26.515087 -6.6060386 -2.390682
44.053093 -10.991837 -2.3795068
43.584995 -10.891203 -0.78417152
7.7584405 -1.9502251 -2.1435394
8.9802341 -2.2606783 -2.1379349
10.716328 -2.6997101 -2.1481278
12.984209 -3.2758667 -2.1209388
16.888439 -4.2671599 -2.1388073
21.535385 -5.445291 -1.9433986
43.898281 -11.116126 -2.3732264
43.790939 -11.105211 -0.78856951
7.7534571 -1.9777726 -2.144057
8.9760637 -2.2929757 -2.1388347
10.685915 -2.7317522 -2.14393
12.972695 -3.3211701 -2.1209388
16.87344 -4.3260856 -2.1388073
26.414286 -6.7771215 -2.3858011
43.859211 -11.269292 -2.3732264
43.767403 -11.26199 -0.78884876
7.7371545 -2.0024049 -2.1414688
8.9755507 -2.3262498 -2.1406343
10.689618 -2.7724864 -2.1466014
12.945728 -3.3624604 -2.1184359
16.839025 -4.379961 -2.1363697
26.394327 -6.8702874 -2.3861499
43.684319 -11.387055 -2.3658993
43.727825 -11.414699 -0.78884876
7.7394609 -2.0318534 -2.144057
8.9617214 -2.3560793 -2.1392844
10.677977 -2.8092837 -2.1462197
12.933912 -3.407629 -2.1184359
16.842829 -4.443778 -2.1388073
26.385593 -6.9664478 -2.3875444
34.325783 -9.0884933 -0.61980474
7.7285881 -2.0578628 -2.1430218
8.9459114 -2.3853393 -2.137485
10.677589 -2.8490703 -2.1481278
12.921939 -3.4527557 -2.1184359
16.800369 -4.4953604 -2.1353948
26.303379 -7.0430489 -2.3823152
43.967659 -11.805777 -0.79464298
7.7306814 -2.0873454 -2.1456099
8.9394121 -2.4170606 -2.1379349
10.654314 -2.8827355 -2.1454566
12.905994 -3.4968078 -2.11781
16.765415 -4.5487785 -2.1329575
22.017752 -5.9779644 -1.9960407
65.300797 -17.778553 -1.1813185
7.7158961 -2.1122777 -2.1435394
8.9290409 -2.4477348 -2.137485
10.644186 -2.9199083 -2.1454566
12.901328 -3.5439296 -2.1190615
16.753262 -4.608326 -2.1334448
26.176731 -7.2053576 -2.3753426
22.04425 -6.0844183 -0.39917144
7.706615 -2.1386817 -2.1430218
8.9467287 -2.4861927 -2.1437836
10.635819 -2.9575715 -2.145838
12.87746 -3.5857625 -2.1171842
16.740896 -4.6678438 -2.1339324
26.139906 -7.2934747 -2.3742967
65.355438 -18.272161 -1.1845297
7.6991024 -2.16557 -2.1430218
8.9196758 -2.5105674 -2.1392844
10.617873 -2.9925497 -2.1443117
12.865499 -3.6284461 -2.1171842
16.717686 -4.7211757 -2.1329575
26.083611 -7.3760009 -2.3715076
65.341286 -18.514359 -1.1854373
7.6974516 -2.1926765 -2.1445746
8.9052362 -2.5400846 -2.1379349
10.609779 -3.0282819 -2.1446934
12.848958 -3.6722474 -2.1165586
16.689655 -4.7762256 -2.131495
26.074329 -7.4668446 -2.3729022
65.40696 -18.779856 -1.1878108
7.6953197 -2.2211401 -2.1461277
8.8944426 -2.5706127 -2.137485
10.606688 -3.0674801 -2.1462197
12.839855 -3.7181749 -2.1171842
16.627121 -4.8211861 -2.1256454
22.140795 -6.4241157 -2.016958
65.387093 -19.021458 -1.1886485
7.68752 -2.2479877 -2.1461277
8.8985081 -2.6054778 -2.1406343
10.580843 -3.1000698 -2.1431668
12.819217 -3.7607484 -2.1159329
16.629236 -4.8847909 -2.1280825
22.202345 -6.5260844 -2.0246279
65.412369 -19.27672 -1.1903239
7.6722169 -2.2726142 -2.144057
8.8893585 -2.6365237 -2.1406343
10.568075 -3.1364262 -2.1427851
12.802223 -3.8043463 -2.1153071
16.642529 -4.9518661 -2.1319826
21.159727 -6.2999473 -1.9315455
65.428986 -19.530098 -1.1918597
7.6660867 -2.2999361 -2.1445746
8.8782349 -2.6669767 -2.1401844
10.555182 -3.1727316 -2.1424036
12.7813 -3.846735 -2.1140556
16.602335 -5.0030565 -2.1290576
21.175762 -6.3852744 -1.9350318
65.436981 -19.781515 -1.1932559
7.6598601 -2.3272436 -2.1450922
8.8576851 -2.6945484 -2.137485
10.545921 -3.2101285 -2.1427851
12.775352 -3.8936296 -2.1153071
16.592363 -5.0632958 -2.1300325
25.837149 -7.8893471 -2.3634894
65.486084 -20.046104 -1.19542
7.6572304 -2.3556716 -2.1466453
8.8519506 -2.726598 -2.1383848
10.527147 -3.2446074 -2.1412585
12.788109 -3.9463549 -2.1196871
16.593554 -5.1270432 -2.1324699
21.819729 -6.7459888 -1.9981325
65.461555 -20.28878 -1.1962578
7.6434264 -2.3806622 -2.1450922
8.8535404 -2.7609615 -2.1410842
10.515758 -3.2813349 -2.1412585
12.770484 -3.9897921 -2.1190615
16.575556 -5.1849341 -2.1324699
21.761826 -6.8114004 -1.9949949
65.500992 -20.55188 -1.1982822
7.6369119 -2.4079089 -2.1456099
8.8326988 -2.7883296 -2.1383848
10.500495 -3.3168387 -2.1404953
12.733879 -4.0271964 -2.1153071
16.516632 -5.226696 -2.1271076
21.684736 -6.8704729 -1.9901142
65.512535 -20.794384 -1.1997483
7.6252041 -2.4320469 -2.1445746
8.8345423 -2.821161 -2.1410842
10.502528 -3.3558242 -2.1431668
12.720454 -4.0694017 -2.1153071
16.357416 -5.2360506 -2.1088274
21.756699 -6.9727478 -1.9988298
65.553642 -21.046972 -1.2017727
7.6207743 -2.4585056 -2.1456099
8.8140125 -2.8468485 -2.1383848
10.491343 -3.3906333 -2.1431668
12.714408 -4.1139946 -2.1165586
16.169077 -5.2380557 -2.0868907
21.585621 -6.9969368 -1.9852335
65.517822 -21.288031 -1.2024708
7.6121459 -2.4850919 -2.1456099
8.8058729 -2.8782029 -2.1388347
10.470114 -3.4241831 -2.1412585
12.703723 -4.1595802 -2.1171842
16.054493 -5.2629285 -2.0744603
21.587572 -7.080936 -1.9876739
65.564682 -21.55657 -1.2047046
7.5997567 -2.5104365 -2.1445746
8.7939224 -2.9083118 -2.1383848
10.445049 -3.456392 -2.1385872
12.692878 -4.205142 -2.11781
15.953118 -5.2914381 -2.0637355
21.425331 -7.1148009 -1.9751234
65.563049 -21.809921 -1.206066
7.5813437 -2.5352108 -2.1419864
8.7929573 -2.9420824 -2.1406343
10.445343 -3.4990175 -2.1412585
12.677381 -4.2516356 -2.11781
15.864921 -5.3237271 -2.0547173
21.630779 -7.2669559 -1.9963893
65.604019 -22.078192 -1.2082301
7.5761089 -2.5628977 -2.1430218
8.7858067 -2.9755406 -2.1415341
10.438643 -3.5373473 -2.1424036
12.654979 -4.2933235 -2.1165586
15.809587 -5.3697095 -2.0500863
21.643011 -7.3552384 -1.9998757
7.5707722 -2.5905783 -2.144057
8.7550869 -2.9992437 -2.136585
10.429947 -3.5750365 -2.1431668
12.662336 -4.3451648 -2.1203129
15.738181 -5.4068027 -2.0432615
25.355419 -8.715724 -2.3457096
7.5653338 -2.618253 -2.1450922
8.7537718 -3.0329762 -2.1388347
10.408129 -3.608207 -2.1412585
12.643359 -4.3880429 -2.1196871
15.674209 -5.4460707 -2.0374119
25.28344 -8.7897844 -2.3418748
7.5488553 -2.6420925 -2.1430218
15.949695 -5.5855031 0.29498056
8.7504873 -3.066092 -2.1406343
10.393618 -3.6438663 -2.140877
12.639148 -4.4360752 -2.1215644
15.625138 -5.490221 -2.0335121
20.959568 -7.3686953 -1.9437474
7.5323014 -2.6658485 -2.1409512
8.7342205 -3.0946653 -2.1392844
10.367882 -3.6755331 -2.1382058
12.619863 -4.4788456 -2.1209388
15.576916 -5.5313778 -2.0296123
25.191423 -8.9554024 -2.3390858
7.5288773 -2.6927636 -2.1425042
8.7184076 -3.1216414 -2.1379349
10.366726 -3.7138667 -2.1404953
12.601223 -4.5193362 -2.1203129
15.536065 -5.5749559 -2.0266874
21.583952 -7.7536831 -2.0064995
7.5199065 -2.7177153 -2.1425042
8.7135038 -3.1525242 -2.1392844
10.354353 -3.7482238 -2.1404953
12.59731 -4.5651369 -2.1221902
15.49785 -5.6223831 -2.02425
24.989141 -9.0706148 -2.3258381
7.5140033 -2.7452743 -2.1435394
8.6969566 -3.1809132 -2.1379349
10.333832 -3.7816455 -2.1389689
12.585009 -4.6104407 -2.1228158
15.457629 -5.6689286 -2.021569
24.89747 -9.1358242 -2.3202603
7.4971251 -2.7688088 -2.1414688
15.808689 -5.8415394 0.29417777
8.6876278 -3.2119272 -2.1383848
10.313203 -3.8149695 -2.1374426
12.576248 -4.6570864 -2.1240675
15.41541 -5.714571 -2.0186441
24.794445 -9.1963501 -2.3136363
7.4747458 -2.7902329 -2.1378453
15.773214 -5.8910885 0.29389852
8.6836653 -3.2449622 -2.1401844
10.299824 -3.8509464 -2.1374426
12.548815 -4.6968026 -2.1221902
15.397227 -5.769042 -2.0188875
24.683838 -9.2534676 -2.3063152
7.4703836 -2.8183534 -2.1393983
15.735719 -5.9397564 0.29358438
8.6686382 -3.2738762 -2.1392844
10.297338 -3.8910396 -2.1397321
12.528647 -4.7391796 -2.1215644
15.369571 -5.8199415 -2.0179126
15.700794 -5.9484992 -1.4689229
15.722148 -5.9628654 -0.88123292
7.4604998 -2.8444126 -2.1393983
15.705547 -5.9910841 0.29340985
8.6425924 -3.2985568 -2.1356852
10.280025 -3.9255598 -2.1389689
12.53417 -4.791348 -2.1253188
15.328768 -5.8657527 -2.0152316
24.560951 -9.4034824 -2.3009117
7.4541306 -2.8718264 -2.1404335
15.680806 -6.0444317 0.29334006
8.6364803 -3.3308089 -2.1370349
10.258933 -3.9585924 -2.1374426
12.513684 -4.8336477 -2.1246932
15.29709 -5.9149284 -2.0137691
24.509602 -9.4869671 -2.2993429
7.4399548 -2.8977256 -2.1393983
15.657749 -6.0984054 0.29330516
8.6375122 -3.3658884 -2.1401844
10.235209 -3.9925992 -2.1355343
12.499563 -4.8809171 -2.1253188
15.276349 -5.9682894 -2.0137691
24.472624 -9.5710135 -2.2989943
7.4244013 -2.9215558 -2.1378453
15.618546 -6.1491599 0.29299098
8.6160526 -3.3939531 -2.1379349
10.230343 -4.0319018 -2.1374426
12.48245 -4.9245191 -2.1253188
15.266502 -6.02595 -2.0152316
24.420536 -9.6490574 -2.297251
7.4164672 -2.9468732 -2.1383629
15.58506 -6.1957479 0.29274666
8.6101809 -3.4246664 -2.1392844
10.213268 -4.064353 -2.1366794
12.458711 -4.9629612 -2.1240675
15.250123 -6.078012 -2.0157192
24.384705 -9.7285099 -2.2969024
7.4120336 -2.973609 -2.1399159
15.560718 -6.2459059 0.29267687
8.5861197 -3.4481165 -2.1361351
10.196091 -4.096735 -2.135916
12.44585 -5.005723 -2.1246932
15.231726 -6.1292915 -2.0159631
24.333828 -9.8018742 -2.2951593
7.4021316 -2.998172 -2.1399159
15.538067 -6.2967219 0.29264197
8.5764437 -3.4773026 -2.136585
10.182449 -4.1305242 -2.135916
12.432841 -5.0484538 -2.1253188
15.211316 -6.1797676 -2.0159631
24.293808 -9.8795118 -2.2944622
7.3793116 -3.0234673 -2.1368101
15.514515 -6.3598032 0.29267687
8.5642176 -3.5124416 -2.1370349
10.165786 -4.1713657 -2.135916
12.434402 -5.1073279 -2.1290734
15.20842 -6.2498345 -2.0188875
24.242897 -9.9724054 -2.2934163
7.3710294 -3.0486596 -2.1373277
17.285652 -7.1528835 0.32653454
8.5525236 -3.5408223 -2.1370349
10.157339 -4.2073078 -2.1370609
12.391852 -5.1379409 -2.1246932
15.218782 -6.3131638 -2.0230312
17.125456 -7.1111112 -1.622317
17.186954 -7.143682 -0.97543764
7.3626618 -3.0738304 -2.1378453
17.191719 -7.1808777 0.32520816
8.5443316 -3.5706675 -2.1379349
17.229076 -7.203546 0.97868246
10.143332 -4.2409673 -2.1370609
12.37839 -5.1805315 -2.1253188
15.220455 -6.3762197 -2.0262001
24.119335 -10.114076 -2.2881868
17.244276 -7.241744 -0.32646471
7.353126 -3.1015458 -2.1383629
17.118645 -7.2206373 0.32430062
8.5228376 -3.5966823 -2.1356852
17.196468 -7.2605357 0.9782638
10.129528 -4.2788801 -2.1374426
12.355681 -5.2243271 -2.1246932
15.203588 -6.4316306 -2.026931
24.061869 -10.188885 -2.2860951
7.3564739 -3.1332505 -2.1425042
17.046074 -7.2637348 0.323428
8.5131826 -3.6294246 -2.136585
17.158718 -7.3188133 0.97763574
10.103695 -4.3095913 -2.1351528
12.351902 -5.2736292 -2.1271961
15.199994 -6.495893 -2.0296123
24.004169 -10.263413 -2.2840033
7.327745 -3.151278 -2.1373277
16.993061 -7.311337 0.32290444
8.5022516 -3.659889 -2.1370349
17.103716 -7.3660235 0.97596097
10.086787 -4.3440566 -2.1347711
12.329791 -5.3151498 -2.1265705
15.222792 -6.568572 -2.0357056
23.906004 -10.320293 -2.2780766
7.3096118 -3.1737595 -2.135257
8.4965744 -3.6926522 -2.1388347
17.082859 -7.424293 0.9761703
10.073362 -4.380023 -2.1351528
12.30754 -5.3565793 -2.1259446
15.228889 -6.6343541 -2.0396054
23.774858 -10.362282 -2.2690125
31.907919 -13.920336 -1.8244315
7.3091049 -3.2039092 -2.1383629
8.4771433 -3.7176769 -2.1370349
10.05262 -4.4127913 -2.1340079
12.278857 -5.3925977 -2.1240675
15.252237 -6.7047911 -2.0456991
23.723953 -10.43879 -2.2676182
32.202045 -14.169241 6.8385944
7.303741 -3.2304738 -2.1399159
8.4569874 -3.7440896 -2.1352355
10.050496 -4.4516683 -2.1366794
12.274406 -5.4418311 -2.1265705
15.283173 -6.7821455 -2.0530112
23.63822 -10.494766 -2.2627375
32.141632 -14.276779 6.8363051
7.2906561 -3.2551615 -2.1393983
8.4480839 -3.7737031 -2.1361351
10.018765 -4.4795117 -2.1332448
12.256292 -5.4825048 -2.1265705
15.324011 -6.8611813 -2.061542
23.554171 -10.556029 -2.2582054
7.2798214 -3.2793202 -2.1393983
8.4455185 -3.8079751 -2.1388347
10.000277 -4.511096 -2.1324816
12.237081 -5.5252538 -2.1265705
15.368708 -6.9456968 -2.0708041
23.506287 -10.633259 -2.2571592
7.2554436 -3.3003807 -2.1357749
8.428628 -3.8358185 -2.1379349
9.9961815 -4.5534153 -2.1351528
12.213152 -5.5684285 -2.1259446
15.411193 -7.0297828 -2.0798223
23.4944 -10.72683 -2.2595997
7.2421231 -3.3248808 -2.135257
8.4038868 -3.8618028 -2.1352355
9.9748755 -4.5858207 -2.1340079
12.175695 -5.6027689 -2.1228158
15.459249 -7.1202688 -2.0898156
21.354153 -9.83988 -2.0570498
7.2322259 -3.3509524 -2.1357749
8.3874998 -3.8880107 -2.1343358
9.96593 -4.6239166 -2.1355343
12.153465 -5.6414509 -2.1221902
15.500362 -7.2016063 -2.0985904
20.904154 -9.7211294 -2.016958
32.246117 -15.002365 -1.8638929
32.240326 -15.013364 -0.62078214
7.238575 -3.3830965 -2.1409512
32.222137 -15.066529 0.6208868
8.3862324 -3.9230447 -2.137485
9.9469862 -4.6552753 -2.1347711
12.144432 -5.688868 -2.1240675
15.52725 -7.2801061 -2.1056585
20.817789 -9.7694941 -2.0119033
42.782436 -20.104532 -0.82511491
7.210403 -3.4021852 -2.1362925
8.3654375 -3.9489665 -2.1356852
9.9280806 -4.6908627 -2.1343896
12.130643 -5.7367191 -2.1253188
15.584289 -7.3733158 -2.1168706
20.749348 -9.8259001 -2.0085912
7.198483 -3.4273336 -2.1362925
8.359705 -3.9837933 -2.1379349
9.9151907 -4.7271791 -2.1351528
12.099847 -5.7739234 -2.1234417
15.618062 -7.4594736 -2.1251578
20.623238 -9.8544588 -1.9997013
42.215328 -20.199024 -0.81687737
7.1864758 -3.45244 -2.1362925
8.3341532 -4.0055842 -2.1347857
9.9092445 -4.7668672 -2.1374426
12.077074 -5.8123031 -2.1228158
15.650468 -7.5387912 -2.1329575
20.628201 -9.945425 -2.0035362
42.299435 -20.421028 -0.81987911
7.1802034 -3.4787791 -2.1378453
8.318367 -4.0338006 -2.1343358
9.8880835 -4.7971306 -2.1362975
12.060266 -5.8561497 -2.1234417
15.650838 -7.606391 -2.1366136
20.593313 -10.012904 -2.0033619
42.510464 -20.687838 -2.477689
42.407673 -20.656124 -0.82336962
7.1732235 -3.5063672 -2.1393983
8.3077354 -4.0645256 -2.1352355
9.8659878 -4.8290281 -2.1351528
12.043299 -5.8999505 -2.1240675
15.625974 -7.6618505 -2.1368573
20.549294 -10.080339 -2.0024903
42.169067 -20.704063 -2.4619884
42.399921 -20.835779 -0.82462627
7.1574745 -3.5296757 -2.1383629
8.2952452 -4.0943623 -2.1356852
9.847312 -4.8625679 -2.1347711
12.022631 -5.9419537 -2.1240675
15.58846 -7.7110682 -2.1353948
20.451481 -10.121079 -1.9963893
42.262436 -20.951679 -0.82336962
7.1347318 -3.5494752 -2.135257
20.805922 -10.35532 0.40566376
8.2913694 -4.1285048 -2.1383848
9.8214903 -4.8925347 -2.132863
11.99828 -5.9821215 -2.1234417
15.547236 -7.7583432 -2.1334448
20.416027 -10.192405 -1.9963893
7.1240258 -3.5752254 -2.1357749
20.708887 -10.397377 0.40447697
8.2734251 -4.1556726 -2.137485
9.8254042 -4.937367 -2.1374426
11.970266 -6.0204163 -2.1221902
15.516516 -7.810781 -2.1329575
20.241528 -10.193709 -1.9827932
41.683075 -21.028248 -0.81492269
7.1218433 -3.6053059 -2.1388805
20.593975 -10.429848 0.40294117
8.2467003 -4.1783619 -2.1343358
9.8221188 -4.978735 -2.1404953
11.949179 -6.0621643 -2.1221902
15.467916 -7.8541117 -2.1300325
20.145424 -10.233624 -1.9768665
42.053921 -21.381336 -2.4724555
7.1104817 -3.6276622 -2.1388805
8.2422094 -4.2086797 -2.136585
9.7784557 -4.9952774 -2.1343896
11.93711 -6.1032705 -2.1234417
15.404286 -7.882771 -2.1246703
20.107855 -10.294137 -1.9763435
41.783905 -21.409519 -2.4605229
7.0977755 -3.6524603 -2.1388805
8.2188072 -4.232964 -2.1343358
9.7609596 -5.0293803 -2.1343896
11.915732 -6.1449013 -2.1234417
15.380206 -7.9383163 -2.1251578
20.020462 -10.337756 -1.9712887
41.680527 -21.540569 -2.4588482
7.0798392 -3.6745446 -2.1373277
8.2178164 -4.2688136 -2.1379349
9.7485704 -5.0661373 -2.1355343
11.890706 -6.1846352 -2.1228158
15.348878 -7.9901204 -2.1246703
19.994856 -10.413099 -1.9723344
41.633419 -21.700701 -2.4605229
7.0738158 -3.7028189 -2.1393983
8.1994114 -4.2956638 -2.1370349
63.489708 -33.276321 3.7566755
9.739521 -5.1046925 -2.1374426
11.869044 -6.2261038 -2.1228158
15.313866 -8.039959 -2.1236954
19.891357 -10.447624 -1.9657105
7.0625558 -3.7283905 -2.1399159
8.1688604 -4.3160658 -2.1329858
9.7251139 -5.1404929 -2.1382058
11.843746 -6.2656484 -2.1221902
15.289216 -8.0952225 -2.1241827
19.837158 -10.507668 -1.9639674
51.055561 -27.089596 -1.0088538
7.0580249 -3.7575598 -2.1425042
8.1554642 -4.3454704 -2.1334357
9.7036467 -5.1725621 -2.1374426
11.825289 -6.3088126 -2.1228158
15.23635 -8.1354532 -2.1207705
19.768728 -10.559952 -1.9608299
50.946579 -27.260101 -1.0085745
7.036355 -3.7776053 -2.1399159
8.1471128 -4.3776016 -2.1352355
9.6786146 -5.2026844 -2.135916
11.817112 -6.3575387 -2.1253188
15.225337 -8.197999 -2.1232078
19.700174 -10.611887 -1.9576923
7.0163302 -3.7984648 -2.1378453
8.1352091 -4.4078703 -2.1361351
9.6569433 -5.2345662 -2.1351528
11.774012 -6.3874464 -2.1215644
15.193139 -8.2492018 -2.1227205
19.634998 -10.665372 -1.9549032
7.0115066 -3.8275611 -2.1404335
8.1146431 -4.4334378 -2.1347857
9.6368895 -5.267302 -2.1347711
11.751644 -6.4285069 -2.1215644
15.167734 -8.3040905 -2.1232078
19.644831 -10.759687 -1.9596097
7.0014877 -3.8538756 -2.1414688
8.0947752 -4.4575019 -2.1334357
9.6218834 -5.3028035 -2.1355343
11.733722 -6.469348 -2.1221902
15.143589 -8.3562622 -2.1236954
19.540878 -10.791594 -1.9529859
6.9903584 -3.8780091 -2.1419864
8.0740557 -4.4828935 -2.132086
9.5990963 -5.3318224 -2.1343896
11.714521 -6.512187 -2.1228158
15.096981 -8.3994217 -2.1212578
19.450867 -10.83066 -1.9477565
6.9777846 -3.9045479 -2.1425042
8.0685606 -4.5167613 -2.1347857
9.5692139 -5.3612113 -2.1320999
11.692297 -6.5560455 -2.1231289
15.08142 -8.459837 -2.1232078
19.46159 -10.9258 -1.9526372
6.962429 -3.9279313 -2.1419864
8.053648 -4.5472617 -2.1352355
9.5589886 -5.3994093 -2.1340079
11.660743 -6.591958 -2.1215644
15.050311 -8.5150566 -2.1232078
19.405991 -10.983853 -1.9508941
6.9503555 -3.9531665 -2.1425042
8.0351381 -4.5720162 -2.1343358
9.5434952 -5.4346871 -2.1347711
11.635386 -6.6286349 -2.1209388
15.018544 -8.562952 -2.1227205
19.383108 -11.060412 -1.9524629
6.9372082 -3.9761927 -2.1425042
8.0089874 -4.5942183 -2.1316364
9.5288258 -5.4682584 -2.1355343
11.620742 -6.6741281 -2.122503
14.978234 -8.6093893 -2.1212578
19.351505 -11.127608 -1.9529859
6.9249592 -4.0013509 -2.1430218
7.9979625 -4.6250734 -2.1329858
9.5011826 -5.4965706 -2.1336262
11.599084 -6.715642 -2.1228158
14.948092 -8.6616201 -2.1212578
19.219463 -11.141133 -1.943573
6.9109502 -4.0254989 -2.1430218
76.831741 -44.771015 1.5521821
7.9817691 -4.6529632 -2.1329858
9.4683714 -5.521791 -2.1305733
11.575571 -6.7560892 -2.1228158
14.917766 -8.7137461 -2.1212578
19.015316 -11.111653 -1.9268392
6.8935237 -4.0476413 -2.1419864
7.9755592 -4.6867204 -2.1356852
9.4591932 -5.5607772 -2.132863
11.548512 -6.7944512 -2.1221902
14.887259 -8.7657652 -2.1212578
18.906027 -11.136501 -1.9196924
6.8843408 -4.0746317 -2.1435394
7.950767 -4.7095656 -2.1334357
9.4397249 -5.5937619 -2.132863
11.517927 -6.8306913 -2.1209388
14.8634 -8.8217325 -2.1222329
18.891022 -11.216669 -1.9221327
6.8783708 -4.1035867 -2.1461277
7.9284134 -4.7319112 -2.1316364
9.4285698 -5.6317129 -2.1347711
11.501997 -6.872901 -2.1221902
14.834064 -8.8709726 -2.1222329
18.742338 -11.217059 -1.9109768
6.8581014 -4.1223927 -2.144057
7.9118476 -4.7595577 -2.1316364
9.4081602 -5.6619363 -2.1343896
11.474551 -6.9109707 -2.1215644
14.792807 -8.9165497 -2.1207705
18.339912 -11.058978 -1.8736742
6.8436704 -4.1463065 -2.144057
7.9035163 -4.7921968 -2.1338856
9.3799458 -5.6896515 -2.1324816
11.457112 -6.9550824 -2.1228158
14.771771 -8.9743166 -2.1222329
18.45273 -11.215024 -1.8891878
6.829155 -4.1701708 -2.144057
7.8933916 -4.8238215 -2.1356852
9.3600283 -5.7223582 -2.1324816
11.422654 -6.9888463 -2.1209388
14.747125 -9.0299702 -2.1232078
18.474632 -11.316833 -1.8954631
6.8096213 -4.1909451 -2.1425042
7.8632317 -4.8431692 -2.132086
9.3567104 -5.7652955 -2.1362975
11.401551 -7.0307508 -2.1215644
14.715515 -9.0813923 -2.1232078
18.382462 -11.348806 -1.8900594
6.801517 -4.2187629 -2.1445746
7.8429661 -4.8685322 -2.1311862
9.3198509 -5.7875633 -2.1324816
11.371907 -7.067378 -2.120626
14.666869 -9.122221 -2.1207705
18.349501 -11.417115 -1.8907566
6.7867494 -4.2424788 -2.1445746
7.8308806 -4.8989801 -2.1325359
9.3029194 -5.822144 -2.1332448
11.348843 -7.1080785 -2.1209388
14.624846 -9.1670361 -2.1193082
18.360176 -11.512852 -1.8959861
6.7718987 -4.2661433 -2.1445746
7.8137326 -4.9262853 -2.1325359
9.280879 -5.8535337 -2.132863
11.330644 -7.1518683 -2.1221902
14.602828 -9.2243919 -2.1207705
18.351879 -11.597094 -1.899298
6.750443 -4.285614 -2.1425042
7.8014226 -4.9566655 -2.1338856
9.2587337 -5.8848414 -2.1324816
11.302276 -7.1892557 -2.1215644
14.553794 -9.2646475 -2.1183331
18.403715 -11.719943 -1.908885
6.7289329 -4.304987 -2.1404335
7.7807913 -4.9817662 -2.1329858
9.2447481 -5.921361 -2.1340079
11.268797 -7.2233343 -2.1200001
14.534731 -9.3239689 -2.1202829
18.357662 -11.780886 -1.9083622
6.7171116 -4.3305426 -2.1414688
7.756804 -5.0046692 -2.1311862
9.2256718 -5.9546595 -2.1343896
11.25513 -7.2701278 -2.1221902
14.502096 -9.3746481 -2.1202829
18.328138 -11.852468 -1.9095824
6.7019544 -4.3539629 -2.1414688
7.734386 -5.0285287 -2.1298366
9.2031841 -5.9857569 -2.1340079
11.228027 -7.3082943 -2.1218774
14.462631 -9.4208784 -2.1193082
18.400164 -11.99034 -1.9214355
6.6770172 -4.3709822 -2.1383629
7.73071 -5.0626898 -2.1334357
9.1740236 -6.0124636 -2.1320999
11.202079 -7.3444042 -2.1215644
14.427992 -9.466609 -2.1188207
18.416487 -12.092771 -1.9275364
6.6592607 -4.3909731 -2.1373277
7.7162447 -5.0917916 -2.1343358
9.155673 -6.0439343 -2.1324816
11.168133 -7.3780184 -2.1200001
14.401484 -9.5212927 -2.1197956
18.441095 -12.19664 -1.9343344
6.6503296 -4.418468 -2.1393983
7.6886873 -5.1122208 -2.1316364
9.1410599 -6.0802069 -2.1340079
11.137377 -7.4136734 -2.1190615
14.354941 -9.5627003 -2.1178455
18.497887 -12.32723 -1.9447932
6.6316543 -4.4395056 -2.1383629
7.6724138 -5.1401124 -2.132086
9.1279335 -6.1175423 -2.135916
11.114712 -7.4547048 -2.1196871
14.34455 -9.6282396 -2.1212578
18.501057 -12.422824 -1.9496739
6.6289306 -4.4712696 -2.1425042
7.6560407 -5.167954 -2.1325359
9.0935068 -6.1405787 -2.132863
11.088622 -7.4934573 -2.1196871
14.277966 -9.6560116 -2.1163833
18.523592 -12.531985 -1.9566463
6.6052928 -4.4889526 -2.1399159
7.6444006 -5.1990309 -2.1343358
9.0801344 -6.1778049 -2.1347711
11.065663 -7.5343423 -2.1203129
14.254016 -9.7124977 -2.1178455
18.575218 -12.661655 -1.9667566
6.5768318 -4.5032501 -2.1357749
7.6262059 -5.2256827 -2.1343358
9.0455599 -6.200583 -2.1317184
11.039296 -7.5729232 -2.1203129
14.216754 -9.7599478 -2.1173582
18.581821 -12.761385 -1.97216
6.5690227 -4.5316653 -2.1383629
7.603107 -5.2489495 -2.1329858
9.0287056 -6.235467 -2.132863
10.999795 -7.6024251 -2.11781
14.182599 -9.809514 -2.1173582
18.604338 -12.872649 -1.9793068
6.5595098 -4.5589776 -2.1404335
7.5815377 -5.273232 -2.132086
9.0020514 -6.2635808 -2.1317184
10.979674 -7.6452904 -2.1190615
14.148272 -9.8589602 -2.1173582
18.575636 -12.948905 -1.98105
6.553051 -4.5884957 -2.1435394
7.5646815 -5.3007836 -2.1325359
8.9849548 -6.2983465 -2.132863
10.94807 -7.6801672 -2.1181231
14.102398 -9.9003038 -2.1156518
18.575977 -13.04573 -1.9859307
6.519629 -4.599093 -2.1378453
7.5540924 -5.3327756 -2.1347857
8.9516888 -6.321744 -2.1301918
10.924419 -7.7206159 -2.1187487
14.061271 -9.9448862 -2.114677
18.619781 -13.173784 -1.995518
6.5035362 -4.6218219 -2.1378453
7.5322542 -5.3568525 -2.1338856
8.9359665 -6.3575058 -2.1317184
10.897404 -7.7587028 -2.1187487
14.03617 -10.000818 -2.1161394
18.658051 -13.298833 -2.0045822
6.4983582 -4.6523671 -2.1414688
7.519846 -5.3876524 -2.1356852
8.9185076 -6.3920898 -2.132863
10.862227 -7.7909374 -2.1171842
14.010853 -10.056698 -2.1176019
18.716707 -13.439414 -2.0159123
6.4977484 -4.6863236 -2.1466453
7.4820323 -5.4001827 -2.1302865
8.8961401 -6.4231815 -2.132863
10.828562 -7.8241796 -2.1159329
13.967772 -10.096127 -2.1161394
18.790756 -13.592247 -2.0289855
6.4852982 -4.7101159 -2.1476805
7.4766941 -5.4341297 -2.1338856
8.8716154 -6.4503384 -2.1320999
10.810542 -7.8658562 -2.1174972
13.932611 -10.141223 -2.1158957
18.838987 -13.722522 -2.0390959
6.4712019 -4.7327361 -2.1481981
7.4554882 -5.4565926 -2.1329858
8.8517609 -6.4808822 -2.1324816
10.790772 -7.9063315 -2.1187487
13.895703 -10.185021 -2.1154084
18.915474 -13.874475 -2.0523434
6.4523611 -4.7518783 -2.1471629
7.4467649 -5.4882221 -2.1356852
8.8254805 -6.5067039 -2.1313365
10.759727 -7.9385538 -2.11781
13.865047 -10.233404 -2.1158957
18.959108 -14.003416 -2.0621049
6.4736857 -4.8042774 -2.1601038
7.420341 -5.5108314 -2.1338856
8.8078756 -6.5436921 -2.132863
10.727387 -7.9755793 -2.1171842
13.816095 -10.279457 -2.1144333
19.025055 -14.165349 -2.0751781
6.4158087 -4.7978921 -2.1466453
7.3979392 -5.5343652 -2.1329858
8.7869759 -6.5782828 -2.1336262
10.710731 -8.0243187 -2.1196871
13.776951 -10.325238 -2.1139457
19.08069 -14.310572 -2.0866828
6.3990221 -4.8202581 -2.1466453
7.3807163 -5.5637889 -2.1338856
8.7545547 -6.6018229 -2.1313365
10.681079 -8.0604677 -2.1193743
13.742184 -10.378057 -2.1144333
19.135544 -14.456354 -2.0981872
6.3760004 -4.8378935 -2.1445746
7.3699875 -5.5941253 -2.1361351
8.7283316 -6.6299667 -2.1305733
10.649572 -8.0922575 -2.1184359
13.707692 -10.423572 -2.1144333
19.167412 -14.5858 -2.1072516
6.3476415 -4.8496284 -2.1404335
7.3643489 -5.6304693 -2.1401844
8.7062969 -6.658875 -2.1305733
10.625966 -8.1329842 -2.1193743
13.677528 -10.476186 -2.1154084
19.154335 -14.681708 -2.1114349
6.3313546 -4.8740392 -2.1409512
7.3446498 -5.6561418 -2.1401844
8.694273 -6.7003269 -2.1336262
10.592957 -8.1694622 -2.1187487
13.637733 -10.521439 -2.1149206
19.090351 -14.738739 -2.1100404
6.3158288 -4.8972945 -2.1414688
7.3207903 -5.6806331 -2.1392844
8.6770344 -6.7354507 -2.1351528
10.559696 -8.202754 -2.11781
13.592809 -10.566481 -2.1139457
19.016768 -14.788163 -2.1076002
6.3017421 -4.9216886 -2.1425042
7.3172693 -5.7168775 -2.1437836
8.6612034 -6.7717443 -2.1370609
10.529325 -8.2352915 -2.1171842
13.545189 -10.601709 -2.1119957
18.914839 -14.815142 -2.1020222
6.2853861 -4.9425592 -2.1425042
7.3187084 -5.7592559 -2.1500821
8.6248169 -6.7894988 -2.1336262
10.503618 -8.2744408 -2.11781
13.5081 -10.648927 -2.1119957
18.853622 -14.873672 -2.1009762
6.2581434 -4.9583654 -2.1393983
7.2863431 -5.7750835 -2.1464829
8.6091032 -6.8283849 -2.135916
10.467031 -8.30797 -2.1165586
13.467736 -10.693545 -2.1115084
18.773512 -14.917083 -2.0978386
64.513092 -51.316032 -1.4388812
6.2317371 -4.9729495 -2.1362925
7.2696953 -5.8053989 -2.1478326
8.5974865 -6.8681984 -2.1389689
10.437966 -8.3444567 -2.1165586
13.443952 -10.755236 -2.1139457
18.733772 -14.99248 -2.0992332
6.128511 -4.9256883 -2.1067872
7.2433128 -5.8258543 -2.146033
8.5642824 -6.8907833 -2.1366794
10.418007 -8.3882742 -2.1184359
13.409419 -10.80459 -2.1144333
18.678221 -15.055284 -2.0988846
5.8154764 -4.7075992 -2.0048125
7.2093039 -5.8400626 -2.141984
8.5493288 -6.9280529 -2.1389689
10.385594 -8.422102 -2.11781
13.362724 -10.840242 -2.1127272
18.616274 -15.112858 -2.0978386
20.977112 -17.041557 -1.4164205
5.7489181 -4.6853623 -1.9872128
7.1959391 -5.8688645 -2.1437836
8.5141373 -6.9464355 -2.135916
10.363729 -8.4614906 -2.1190615
13.322092 -10.880728 -2.1119957
18.581482 -15.187116 -2.099582
5.7243881 -4.6970477 -1.9841069
7.1794491 -5.8951678 -2.1446834
8.4974213 -6.9823456 -2.1378241
10.335612 -8.4958124 -2.1190615
13.293229 -10.934731 -2.1134584
18.528355 -15.251885 -2.099582
5.7056456 -4.7167664 -1.9835893
7.1532903 -5.9177165 -2.1433337
8.4747982 -7.0159459 -2.1385872
10.292234 -8.5235567 -2.1165586
13.250006 -10.980847 -2.1129708
18.484598 -15.329866 -2.1009762
5.6957412 -4.7438288 -1.9861774
6.7079115 -5.5908036 -2.0160115
8.4562874 -7.0505152 -2.1401138
10.254857 -8.5561609 -2.1153071
13.205497 -11.021942 -2.1119957
18.430975 -15.394297 -2.1009762
20.689623 -17.293074 -1.4131756
5.6962624 -4.7763443 -1.9918715
6.5833435 -5.5240808 -1.9840684
8.4373722 -7.0823054 -2.1412585
10.243066 -8.6040964 -2.1187487
13.168874 -11.065673 -2.1119957
18.379824 -15.455331 -2.1009762
20.632162 -17.361588 -1.4131756
5.5888681 -4.7179456 -1.959778
6.3357353 -5.3522158 -1.9147834
8.4183388 -7.1140475 -2.1424036
10.217495 -8.6405668 -2.1193743
13.118046 -11.101315 -2.1100459
18.325764 -15.519395 -2.1009762
33.180363 -28.109138 -2.2790217
5.6201019 -4.7796993 -1.9768599
6.5470738 -5.5700264 -1.9845182
8.3981867 -7.1499457 -2.14393
10.184252 -8.6766768 -2.1190615
13.079214 -11.147038 -2.1100459
18.274509 -15.585855 -2.1013248
33.304993 -28.425051 -2.2947226
5.6562037 -4.8445292 -1.995495
6.460032 -5.5369167 -1.9642726
8.4074583 -7.2086091 -2.1527071
10.149406 -8.7083149 -2.1181231
13.047309 -11.20266 -2.1115084
18.235107 -15.662531 -2.1030681
32.523979 -27.955288 -2.2476203
5.5763569 -4.8099861 -1.9732366
6.3147502 -5.4488235 -1.925581
8.3822441 -7.2379122 -2.1527071
10.120472 -8.7419243 -2.1181231
13.00408 -11.240672 -2.1105335
18.165255 -15.713055 -2.1013248
32.31329 -27.961046 -2.2394557
5.5880895 -4.8525171 -1.9830716
6.3839498 -5.5475264 -1.9525751
8.3611593 -7.2682447 -2.1534703
10.094366 -8.781086 -2.1190615
12.952784 -11.275569 -2.1085835
18.131079 -15.788908 -2.1034167
32.540737 -28.357101 -2.2620649
5.5667548 -4.8681784 -1.9815186
6.3303165 -5.5378714 -1.9417773
8.33426 -7.2960935 -2.1530888
10.072622 -8.8210192 -2.120626
12.936222 -11.336777 -2.1119957
18.081848 -15.857354 -2.1041138
5.5314803 -4.8732247 -1.9753071
6.3280096 -5.5788898 -1.9476261
8.3118811 -7.3304868 -2.1542337
10.038677 -8.8596306 -2.120626
12.859864 -11.357456 -2.1066337
18.029579 -15.928799 -2.1048112
5.5317764 -4.9078884 -1.9815186
6.3123894 -5.6024313 -1.9485261
7.6902781 -6.8301487 -1.9992968
10.004812 -8.8889351 -2.1196871
12.826582 -11.403995 -2.1073649
17.991728 -16.00753 -2.1069028
21.458364 -19.098557 -1.5054963
5.4909763 -4.9043288 -1.9727188
6.2012577 -5.5426173 -1.9201821
7.664659 -6.8529959 -1.9985336
9.9707794 -8.9211702 -2.1190615
12.79557 -11.456644 -2.1088274
17.932775 -16.067575 -2.1065543
5.4643478 -4.9166684 -1.969613
6.1514559 -5.5368514 -1.9107343
7.611774 -6.8560772 -1.9912828
9.9424171 -8.9616232 -2.1200001
12.787935 -11.530485 -2.1141896
17.897289 -16.14876 -2.1089947
5.4170895 -4.9084721 -1.9587426
6.0921431 -5.5240178 -1.898587
7.4874582 -6.7915936 -1.9649512
9.9183874 -9.0029125 -2.1215644
12.747056 -11.578611 -2.1144333
17.840811 -16.211134 -2.1089947
5.3185811 -4.8531284 -1.9292372
6.117434 -5.5859847 -1.912534
7.4622555 -6.8163643 -1.9645696
9.8781528 -9.0294819 -2.1196871
12.703631 -11.620356 -2.1139457
17.795874 -16.284073 -2.110389
32.29858 -29.575459 -2.2951415
5.2944961 -4.865128 -1.926649
6.0720782 -5.5835619 -1.9044356
7.4499755 -6.8530045 -1.9676224
9.8378553 -9.0558815 -2.11781
12.671754 -11.672698 -2.1154084
17.735992 -16.343391 -2.1100404
32.468243 -29.939856 -2.3146102
5.2349439 -4.8442178 -1.9111199
6.0306468 -5.5824857 -1.8972371
7.3712788 -6.8282685 -1.9531209
9.822258 -9.101881 -2.1209388
12.630063 -11.711956 -2.1149206
17.66715 -16.39436 -2.1086459
32.336578 -30.017466 -2.3123076
5.2824612 -4.9208055 -1.9344137
6.0667167 -5.6553254 -1.9147834
7.2882905 -6.7964411 -1.937093
9.7904263 -9.1361122 -2.1209388
12.5804 -11.747844 -2.1134584
17.641808 -16.480059 -2.1121323
5.1835327 -4.862556 -1.9043906
6.0010347 -5.6314063 -1.8999366
7.2745399 -6.8312478 -1.9397644
9.7730341 -9.1807003 -2.1237545
12.547159 -11.794935 -2.1144333
17.575468 -16.53335 -2.1110864
5.2642941 -4.9712381 -1.9401076
5.9558477 -5.6282272 -1.8918384
6.5427842 -6.185041 -1.7501003
9.742363 -9.2161169 -2.1240675
12.503027 -11.835932 -2.1139457
17.523439 -16.594282 -2.1114349
77.967026 -73.936241 -1.8755403
5.1951122 -4.9403267 -1.9209551
6.019455 -5.7282438 -1.9183826
9.7330179 -9.2718678 -2.1290734
12.470257 -11.887722 -2.1154084
17.46829 -16.658098 -2.1117837
5.0829577 -4.8675733 -1.8857557
6.0092711 -5.7586584 -1.921532
7.1570415 -6.8609591 -1.927171
9.7319555 -9.3358698 -2.1359563
12.42582 -11.928429 -2.1149206
17.415785 -16.724491 -2.1124809
5.0311704 -4.8517613 -1.8728148
5.9835238 -5.7741866 -1.9197323
7.1429377 -6.8954449 -1.9298422
9.6950455 -9.3656673 -2.1350179
12.384108 -11.97173 -2.1149206
17.357298 -16.785183 -2.1124809
21.960829 -21.251812 -1.601585
5.2248616 -5.0738635 -1.9514956
5.960537 -5.7923222 -1.9188325
7.2046943 -7.0038128 -1.9531209
9.6750374 -9.4118481 -2.1378336
12.336552 -12.009348 -2.1139457
17.298515 -16.851467 -2.1128294
32.514362 -31.685148 -2.3792975
41.589577 -40.557236 -1.0139848
5.1703248 -5.0578556 -1.9380372
5.9820652 -5.8539815 -1.9323295
7.1467142 -6.9985785 -1.9443438
8.8828402 -8.7047949 -1.9698231
12.317237 -12.074571 -2.1178455
17.233898 -16.906168 -2.1121323
32.440773 -31.846087 -2.3824377
5.1319942 -5.0555363 -1.9302725
5.9883246 -5.9032288 -1.9413276
7.1278324 -7.0289974 -1.9458703
8.8622417 -8.7454615 -1.9720131
12.264425 -12.111266 -2.1163833
17.171946 -16.963421 -2.1117837
32.488491 -32.11639 -2.394161
5.1499748 -5.1087937 -1.9437311
5.9894657 -5.943645 -1.9480762
6.9932013 -6.9445486 -1.9157225
8.4449968 -8.3891726 -1.8853484
12.22138 -12.149072 -2.1158957
17.118279 -17.028881 -2.1124809
5.1548767 -5.1476841 -1.9520133
6.0265765 -6.0223703 -1.966972
6.820179 -6.8177981 -1.8745077
8.7689915 -8.7720518 -1.9645042
12.185913 -12.19868 -2.1171145
17.070162 -17.094009 -2.1135268
5.1000977 -5.1286612 -1.9380372
5.9667301 -6.0022426 -1.9539249
7.0979671 -7.1451993 -1.9577004
8.462862 -8.522151 -1.9022434
12.155181 -12.248886 -2.1188207
17.018805 -17.16198 -2.1145725
34.535614 -34.862652 -0.8565641
5.1102152 -5.1730328 -1.9483899
5.9690156 -6.0466104 -1.9615731
7.0397587 -7.1337624 -1.9481598
8.5981178 -8.7190161 -1.9394747
12.11653 -12.295483 -2.1195517
16.972775 -17.235479 -2.1163158
5.1142154 -5.2151756 -1.9571897
5.9396868 -6.0590591 -1.9588737
7.0520334 -7.1987858 -1.9588453
7.9069591 -8.0771408 -1.7902362
12.091586 -12.356146 -2.1227205
16.912508 -17.294622 -2.1163158
34.291389 -35.102901 -0.8565641
4.9625487 -5.0959778 -1.9059435
5.9568534 -6.1212897 -1.971921
7.0323377 -7.2289863 -1.9603716
8.5203609 -8.7647381 -1.9360331
12.033769 -12.387567 -2.1205268
16.862885 -17.370787 -2.1180589
4.9653215 -5.1363554 -1.9142257
34.453197 -35.639965 0.86525542
5.9652419 -6.1728754 -1.9818188
6.8926005 -7.1374965 -1.9286975
8.516984 -8.825758 -1.9426033
11.975293 -12.413779 -2.1178455
16.804911 -17.432413 -2.1184075
5.0709491 -5.278707 -1.9613309
34.329281 -35.748249 0.86511582
5.9474378 -6.1954336 -1.9827186
7.0427799 -7.3390136 -1.977163
8.4673395 -8.8296604 -1.9375975
11.947799 -12.467755 -2.1202829
16.752819 -17.487997 -2.1187561
5.0351562 -5.278204 -1.9546015
5.9123302 -6.2020521 -1.9782196
6.8816805 -7.221427 -1.9390012
8.3915119 -8.8119555 -1.9272728
11.895994 -12.500758 -2.1188207
16.691673 -17.54637 -2.1187561
5.043273 -5.3237977 -1.9649543
5.917439 -6.2509565 -1.9872177
7.0399532 -7.4393377 -1.9909012
8.2371912 -8.7105846 -1.8988018
11.84683 -12.536435 -2.1178455
16.641268 -17.616114 -2.1201506
4.9809775 -5.2949347 -1.9478723
5.9276161 -6.3056507 -1.9980152
6.9897413 -7.4381137 -1.984032
8.3433113 -8.8847237 -1.9304014
11.805716 -12.580607 -2.1183331
16.57695 -17.671188 -2.1198018
