# .PCD v0.7 - Point Cloud Data file format
VERSION 0.7
FIELDS x y z
SIZE 4 4 4
TYPE F F F
COUNT 1 1 1
WIDTH 1464
HEIGHT 1
VIEWPOINT 0 0 0 1 0 0 0
POINTS 1464
DATA ascii
-16.089262 -3.7737 -2.0291247
-21.634899 -5.0704384 -1.944096
-35.889954 -8.3980846 -1.9317203
-7.6231961 -1.769768 -2.096952
-8.8845634 -2.0593312 -2.1055419
-10.473548 -2.4257147 -2.0897403
-12.715785 -2.9403462 -2.0671253
-16.094601 -3.7157321 -2.0281496
-21.627228 -4.9890647 -1.9418299
-35.97744 -8.2862101 -1.9348605
-63.058464 -14.500235 -1.129415
-7.6236777 -1.7418562 -2.0953991
-8.9049959 -2.0313413 -2.1086912
-10.489609 -2.390883 -2.0912669
-12.70671 -2.8915584 -2.0639966
-16.09973 -3.6577692 -2.0271747
-21.599825 -4.9033961 -1.9378208
-36.002247 -8.1596909 -1.9346513
-7.6297121 -1.715232 -2.0953991
-8.8644972 -1.9895754 -2.0974436
-10.513216 -2.3576894 -2.0943196
-12.709015 -2.8454626 -2.0627451
-16.120148 -3.6032801 -2.0281496
-21.605141 -4.8253622 -1.9367748
-36.073399 -8.0435314 -1.9369539
-7.6394248 -1.6894248 -2.0964344
-8.8637762 -1.9569374 -2.095644
-10.567393 -2.3311267 -2.1034784
-12.695721 -2.7959809 -2.0589907
-16.120993 -3.5444338 -2.0266874
-21.641314 -4.7541914 -1.9385179
-36.101254 -7.9175706 -1.9369539
-63.281078 -13.855368 -1.1307414
-7.6452751 -1.6627476 -2.0964344
-8.8610325 -1.9239178 -2.0933945
-10.548606 -2.2884007 -2.0981357
-12.728571 -2.7566648 -2.0627451
-16.13715 -3.4889746 -2.0271747
-21.642199 -4.6752543 -1.9371235
-36.1521 -7.7965479 -1.9382099
-63.602734 -13.693326 -1.135628
-7.6510329 -1.6360503 -2.0964344
-8.8791285 -1.895418 -2.0960939
-10.550769 -2.2503362 -2.0969911
-12.736183 -2.7118082 -2.0624323
-16.168648 -3.4367509 -2.0296123
-21.656437 -4.5992708 -1.9369491
-36.210358 -7.6769328 -1.9398848
-7.6529164 -1.6085402 -2.0953991
-8.8723402 -1.8616111 -2.0929446
-10.539346 -2.2094624 -2.0931747
-12.735905 -2.6653104 -2.060868
-16.164999 -3.3770463 -2.0276623
-21.68211 -4.5256824 -1.9378208
-36.260395 -7.5553851 -1.9411408
-7.6603765 -1.5822054 -2.0959167
-8.8806925 -1.8310227 -2.0933945
-10.541224 -2.1714735 -2.09203
-12.733521 -2.6184499 -2.0589907
-16.188356 -3.3229942 -2.0291247
-21.701681 -4.4507651 -1.9381694
-36.310028 -7.4335723 -1.9423969
-7.6696391 -1.5562241 -2.096952
-8.8733473 -1.7988527 -2.0902452
-10.552588 -2.1354432 -2.0927932
-12.751816 -2.5781665 -2.060555
-16.179829 -3.2653654 -2.0266874
-21.765909 -4.3848262 -1.9425271
-36.342308 -7.3146982 -1.9428155
-7.6785464 -1.5315374 -2.0979872
-8.8872156 -1.7693917 -2.0920448
-10.546134 -2.0977564 -2.0901217
-12.747173 -2.5309484 -2.0583651
-16.195023 -3.2096388 -2.0271747
-21.809649 -4.318428 -1.9451418
-36.406811 -7.1955395 -1.9449091
-7.683846 -1.5047249 -2.0979872
-8.8914261 -1.7379826 -2.0915949
-10.545685 -2.0594251 -2.0885954
-12.757871 -2.4868116 -2.0586779
-16.225615 -3.1568828 -2.0296123
-21.857838 -4.2487335 -1.9481051
-36.463074 -7.0745053 -1.9465836
-7.6814632 -1.4764372 -2.0959167
-8.9070082 -1.7087708 -2.0938444
-10.560521 -2.0240819 -2.0901217
-12.756772 -2.440407 -2.0571134
-16.267733 -3.1061783 -2.0335121
-21.925377 -4.1824894 -1.9528115
-36.515015 -6.9524031 -1.9480491
-7.6922646 -1.4506886 -2.0974696
-8.8975973 -1.674787 -2.0902452
-10.5791 -1.9893831 -2.0924115
-12.778803 -2.398416 -2.0593035
-16.325304 -3.058146 -2.0393617
-22.045597 -4.1257257 -1.9622244
-36.558697 -6.8285661 -1.9490958
-7.6972818 -1.4238286 -2.0974696
-8.9072218 -1.6444259 -2.091145
-10.591771 -1.9535084 -2.0935564
-12.78904 -2.3541522 -2.0596163
-16.261686 -2.9875147 -2.0300996
-22.183323 -4.0714054 -1.973206
-36.598026 -6.7037973 -1.9499333
-7.7022052 -1.3969512 -2.0974696
-65.487572 -11.865696 1.161702
-8.907156 -1.6122823 -2.0897954
-10.594662 -1.9158279 -2.0927932
-12.804955 -2.3108988 -2.060868
-16.252478 -2.9272132 -2.0276623
-22.377804 -4.0264006 -1.9892427
-36.660519 -6.5830646 -1.9520266
-7.7051325 -1.3697187 -2.096952
-65.441963 -11.621643 1.1601663
-8.9223223 -1.5828824 -2.0920448
-10.585819 -1.8760929 -2.0897403
-12.826559 -2.268595 -2.0630579
-16.250868 -2.8683932 -2.0262001
-22.491787 -3.9659119 -1.9981325
-36.706879 -6.459208 -1.9532828
-7.6965451 -1.3404939 -2.0933285
-65.358017 -11.371557 1.1579672
-8.9316349 -1.5523953 -2.0929446
-10.603909 -1.8411448 -2.09203
-12.816884 -2.2207727 -2.0602422
-16.272518 -2.8136742 -2.0276623
-22.474083 -3.8819501 -1.9953436
-36.784313 -6.3405271 -1.9562136
-7.7106986 -1.3152455 -2.0959167
-65.420967 -11.147358 1.158386
-8.9389191 -1.5215354 -2.0933945
-10.629626 -1.8074123 -2.0958462
-12.8304 -2.177011 -2.0611808
-16.297901 -2.7595103 -2.0296123
-22.471779 -3.8008184 -1.9939489
-36.829857 -6.2160835 -1.9574696
-7.7190533 -1.2889583 -2.096952
-8.9285383 -1.4893191 -2.0897954
-10.639745 -1.7709389 -2.0966094
-12.837548 -2.1344512 -2.0611808
-16.310877 -2.7060983 -2.0300996
-22.528154 -3.7295179 -1.9977839
-36.881794 -6.0991297 -1.9591444
-7.7232852 -1.2633536 -2.096952
-8.9375286 -1.4587731 -2.0906951
-10.630056 -1.733121 -2.0935564
-12.85272 -2.0908985 -2.0624323
-16.308466 -2.6472373 -2.0286372
-22.47353 -3.6439483 -1.9918574
-36.914692 -5.9722643 -1.9597725
-7.7162032 -1.2345533 -2.0938461
-8.9387178 -1.426952 -2.0897954
-10.636042 -1.6960019 -2.0935564
-12.859941 -2.046021 -2.0624323
-16.325453 -2.5915389 -2.0296123
-22.470371 -3.5629821 -1.9904628
-37.002384 -5.853982 -1.9633311
-7.7204652 -1.2076129 -2.0938461
-8.9474955 -1.3963419 -2.0906951
-10.645777 -1.659472 -2.0943196
-12.865051 -2.0008116 -2.0621192
-16.346167 -2.536366 -2.0310745
-22.474796 -3.4832976 -1.9897656
-37.069962 -5.7321162 -1.9658433
-7.7303629 -1.1815315 -2.0953991
-8.9462967 -1.3657807 -2.0893452
-10.667032 -1.6246657 -2.0973725
-12.865757 -1.95725 -2.0611808
-16.366264 -2.483933 -2.0325372
-22.510458 -3.4084034 -1.9918574
-37.112469 -5.6127396 -1.9670994
-7.7418804 -1.1570319 -2.0974696
-8.9375181 -1.3325343 -2.0861959
-10.664593 -1.5881265 -2.0958462
-12.870558 -1.9120346 -2.060868
-16.363052 -2.4250424 -2.0310745
-22.533461 -3.3354867 -1.9929032
-37.159496 -5.4872422 -1.9685649
-7.7401376 -1.129164 -2.0959167
-8.9496012 -1.3040127 -2.0879958
-10.670072 -1.5508901 -2.0958462
-12.88269 -1.8702008 -2.0618064
-16.371004 -2.3707664 -2.0310745
-22.556797 -3.2585239 -1.9939489
-37.21307 -5.3691187 -1.970449
-7.7421193 -1.1018684 -2.0953991
-8.9678268 -1.2731171 -2.091145
-10.663757 -1.5119838 -2.0935564
-12.895328 -1.8237973 -2.0627451
-16.387447 -2.3118567 -2.0320497
-22.568588 -3.1758268 -1.9939489
-37.248318 -5.2349129 -1.9712863
-7.738452 -1.072422 -2.0933285
-8.9683552 -1.2412733 -2.0902452
-10.673118 -1.4734234 -2.0943196
-12.894097 -1.7754432 -2.0614936
-16.403282 -2.2557211 -2.0330245
-22.587435 -3.0981109 -1.9946463
-37.334534 -5.1075587 -1.9748452
-7.7421479 -1.0454029 -2.0933285
-8.9689817 -1.2078718 -2.0893452
-10.674304 -1.4356344 -2.0935564
-12.910006 -1.7317365 -2.0630579
-16.427179 -2.1976943 -2.0349743
-22.60601 -3.0203016 -1.9953436
-37.371933 -4.9798431 -1.9758918
-7.7476649 -1.0186249 -2.0938461
-8.9690733 -1.1776173 -2.0884457
-10.692876 -1.4001518 -2.0962276
-12.909801 -1.6881468 -2.0621192
-16.438314 -2.1437206 -2.0354621
-22.624317 -2.9424007 -1.9960407
-37.419937 -4.8600097 -1.9775667
-7.7567492 -0.99366331 -2.0953991
-8.9711971 -1.1460528 -2.0879958
-10.687724 -1.3634429 -2.0943196
-12.919536 -1.6435714 -2.0627451
-16.437819 -2.0853269 -2.034487
-22.649765 -2.8693619 -1.9974353
-37.551598 -4.7438688 -1.9836376
-7.7563362 -0.96610332 -2.0943637
-8.9867458 -1.1161736 -2.0906951
-10.692418 -1.3261272 -2.0943196
-12.931073 -1.5991936 -2.0636837
-16.456821 -2.0293891 -2.0359495
-22.683371 -2.7932088 -1.999527
-37.54414 -4.6098385 -1.9823816
-7.7615795 -0.9392547 -2.0948815
-8.9944563 -1.0852638 -2.0915949
-10.693083 -1.2883255 -2.0935564
-12.940501 -1.554517 -2.0643096
-16.47563 -1.9733517 -2.0374119
-22.692982 -2.7140117 -1.999527
-37.607601 -4.4844403 -1.9848937
-7.760973 -0.9117049 -2.0938461
-8.9865761 -1.0525004 -2.0888956
-10.703365 -1.2516756 -2.0947013
-12.936037 -1.5081925 -2.0627451
-16.478474 -1.91537 -2.0369244
-22.710234 -2.6356997 -2.0002241
-37.662704 -4.3577285 -1.9869872
-7.773706 -0.88570178 -2.0964344
-8.9882593 -1.0209069 -2.0884457
-10.705719 -1.2140849 -2.0943196
-12.939261 -1.462806 -2.0624323
-16.477169 -1.8569481 -2.0359495
-22.735136 -2.5581918 -2.0016189
-37.689594 -4.2275691 -1.9876151
-7.7786703 -0.85877281 -2.096952
-8.9956427 -0.98994976 -2.0893452
-10.713794 -1.1771361 -2.0950828
-12.954105 -1.4187055 -2.0639966
-16.479605 -1.7989935 -2.0354621
-22.732042 -2.47752 -2.0005729
-37.767662 -4.1028838 -1.9909648
-7.7796993 -0.83141136 -2.0964344
-9.0009823 -0.95874929 -2.0897954
-10.713933 -1.1393179 -2.0943196
-12.964872 -1.3741028 -2.0649352
-16.505219 -1.7464232 -2.0378993
-22.764328 -2.4006619 -2.0026646
-37.817509 -3.9747815 -1.9928488
-7.7670412 -0.80401671 -2.0922933
-9.0118647 -0.92969519 -2.0915949
-10.709841 -1.1029779 -2.0927932
-12.969357 -1.3311017 -2.0649352
-16.503021 -1.6908705 -2.0369244
-22.75631 -2.3235397 -2.0012703
-37.894062 -3.8558207 -1.9961983
-7.7754312 -0.77883321 -2.0938461
-9.0129595 -0.89961183 -2.091145
-10.729255 -1.0671411 -2.0958462
-12.956008 -1.2863293 -2.0621192
-16.512775 -1.6336443 -2.0374119
-22.803936 -2.2480054 -2.0047565
-37.939095 -3.726645 -1.9978731
-7.7916937 -0.75162786 -2.0974696
-9.0026169 -0.86526853 -2.0879958
-10.729185 -1.0274347 -2.0950828
-12.960635 -1.2388375 -2.0621192
-16.522602 -1.5734869 -2.0378993
-22.800123 -2.1632748 -2.0037105
-7.7924728 -0.72288632 -2.096952
-9.0115499 -0.83280426 -2.0893452
-10.728796 -0.98961568 -2.0943196
-12.972958 -1.1920488 -2.0633709
-16.524305 -1.5125561 -2.0374119
-22.843248 -2.0869417 -2.0068481
-7.7968726 -0.69585258 -2.0974696
-9.0103798 -0.80257016 -2.0884457
-10.716541 -0.95077085 -2.0912669
-12.996517 -1.1507641 -2.0664995
-16.537142 -1.4584481 -2.0383868
-22.834517 -2.005796 -2.0054536
-7.78374 -0.66867036 -2.0933285
-9.0267181 -0.77227581 -2.0915949
-10.727459 -0.91589588 -2.0927932
-12.988646 -1.1043863 -2.0646224
-16.546087 -1.4010444 -2.0388744
-22.868837 -1.9324107 -2.007894
-7.7918024 -0.6419735 -2.0948815
-9.0214615 -0.74169886 -2.0897954
-10.738418 -0.87908757 -2.0943196
-12.990268 -1.0611471 -2.0643096
-16.558556 -1.3468187 -2.0398493
-22.879416 -1.8528928 -2.0082426
-30.920633 -2.4986877 -1.6257643
-7.7996659 -0.61658782 -2.0964344
-9.0181665 -0.70974457 -2.0884457
-10.745189 -0.84377974 -2.0950828
-12.989952 -1.0154877 -2.0636837
-16.567116 -1.289314 -2.0403366
-22.913244 -1.7791703 -2.0106831
-7.8094764 -0.58994007 -2.098505
-9.0244751 -0.67855507 -2.0893452
-10.744153 -0.80597293 -2.0943196
-13.007208 -0.97117054 -2.0658739
-16.567554 -1.2311814 -2.0398493
-22.923288 -1.6994711 -2.0110316
-7.8037806 -0.56212085 -2.0964344
-9.034564 -0.64760679 -2.091145
-10.729277 -0.76720077 -2.0908849
-13.01643 -0.9261812 -2.0668125
-16.583633 -1.1741832 -2.0413115
-22.965136 -1.6179616 -2.0141692
-7.7980785 -0.53298771 -2.0943637
-9.0328817 -0.61580098 -2.0902452
-10.735934 -0.72813898 -2.0916483
-13.013824 -0.87806511 -2.0658739
-16.591593 -1.1165586 -2.0417993
-22.986547 -1.5388526 -2.0155637
-38.495785 -2.5636342 -2.0219476
-7.8076034 -0.50626391 -2.0964344
-9.0389671 -0.58294034 -2.091145
-10.746247 -0.69116282 -2.0931747
-13.014838 -0.8325097 -2.0655608
-16.619345 -1.0572478 -2.044724
-23.007938 -1.4556037 -2.016958
-38.560314 -2.4327631 -2.0248783
-7.813262 -0.47787991 -2.0974696
-9.0390015 -0.55126595 -2.0906951
-10.774183 -0.65331584 -2.0981357
-13.023719 -0.78515565 -2.0664995
-16.615007 -0.99875599 -2.0437491
-23.020838 -1.3757515 -2.0176554
-38.640743 -2.2956889 -2.0286465
-7.8186617 -0.4521904 -2.098505
-9.0486517 -0.52015984 -2.0924947
-10.760611 -0.61668468 -2.0950828
-13.02625 -0.74196571 -2.0664995
-16.62632 -0.94120103 -2.044724
-23.013336 -1.298735 -2.0166094
-38.696003 -2.1702216 -2.0311587
-7.8124766 -0.42447597 -2.0964344
-9.0504131 -0.4885686 -2.0924947
-10.762697 -0.57911915 -2.0950828
-13.048487 -0.69754523 -2.0696282
-16.637434 -0.88357931 -2.0456991
-23.025688 -1.2188164 -2.0173068
-38.743237 -2.0372307 -2.0332522
-7.8061929 -0.39681023 -2.0943637
-9.0501165 -0.45687529 -2.0920448
-10.764654 -0.54154646 -2.0950828
-13.037032 -0.65130299 -2.0674381
-16.644382 -0.82569468 -2.0461864
-23.021843 -1.1380401 -2.0166094
-38.845863 -1.906678 -2.0382764
-7.8191085 -0.37010878 -2.0974696
-9.0516567 -0.42528144 -2.0920448
-10.774323 -0.50433695 -2.0966094
-13.045146 -0.60606593 -2.0683768
-16.663029 -0.76832092 -2.0481365
-23.033636 -1.058037 -2.0173068
-38.904156 -1.7734325 -2.0409977
-7.8145633 -0.34255874 -2.0959167
-9.0375109 -0.39300731 -2.0884457
-10.770132 -0.46646932 -2.0954645
-13.06297 -0.56120723 -2.0708797
-16.665609 -0.71015102 -2.0481365
-23.061077 -0.97864676 -2.0193987
-38.958 -1.6396353 -2.04351
-7.8272929 -0.31574383 -2.0990226
-9.0505114 -0.36192507 -2.091145
-10.779543 -0.42918128 -2.0969911
-13.056953 -0.51529354 -2.0696282
-16.652117 -0.65135556 -2.0461864
-23.056387 -0.8978318 -2.0187013
-39.023361 -1.5059555 -2.0466502
-7.8206253 -0.28813669 -2.096952
-9.0575609 -0.33054358 -2.0924947
-10.769203 -0.39112574 -2.0947013
-13.066569 -0.46999368 -2.0708797
-16.662119 -0.59641498 -2.0471613
-23.075312 -0.81790298 -2.0200958
-39.092255 -1.3719699 -2.0499997
-7.8138151 -0.26194179 -2.0948815
-9.0605564 -0.30057013 -2.0929446
-10.774365 -0.35554072 -2.0954645
-13.079903 -0.42705017 -2.072757
-16.687815 -0.54193068 -2.0500863
-23.085861 -0.74163848 -2.020793
-39.172443 -1.2447367 -2.0539773
-7.8165717 -0.23608871 -2.0953991
-9.0653982 -0.27063853 -2.0938444
-10.787259 -0.32015872 -2.0977542
-13.077296 -0.38355696 -2.0721312
-16.69754 -0.48390555 -2.0510612
-23.100262 -0.66139084 -2.0218389
-39.248226 -1.116873 -2.0577452
-60.570854 -1.7024847 -1.0576856
-7.8212466 -0.20753843 -2.0964344
-9.0565472 -0.23873788 -2.0915949
-10.790323 -0.28067014 -2.0981357
-13.086514 -0.33582619 -2.0733826
-16.69516 -0.42551574 -2.0505736
-23.122347 -0.58125186 -2.023582
-39.331928 -0.97499275 -2.0619323
-7.8219233 -0.18023756 -2.0964344
-9.059309 -0.20558426 -2.0920448
-10.781423 -0.24278444 -2.0962276
-13.087606 -0.29014334 -2.0733826
-16.692638 -0.3642351 -2.0500863
-23.152121 -0.50113922 -2.0260222
-39.359051 -0.83820188 -2.0631883
-7.8147788 -0.15278159 -2.0943637
-9.0599718 -0.17396203 -2.0920448
-10.774353 -0.20499909 -2.0947013
-13.104339 -0.24475512 -2.0758855
-16.697779 -0.30603701 -2.0505736
-23.133808 -0.41996345 -2.0242794
-39.469574 -0.7027269 -2.0688405
-60.455585 -1.0552592 -1.0554168
-7.8171964 -0.12553094 -2.0948815
-9.0644217 -0.14239673 -2.0929446
-10.778929 -0.16744645 -2.0954645
-13.097215 -0.19889064 -2.0746341
-16.698746 -0.24775255 -2.0505736
-23.15904 -0.33955869 -2.026371
-39.523708 -0.56569964 -2.0715621
-7.8291759 -0.098390356 -2.0979872
-9.0687599 -0.11080033 -2.0938444
-10.801042 -0.13008229 -2.0996623
-13.097829 -0.15316813 -2.0746341
-16.719357 -0.18968627 -2.0530112
-23.144146 -0.25853229 -2.0249765
-39.60133 -0.42855281 -2.0755396
-7.835268 -0.071113221 -2.0995402
-9.0651951 -0.07911168 -2.0929446
-10.795541 -0.092328146 -2.0985174
-13.098284 -0.10744999 -2.0746341
-16.708008 -0.13122568 -2.0515487
-23.164831 -0.17789492 -2.0267196
-39.682476 -0.29089087 -2.0797265
-60.355259 -0.43189803 -1.053532
-7.831605 -0.043740802 -2.098505
-9.0654078 -0.049049627 -2.0929446
-10.803651 -0.054683566 -2.100044
-13.106468 -0.064052038 -2.0758855
-16.70438 -0.075804524 -2.0510612
-23.189219 -0.097138517 -2.0288115
-39.747135 -0.15956193 -2.083076
-60.316414 -0.22108234 -1.0528339
-7.8239794 -0.017752187 -2.0964344
-9.0752659 -0.017423602 -2.0951941
-10.795918 -0.018842947 -2.0985174
-13.118465 -0.01831772 -2.0777628
-16.728363 -0.017515387 -2.0539861
-23.193399 -0.020242345 -2.02916
-39.799377 -0.02083417 -2.0857973
-60.148842 -0.010506402 -1.049902
-7.8143339 0.0095452592 -2.0938461
-9.0830669 0.014267594 -2.0969937
-10.795918 0.018839685 -2.0985174
-13.110547 0.027458197 -2.0765114
-16.732294 0.040883783 -2.0544736
-23.193329 0.060718495 -2.02916
-39.887085 0.11834406 -2.0904028
-7.8239126 0.036868051 -2.0964344
-9.0751667 0.045931961 -2.0951941
-10.801678 0.056558076 -2.0996623
-13.112347 0.073230654 -2.0768242
-16.747931 0.099384844 -2.0564234
-23.216858 0.14587651 -2.0312517
-39.974308 0.25814387 -2.0950086
-7.8314519 0.065608755 -2.098505
-9.0671568 0.077543527 -2.0933945
-10.817102 0.096285239 -2.1027153
-13.113965 0.12131093 -2.077137
-16.75145 0.1578833 -2.056911
-23.204252 0.22680138 -2.0302057
-40.064964 0.405586 -2.0998235
-60.055676 0.61843824 -1.0483311
-7.833107 0.092968367 -2.0990226
-9.0707083 0.11082572 -2.0942943
-10.799034 0.13382474 -2.0992808
-13.117413 0.16713719 -2.0777628
-16.73488 0.21907181 -2.0549612
-23.191366 0.30764005 -2.02916
-7.8327346 0.12031066 -2.0990226
-9.0741634 0.14254704 -2.0951941
-10.790648 0.17139515 -2.0977542
-13.130575 0.21314615 -2.079953
-16.749891 0.27774984 -2.056911
-23.226007 0.3891871 -2.0322976
-7.8245411 0.14750771 -2.096952
-9.0755587 0.17425857 -2.095644
-10.79391 0.20913944 -2.0985174
-13.123826 0.25886261 -2.0790143
-16.740883 0.33605331 -2.0559361
-23.216541 0.47009793 -2.0316002
-7.8278408 0.1749042 -2.0979872
-9.0709991 0.20585114 -2.0947442
-10.793114 0.24681368 -2.0985174
-13.118893 0.30458352 -2.0783885
-16.763422 0.39504957 -2.0588608
-23.254595 0.55208784 -2.0350864
-7.8252511 0.20217773 -2.0974696
-9.066329 0.23740962 -2.0938444
-10.800037 0.28469443 -2.100044
-13.121699 0.35047787 -2.0790143
-16.754082 0.45042416 -2.0578859
-23.272442 0.63379568 -2.0368297
-32.361263 0.8926301 -1.6966273
-7.8303313 0.2282953 -2.0990226
-9.0654917 0.2674737 -2.0938444
-10.802958 0.32062396 -2.1008072
-13.124414 0.39410818 -2.0796399
-16.756464 0.50610065 -2.0583735
-23.318008 0.71242762 -2.0410132
-7.8295312 0.25426066 -2.0990226
-9.0684509 0.29766053 -2.0947442
-10.786076 0.35781094 -2.0977542
-13.134881 0.43802053 -2.0815172
-16.754595 0.56458908 -2.0583735
-23.327326 0.79422569 -2.0420589
-7.815033 0.28246546 -2.0953991
-9.0770359 0.33125374 -2.0969937
-10.810197 0.39828134 -2.1027153
-13.125291 0.48587036 -2.0802658
-16.772251 0.62673551 -2.0608108
-23.356117 0.8809157 -2.044848
-7.8216658 0.31141645 -2.0974696
-9.0738144 0.3644425 -2.0965438
-10.80678 0.43593475 -2.1023335
-13.123421 0.53397393 -2.0802658
-16.754093 0.6846298 -2.0588608
-23.368822 0.96310085 -2.0462425
-40.79076 1.6953648 -2.1395988
-7.8225203 0.33743587 -2.0979872
-9.0511389 0.39359722 -2.0915949
-10.805275 0.47176933 -2.1023335
-13.121578 0.57748717 -2.0802658
-16.767595 0.74088627 -2.0608108
-23.377443 1.0411222 -2.0472884
-40.88866 1.8352808 -2.1450417
-7.8348675 0.3640005 -2.1016109
-9.0595169 0.42406562 -2.0938444
-10.799729 0.50741446 -2.1015704
-13.127484 0.62137091 -2.0815172
-16.760941 0.79921889 -2.0603232
-23.389784 1.1193961 -2.0486827
-40.974121 1.975288 -2.1498566
-7.8219724 0.39076895 -2.098505
-9.0579824 0.45568693 -2.0938444
-10.786127 0.54451329 -2.0992808
-13.1351 0.66769236 -2.0830817
-16.773911 0.85853285 -2.0622733
-23.41757 1.2026762 -2.0514719
-41.046757 2.1224289 -2.1540434
-7.8147726 0.41776115 -2.096952
-9.0641193 0.48772147 -2.095644
-10.792003 0.58258414 -2.1008072
-13.130716 0.71343154 -2.0827687
-16.798561 0.91859752 -2.0656855
-23.449038 1.2863709 -2.0546095
-41.110893 2.2696605 -2.1578119
-7.8151951 0.44514734 -2.0974696
-9.0545797 0.51891243 -2.0938444
-10.797744 0.62070274 -2.1023335
-13.132091 0.75949043 -2.0833945
-16.783361 0.97653848 -2.0642233
-23.551811 1.3744843 -2.0640223
-41.202412 2.4190145 -2.1630452
-7.823236 0.47300607 -2.1000578
-9.0429878 0.54992449 -2.0915949
-10.79943 0.65862685 -2.1030967
-13.129359 0.80532575 -2.0833945
-16.791739 1.0358511 -2.0656855
-23.570732 1.4581641 -2.0661139
-41.297371 2.5692632 -2.1684883
-7.8215375 0.50031161 -2.1000578
-9.0468483 0.58186042 -2.0929446
-10.793147 0.69607013 -2.1023335
-13.138296 0.851915 -2.0852716
-16.795944 1.0949759 -2.0666604
-23.581406 1.5414671 -2.0675085
-41.387798 2.7199519 -2.1737218
-7.8216705 0.52774292 -2.1005754
-9.0447617 0.61343658 -2.0929446
-10.774981 0.73267573 -2.0992808
-13.141153 0.89817536 -2.0862103
-16.803904 1.154411 -2.0681231
-23.607683 1.6259688 -2.0702975
-41.47768 2.8712935 -2.1789556
-7.8062916 0.55408335 -2.096952
-9.0445089 0.64514589 -2.0933945
-10.780191 0.77084076 -2.1008072
-13.132029 0.94361997 -2.0852716
-16.811649 1.2139187 -2.0695853
-23.641605 1.7112424 -2.0737836
-41.559032 3.0227261 -2.1837704
-7.8043103 0.58132923 -2.096952
-9.0402594 0.67656595 -2.0929446
-10.785266 0.80905372 -2.1023335
-13.126685 0.9893024 -2.0849588
-16.811266 1.2728989 -2.0700727
-23.639463 1.7940589 -2.0741322
-41.627892 3.1738605 -2.1879573
-7.8157153 0.60961962 -2.1005754
-9.0281267 0.70735729 -2.0906951
-10.782376 0.84669673 -2.1023335
-13.140874 1.0365152 -2.0877745
-16.806721 1.331574 -2.0700727
-23.680725 1.8803451 -2.0783157
-41.71212 3.3267722 -2.1929815
-7.8116145 0.63673931 -2.1000578
-9.0333719 0.7395032 -2.0924947
-10.771527 0.88368982 -2.1008072
-13.133239 1.0820551 -2.0871489
-16.798016 1.3899014 -2.0695853
-23.75741 1.9699104 -2.0856369
-41.811718 3.4816275 -2.1988432
-7.8054943 0.66367781 -2.0990226
-9.0346193 0.77136087 -2.0933945
-10.768377 0.92128175 -2.1008072
-13.147095 1.129411 -2.0899646
-16.808884 1.4498943 -2.0715353
-23.730539 2.0511179 -2.0838938
-41.934616 3.6392999 -2.2059608
-7.7973566 0.690409 -2.0974696
-9.0299311 0.80272275 -2.0929446
-10.765096 0.95886511 -2.1008072
-13.13717 1.1747718 -2.0890262
-16.815582 1.5096247 -2.0729976
-23.790703 2.1400042 -2.0898204
-41.989288 3.7917655 -2.2095196
-7.794899 0.71762097 -2.0974696
-9.0311003 0.83301872 -2.0938444
-10.773413 0.99752027 -2.1030967
-13.135168 1.2185127 -2.089339
-16.830248 1.5672201 -2.0754352
-23.846569 2.2289708 -2.0953984
-42.060001 3.9388087 -2.2139158
-7.8040156 0.7445671 -2.1005754
-9.0184383 0.8636117 -2.0915949
-10.770045 1.0332438 -2.1030967
-13.130836 1.2643559 -2.089339
-16.824677 1.6259557 -2.0754352
-23.878708 2.3118773 -2.0988846
-33.175999 3.223707 -1.7468698
-7.7840672 0.77009219 -2.0959167
-9.0192461 0.89547187 -2.0924947
-10.770282 1.0712184 -2.1038601
-13.144032 1.3119495 -2.0921547
-16.810999 1.6838881 -2.0744603
-23.949789 2.4031727 -2.1058569
-7.7986274 0.79903126 -2.1005754
-9.0121889 0.92654902 -2.0915949
-10.752805 1.1073993 -2.1011887
-13.147233 1.3586322 -2.0934062
-16.812914 1.7433784 -2.0754352
-23.988819 2.491694 -2.1100404
-7.7708168 0.82360381 -2.0938461
-9.0263395 0.95985657 -2.095644
-10.762541 1.1463856 -2.1038601
-13.138481 1.4040967 -2.0927804
-16.822519 1.8037455 -2.0773852
-24.007708 2.5783944 -2.1124809
-7.6889486 1.4987581 -2.0990226
-8.9165926 1.7412879 -2.0974436
-10.651299 2.0819795 -2.1095843
-13.029031 2.5514729 -2.1027923
-16.717365 3.279814 -2.0917656
-24.807631 4.871562 -2.2118382
-7.6874599 1.5263411 -2.1000578
-8.9181061 1.7739209 -2.0992434
-10.653594 2.1210637 -2.1114926
-13.020045 2.5969343 -2.1027923
-16.705814 3.3381531 -2.0917656
-24.817829 4.963593 -2.2142789
-55.555222 11.151445 -0.98906273
-7.6858721 1.5539318 -2.1010931
-8.89849 1.8023324 -2.0960939
-10.63458 2.1558986 -2.1092029
-13.001222 2.6404018 -2.101228
-16.713511 3.4004002 -2.094203
-24.87454 5.0653009 -2.2209024
-55.27499 11.286008 -0.98473459
-7.6785092 1.5803601 -2.1005754
-8.8905544 1.8314379 -2.095644
-10.619299 2.1914177 -2.1076763
-12.994329 2.6839008 -2.1015408
-16.702141 3.4558063 -2.094203
-24.899628 5.160995 -2.2247374
-45.090736 9.3542538 -2.4134204
-55.274418 11.487024 -0.98543274
-7.6732264 1.6058146 -2.1005754
-8.8879232 1.8632609 -2.0965438
-10.615816 2.2274272 -2.1084394
-12.977149 2.7276182 -2.1002893
-16.709402 3.5181773 -2.0966403
-24.943846 5.2610321 -2.2303154
-45.163334 9.5338717 -2.4190729
-55.288761 11.691497 -0.98641002
-7.6653996 1.6335269 -2.1000578
-8.8870821 1.8954916 -2.0978935
-10.611421 2.2671442 -2.1092029
-12.978654 2.7776442 -2.1021667
-16.714489 3.580225 -2.098834
-24.960394 5.3556008 -2.233453
-45.284306 9.7329044 -2.4274466
-55.33363 11.902911 -0.9879458
-7.6558747 1.659454 -2.0990226
-8.878171 1.9276404 -2.0974436
-10.614953 2.3066704 -2.1114926
-12.961158 2.8212509 -2.100915
-16.736168 3.6490748 -2.1032214
-25.023302 5.4605374 -2.2407742
-45.382732 9.9199305 -2.4345641
-55.369888 12.113085 -0.98934203
-7.6556954 1.6874155 -2.1005754
-8.8679237 1.9562318 -2.0965438
-10.595335 2.3411682 -2.1092029
-12.959447 2.8659229 -2.1021667
-16.731728 3.7062678 -2.1041963
-25.054663 5.5590672 -2.2453063
-45.443176 10.091143 -2.4395885
-55.420963 12.32713 -0.99101746
-7.6651382 1.7161703 -2.1047165
-8.8648443 1.9880255 -2.0974436
-10.583681 2.3754311 -2.1084394
-12.960928 2.9137394 -2.1040437
-16.73418 3.7681429 -2.1061463
-25.094397 5.6552625 -2.2505355
-45.505081 10.271708 -2.4448221
-55.479023 12.54343 -0.99283254
-7.6421485 1.7390586 -2.1000578
-8.8559513 2.0185249 -2.0969937
-10.586809 2.4149806 -2.1107292
-12.95838 2.9607236 -2.1052952
-16.748016 3.8327296 -2.1095586
-25.000706 5.7259221 -2.2439117
-45.577969 10.455498 -2.4506838
-55.540134 12.761208 -0.99471736
-7.6416788 1.7670282 -2.1016109
-8.8526468 2.0503051 -2.0978935
-10.578316 2.4519212 -2.1107292
-12.959512 3.0086198 -2.1071725
-16.757738 3.8965631 -2.1124835
-24.937876 5.8032227 -2.2400768
-45.654011 10.640816 -2.4567547
-7.6279407 1.7919267 -2.0995402
-8.8435402 2.0807459 -2.0974436
-10.558226 2.4861317 -2.1084394
-12.933551 3.0502083 -2.1046696
-16.771082 3.9614241 -2.1158957
-24.882563 5.8819928 -2.2369392
-45.702106 10.820361 -2.4613602
-7.6291561 1.820336 -2.1016109
-8.8343277 2.1111526 -2.0969937
-10.568578 2.5275388 -2.1122558
-12.926665 3.0962598 -2.1052952
-16.788038 4.0273476 -2.1197956
-24.823133 5.959506 -2.233453
-45.803875 11.013445 -2.4688966
-7.6246328 1.8474089 -2.1021285
-8.8287983 2.142437 -2.0974436
-10.544429 2.5607059 -2.1092029
-12.919619 3.1422977 -2.105921
-16.78352 4.0882778 -2.1210144
-24.751852 6.0338502 -2.2289209
-45.838886 11.191266 -2.4728742
-7.6331453 1.8777046 -2.1062696
-8.8231573 2.1737063 -2.0978935
-10.539238 2.5984373 -2.109966
-12.916242 3.189271 -2.1071725
-16.809614 4.156846 -2.1261327
-24.56044 6.0780945 -2.2135816
-45.908096 11.378113 -2.4787359
-7.605927 1.8991897 -2.1005754
-8.8249702 2.2068558 -2.100143
-10.533912 2.6361663 -2.1107292
-12.912696 3.2362556 -2.1084239
-16.798853 4.216464 -2.1266203
-24.334246 6.1123347 -2.1951044
-45.961079 11.561682 -2.4837601
-7.5936332 1.9243044 -2.0990226
-8.8077679 2.2352507 -2.0978935
-10.532257 2.6748538 -2.1122558
-12.886004 3.277415 -2.105921
-16.822508 4.2848735 -2.131495
-24.115831 6.1470499 -2.1773245
-46.059772 11.757603 -2.4912963
-7.6055794 1.9556104 -2.1041989
-8.7980242 2.2654982 -2.0974436
-10.522857 2.7115998 -2.1122558
-12.885962 3.3253405 -2.1077983
-16.818979 4.3465495 -2.1329575
-23.89748 6.1803107 -2.1595449
-46.111259 11.942348 -2.4963207
-7.5893607 1.9797093 -2.1016109
-8.7938347 2.2971785 -2.0983434
-10.505729 2.7463291 -2.1107292
-12.878098 3.3712981 -2.1084239
-16.801783 4.4047332 -2.1327136
-23.683044 6.2131271 -2.1421137
-46.16201 12.127604 -2.5013449
-7.5880065 2.0076697 -2.1031637
-8.7951803 2.3303566 -2.1005929
-10.479 2.778456 -2.1072946
-12.873889 3.4182589 -2.1096754
-16.834267 4.4761043 -2.1388073
-23.49563 6.2517014 -2.1271231
-46.200455 12.310254 -2.5057411
-7.5678916 2.0306404 -2.0995402
-8.7907553 2.3620548 -2.1014926
-10.476822 2.8170571 -2.1088212
-12.858063 3.4621496 -2.1090496
-16.841539 4.5410419 -2.141732
-23.358246 6.302537 -2.1166644
-46.280598 12.504792 -2.51244
-7.5551639 2.0555251 -2.0979872
-8.778698 2.3916998 -2.1005929
-10.480183 2.8572259 -2.1114926
-12.843994 3.5064886 -2.1087368
-16.86771 4.6113181 -2.1470942
-23.316885 6.378777 -2.1149211
-7.5628414 2.085995 -2.1021285
-8.7646599 2.4207742 -2.0992434
-10.46636 2.8927453 -2.1107292
-12.827868 3.5502505 -2.1081111
-16.870642 4.675468 -2.1495316
-23.248398 6.447351 -2.1107376
-7.5499325 2.1108191 -2.1005754
-8.7599096 2.4524052 -2.100143
-10.448638 2.9271414 -2.1092029
-12.832515 3.5998089 -2.1109269
-16.869507 4.7386284 -2.1514816
-23.248768 6.5349345 -2.1128294
-7.5369425 2.1355808 -2.0990226
-8.751297 2.4829662 -2.100143
-10.428913 2.9609153 -2.1072946
-12.835072 3.6488991 -2.1134298
-16.879591 4.8050942 -2.1548939
-23.256477 6.6247768 -2.1156185
-7.5442967 2.166142 -2.1031637
-8.7425756 2.5134988 -2.100143
-10.422287 2.9983895 -2.108058
-12.816563 3.69204 -2.1124914
-16.897051 4.8738856 -2.1592813
-23.221724 6.7026019 -2.1145725
-33.771595 9.7604351 -1.8423306
-7.5366893 2.1924632 -2.1031637
-8.7356195 2.5445461 -2.1005929
-10.409872 3.0342002 -2.1076763
-12.801701 3.7362022 -2.1121783
-16.925663 4.9462013 -2.1651309
-23.267027 6.8037572 -2.1208479
-7.5215778 2.2165737 -2.1010931
-8.7192078 2.572818 -2.0987935
-10.402983 3.071631 -2.1084394
-12.796157 3.7831063 -2.1134298
-16.919716 5.0086346 -2.1665936
-23.26988 6.8928499 -2.1232882
-7.5230503 2.2455785 -2.1036813
-8.7120409 2.603796 -2.0992434
-10.399722 3.1101761 -2.109966
-12.790443 3.8300176 -2.1146812
-16.924944 5.0745058 -2.1695182
-23.283844 6.985486 -2.1267743
-7.5151663 2.2718234 -2.1036813
-8.7033587 2.6326723 -2.0992434
-10.373771 3.1419039 -2.1069131
-12.789015 3.875849 -2.1165586
-16.930822 5.137517 -2.1724429
-23.266947 7.0690374 -2.1274717
-46.685284 14.192959 -2.5572398
-7.4965076 2.2933416 -2.1005754
-8.7034311 2.6658902 -2.1014926
-10.367049 3.1774383 -2.1076763
-12.771631 3.9193089 -2.1159329
-16.935555 5.2035861 -2.1753678
-23.268791 7.1584086 -2.1299121
-46.784344 14.40168 -2.5654042
-7.4880509 2.3208044 -2.1005754
-8.679183 2.6916349 -2.0978935
-10.359082 3.2165811 -2.1084394
-12.757181 3.9660902 -2.1159329
-16.951406 5.2732849 -2.1797554
-23.296923 7.2561831 -2.1347928
-46.78463 14.589705 -2.5683348
-7.4854345 2.3486619 -2.1021285
-8.6673994 2.722846 -2.0974436
-10.340301 3.2503645 -2.1069131
-12.758331 4.0153441 -2.1184359
-16.973618 5.3485003 -2.1851175
-23.256248 7.3326678 -2.1333983
-46.832458 14.784181 -2.5737779
-7.4882379 2.3782856 -2.1052344
-8.6638956 2.7533424 -2.0987935
-10.321408 3.2840586 -2.1053865
-12.743065 4.0570288 -2.1181231
-16.978483 5.411993 -2.1880424
-23.279861 7.4295526 -2.1379304
-46.836449 14.956414 -2.5767086
-7.4711137 2.4001501 -2.1026461
-8.6597967 2.7853584 -2.100143
-10.306725 3.317065 -2.1046233
-12.738225 4.1045179 -2.1196871
-16.970825 5.4748831 -2.1895049
-23.262682 7.5091605 -2.1386278
-46.909386 15.160352 -2.583617
-7.4535041 2.4232283 -2.1000578
-8.6518745 2.8161731 -2.1005929
-10.302548 3.3554537 -2.1061497
-12.723821 4.1489549 -2.1196871
-16.981802 5.543951 -2.1934047
-23.35375 7.6286683 -2.1494348
-46.920719 15.345126 -2.5871758
-95.427513 31.245815 -1.7527102
-7.4578462 2.4534554 -2.1036813
-8.6456928 2.8475759 -2.1014926
-10.303827 3.3956957 -2.1088212
-12.701757 4.1908684 -2.1184359
-16.981197 5.6094174 -2.195842
-46.950302 15.536414 -2.5917816
-7.4400711 2.4764228 -2.1010931
-8.6209106 2.8728073 -2.0978935
-10.278872 3.4272974 -2.1061497
-12.702041 4.2401848 -2.1209388
-16.987871 5.6774688 -2.1992545
-23.462425 7.8458633 -2.1644256
-46.967758 15.724302 -2.5957592
-7.4551821 2.5103948 -2.1078224
-8.6219101 2.9066179 -2.1005929
-10.244523 3.455627 -2.1015704
-12.702135 4.2895508 -2.1234417
-16.979233 5.7405477 -2.2007167
-46.999599 15.917627 -2.600574
-7.4244308 2.5289271 -2.1016109
-8.613555 2.9373274 -2.1010427
-10.228682 3.4900982 -2.1008072
-12.679606 4.3313127 -2.1221902
-17.007929 5.8164792 -2.2070539
-23.339214 7.986248 -2.1581504
-47.011772 16.104881 -2.604342
-7.4192109 2.5560863 -2.1026461
-8.6014071 2.9667416 -2.1005929
-10.22015 3.5270607 -2.1015704
-12.66441 4.3755469 -2.1221902
-17.021288 5.8874965 -2.2114413
-23.311195 8.0676689 -2.1581504
-47.030754 16.295053 -2.6085291
-7.4120669 2.5826046 -2.1031637
-8.58916 2.9961045 -2.100143
-10.211482 3.5640082 -2.1023335
-12.637872 4.4158149 -2.1203129
-17.041855 5.9612966 -2.2168036
-23.331789 8.1660995 -2.1626825
-47.045212 16.484221 -2.6125066
-7.404829 2.6091022 -2.1036813
-8.562109 3.0202336 -2.0960939
-10.198978 3.5996342 -2.1023335
-12.633555 4.4638515 -2.1221902
-17.050888 6.0313354 -2.2207034
-23.367001 8.2700949 -2.1686091
-47.073986 16.67901 -2.6173215
-7.4029555 2.6375296 -2.105752
-8.558856 3.0527213 -2.0978935
-10.175258 3.6312518 -2.100044
-12.621617 4.5092535 -2.1228158
-17.063375 6.1028514 -2.2250907
-23.296719 8.3368492 -2.1647744
-47.090691 16.870173 -2.6215084
-7.3846159 2.6600811 -2.1031637
-8.553647 3.0845623 -2.0992434
-10.158827 3.6654158 -2.0992808
-12.616947 4.5573101 -2.1246932
-17.060637 6.1691275 -2.2275281
-23.289959 8.4262476 -2.1668661
-47.132923 17.071178 -2.6271605
-7.3589482 2.679893 -2.098505
-8.5446587 3.1150689 -2.0996931
-10.14597 3.7008545 -2.0992808
-12.589829 4.5972586 -2.1228158
-17.076286 6.2422743 -2.2324028
-23.290342 8.5184441 -2.1696551
-47.106804 17.247959 -2.6290445
-7.3767433 2.7155733 -2.1062696
-8.5245905 3.1415074 -2.0974436
-10.151411 3.7430377 -2.1030967
-12.573705 4.6411777 -2.1228158
-17.06184 6.3045959 -2.2333777
-23.286627 8.6093636 -2.1720953
-47.158699 17.453886 -2.6353252
-7.349113 2.7345693 -2.1010931
-8.5062685 3.1685216 -2.095644
-10.130924 3.7757103 -2.1015704
-12.56113 4.6864181 -2.1234417
-17.065763 6.3738384 -2.2367899
-23.222841 8.6780386 -2.1689577
-47.131153 17.630991 -2.6372092
-7.346755 2.762928 -2.1031637
-8.4933329 3.1975086 -2.0951941
-10.121357 3.8124352 -2.1023335
-12.540998 4.7288427 -2.1228158
-17.058271 6.4389749 -2.23874
-23.23341 8.7745399 -2.1727924
-47.162735 17.830708 -2.6424427
-7.3424835 2.7906134 -2.1047165
-8.4839401 3.2278316 -2.095644
-10.096979 3.843549 -2.100044
-12.52995 4.7747035 -2.1237545
-17.072784 6.5126309 -2.2436149
-23.232422 8.8669548 -2.1755817
-47.186031 18.028017 -2.6472576
-7.3146639 2.8093007 -2.0995402
-8.4708033 3.2567253 -2.0951941
-10.087166 3.8801808 -2.1008072
-12.507679 4.8162799 -2.1228158
-17.083286 6.585043 -2.2480021
-23.227358 8.9580288 -2.1780219
-47.167522 18.209892 -2.6497695
-7.3066139 2.8355155 -2.1000578
-8.4557495 3.284863 -2.0942943
-10.09186 3.9224808 -2.1046233
-12.472382 4.8527484 -2.1196871
-17.082394 6.653276 -2.250927
-23.229362 9.0520763 -2.1811595
-47.215317 18.41798 -2.6560502
-7.298471 2.8617067 -2.1005754
-8.4351616 3.3107994 -2.0920448
-10.070795 3.9548137 -2.1030967
-12.470073 4.9020371 -2.1221902
-17.088621 6.7244954 -2.2548268
-23.253239 9.1550035 -2.186389
-47.206486 18.604641 -2.6591902
-7.2974167 2.8907251 -2.1031637
-8.4308014 3.3430951 -2.0938444
-10.062405 3.9921153 -2.1042418
-12.462066 4.9491792 -2.1237545
-17.098248 6.7973042 -2.2592139
-23.276676 9.258213 -2.1916182
-47.196922 18.791473 -2.6623304
-7.2747269 2.9111564 -2.0995402
-8.4172707 3.3717813 -2.0933945
-10.033828 4.0213728 -2.1011887
-12.439214 4.9904466 -2.1228158
-17.096521 6.8658209 -2.2621388
-23.270103 9.349802 -2.1940587
-47.208866 18.98741 -2.6667266
-7.2555656 2.9329102 -2.096952
-8.3801584 3.3909092 -2.087096
-10.030649 4.060791 -2.1034784
-12.414394 5.0308695 -2.1215644
-17.127636 6.9478483 -2.2694511
-23.270554 9.4444599 -2.1971962
-47.17931 19.167122 -2.6688201
-7.2506495 2.9604104 -2.098505
-8.3827028 3.4260371 -2.0906951
-10.021866 4.0980096 -2.1046233
-12.393101 5.0726767 -2.1209388
-17.140017 7.022644 -2.2743258
-23.270628 9.5392351 -2.2003338
-47.193413 19.365051 -2.6734254
-7.2402716 2.9857018 -2.098505
-8.3712959 3.4538167 -2.0906951
-10.002054 4.1307216 -2.1034784
-12.374386 5.1129923 -2.120626
-17.134977 7.0870318 -2.2767632
-23.248236 9.6249752 -2.2013798
-47.199055 19.550489 -2.677403
-7.2392478 3.0134072 -2.1010931
-8.3537912 3.4807684 -2.0893452
-9.9955511 4.1668863 -2.105005
-12.358286 5.1569138 -2.1209388
-17.132116 7.1559834 -2.2796881
-23.238251 9.711236 -2.2034714
-47.182117 19.736708 -2.6803339
-7.2179985 3.0341687 -2.0979872
-8.3415909 3.5099077 -2.0893452
-9.9755163 4.19947 -2.1038601
-12.342031 5.2007885 -2.1212516
-17.169222 7.2419686 -2.2879751
-23.233578 9.8046885 -2.2062604
-47.21965 19.946352 -2.6864049
-7.1966953 3.0548155 -2.0948815
-8.3454313 3.545861 -2.0933945
-9.9716368 4.2388711 -2.1061497
-12.321981 5.2430682 -2.1209388
-17.180363 7.3174138 -2.29285
-23.246866 9.9060421 -2.2107925
-47.197502 20.131433 -2.6891265
-7.1842117 3.0791571 -2.0943637
-8.318675 3.5688262 -2.0897954
-9.9567795 4.273653 -2.1061497
-12.299976 5.2844863 -2.1203129
-17.209425 7.4008679 -2.3001621
-23.223127 9.991847 -2.2118382
-47.170963 20.315033 -2.6916385
-7.1840577 3.1088176 -2.0974696
-8.2936487 3.5924196 -2.0866458
-9.9544115 4.313848 -2.1088212
-12.268769 5.3218865 -2.1181231
-0.92324758 0.40067324 0.12357552
-17.176203 7.4577327 -2.2991872
-23.224657 10.088728 -2.2153246
-47.158379 20.505041 -2.694988
-7.1696219 3.132329 -2.0964344
-8.2739162 3.6182253 -2.0848465
-9.9249039 4.3422713 -2.1057682
-12.259165 5.3686423 -2.1196871
-0.83093184 0.36406165 0.11138859
-17.153702 7.519238 -2.2996747
-23.225792 10.185741 -2.218811
-47.152351 20.698431 -2.6987562
-7.1586432 3.1573386 -2.0964344
-8.2665854 3.6494439 -2.0861959
-9.9007063 4.3729262 -2.1038601
-12.247578 5.4145942 -2.1209388
-0.80787063 0.35732445 0.10846373
-17.13098 7.5806766 -2.3001621
-23.248398 10.292557 -2.2243888
-47.101723 20.872608 -2.7000124
-7.1352253 3.1768079 -2.0928109
-8.2680359 3.684624 -2.0897954
-9.8925533 4.4106574 -2.1053865
-12.210564 5.4492664 -2.11781
-0.79211736 0.3536678 0.10651381
-17.097166 7.637187 -2.2991872
-23.259617 10.394789 -2.2289209
-47.123386 21.079296 -2.7054553
-7.1188064 3.1993175 -2.0912578
-8.2640085 3.7174613 -2.0920448
-9.8878393 4.4499936 -2.1076763
-12.19867 5.4951015 -2.1190615
-0.79087806 0.3564305 0.10651381
-17.074024 7.6984534 -2.2996747
-23.226824 10.477555 -2.2292695
-47.115044 21.273258 -2.7092233
-7.1163921 3.228138 -2.0938461
-8.2296896 3.7366159 -2.0866458
-9.8722458 4.4844823 -2.1076763
-12.175819 5.5360117 -2.1184359
-0.77878749 0.35425738 0.10505138
-17.025362 7.7481427 -2.2967498
-23.248138 10.584983 -2.2348475
-47.073212 21.452501 -2.7111075
-7.1121068 3.2561762 -2.0959167
-8.2219114 3.7677562 -2.0879958
-9.8493929 4.5156426 -2.1061497
-12.158216 5.5793037 -2.1187487
-0.77574205 0.35614547 0.10480764
-17.001822 7.8091788 -2.2972372
-23.27984 10.697682 -2.2414713
-47.085144 21.656738 -2.7161317
-7.0919294 3.2769291 -2.0933285
-8.2016335 3.7931612 -2.0861959
-9.8317881 4.5491719 -2.1057682
-12.149422 5.6266909 -2.120626
-0.77449417 0.35885113 0.10480764
-16.970856 7.8668094 -2.2967498
-23.300196 10.805703 -2.2470493
-47.059986 21.844511 -2.7190626
-7.0734429 3.2984004 -2.0912578
-8.1918755 3.8234136 -2.087096
-9.8158493 4.5834641 -2.1057682
-12.117181 5.663209 -2.1184359
-0.77863151 0.36407495 0.10553886
-16.939697 7.9243193 -2.2962623
-23.287598 10.898795 -2.2494898
-47.077496 22.052704 -2.7245054
-7.0636349 3.3238943 -2.0917757
-8.1837673 3.8544786 -2.0884457
-9.8068943 4.6210475 -2.1072946
-12.102698 5.7080026 -2.1193743
-0.77376539 0.36509651 0.10505138
-16.944244 7.9986506 -2.3006496
-23.307062 11.007245 -2.2550676
-47.025513 22.228842 -2.725971
-7.0519896 3.3485293 -2.0917757
-8.1614628 3.8788395 -2.0861959
-9.7907057 4.6552496 -2.1072946
-12.086267 5.7519121 -2.1200001
-0.7617324 0.36267492 0.10358895
-16.914043 8.0530901 -2.3001621
-23.322458 11.114249 -2.2602971
-47.012527 22.423822 -2.729739
-7.0495577 3.3760684 -2.0943637
-8.1485548 3.9058828 -2.0861959
-9.7858353 4.6927853 -2.1095843
-12.079592 5.7979436 -2.1221902
-0.76052552 0.36519894 0.10358895
-16.86935 8.1005421 -2.2977247
-23.339344 11.217422 -2.2655263
-46.991901 22.605576 -2.7328792
-7.0278859 3.3943858 -2.0912578
-8.1355581 3.9328816 -2.0861959
-9.7560806 4.7183728 -2.1065314
-12.070967 5.8431339 -2.1240675
-0.75931025 0.36771896 0.10358895
-16.824892 8.1515884 -2.295531
-23.305601 11.296494 -2.2658749
-46.97419 22.789167 -2.7362287
-7.0073123 3.4146664 -2.0886698
-8.130538 3.9655275 -2.0884457
-9.736021 4.7506771 -2.1057682
-12.057598 5.8886986 -2.1253188
-0.76872361 0.37559599 0.10505138
-16.79277 8.2085257 -2.2950437
-23.319727 11.404031 -2.2711043
-46.994808 23.002184 -2.7420902
-6.9936166 3.4382536 -2.0881522
-8.1096516 3.9904428 -2.0866458
-9.7281857 4.788969 -2.1076763
-12.031653 5.9281325 -2.1243804
-0.76384676 0.37652171 0.10456391
-16.746208 8.2583179 -2.2926061
-23.315512 11.502994 -2.2745905
-46.996609 23.206766 -2.7469053
-6.9867644 3.4652183 -2.089705
-8.0886917 4.0152612 -2.0848465
-9.7166872 4.8255153 -2.1088212
-12.014424 5.9718537 -2.125006
-0.74830812 0.37211487 0.102614
-16.685289 8.3008041 -2.288219
-23.296619 11.594963 -2.2766824
-46.976097 23.40094 -2.750464
-6.9780798 3.4913161 -2.0907402
-8.0815964 4.0469594 -2.0866458
-9.6962709 4.8576469 -2.108058
-11.991742 6.0128679 -2.1246932
-0.75587642 0.37917492 0.10383269
-16.629599 8.3456411 -2.2845628
-23.303816 11.705312 -2.281563
-46.933388 23.584507 -2.7527668
-6.9548907 3.5116427 -2.0876343
-8.0656815 4.0742664 -2.0861959
-9.6713953 4.8896079 -2.1065314
-11.971383 6.0576739 -2.125006
-0.75454831 0.38181114 0.10383269
-16.580887 8.3937721 -2.2818818
-23.312582 11.811802 -2.2864437
-46.971325 23.819601 -2.7600939
-6.9391475 3.5341451 -2.0865991
-8.0663204 4.1117668 -2.0902452
-9.6595135 4.9260135 -2.1076763
-11.944887 6.0967317 -2.1240675
-0.76551944 0.39089325 0.10553886
-16.537634 8.4481707 -2.2801757
-23.364925 11.946145 -2.2958565
-6.927866 3.5604379 -2.0871167
-8.0432529 4.1354432 -2.0879958
-9.6413927 4.9613867 -2.1076763
-11.922461 6.140471 -2.1240675
-0.75179672 0.3872008 0.10383269
-16.508043 8.505847 -2.2801757
-6.9256859 3.5899334 -2.0902226
-8.021121 4.1613078 -2.0861959
-0.96089906 0.49850845 0.056732185
-9.6309872 4.9986267 -2.1092029
-0.9672237 0.50221825 0.095348388
-11.897448 6.1802297 -2.1234417
-0.75389558 0.39178428 0.10432017
-16.466188 8.5608006 -2.278713
-6.9319448 3.6239321 -2.0959167
-0.93037224 0.48638672 0.018325027
-8.0262728 4.1978192 -2.091145
-0.87774897 0.45926613 0.051917274
-9.6343517 5.0431409 -2.1137822
-0.93016434 0.48710543 0.09186215
-11.901386 6.2324791 -2.1278217
-0.7438001 0.38967603 0.10310147
-16.402546 8.5969238 -2.2738385
-0.86983562 0.45628643 -0.085935563
-0.87541866 0.45941019 -0.051812604
-0.82144505 0.43145093 -0.016195834
-0.87206423 0.45978695 0.017208073
-0.8342514 0.44003686 -0.21775262
-0.89380473 0.47164845 0.052963994
-0.91005015 0.48062712 -0.16300473
-0.74945605 0.39597946 0.10407643
-0.85819709 0.45362526 -0.11918823
-0.80843371 0.42750162 -0.080008969
-0.86321801 0.45685759 -0.051184569
-0.85881019 0.45490828 -0.016963739
-0.86829406 0.46148548 -0.2634778
-0.85632879 0.45531803 0.016928835
-0.87744272 0.46674094 -0.22945009
-0.90273172 0.48039514 0.053592026
-0.84056753 0.44731402 -0.18508473
-0.84944516 0.45222858 0.084192447
-0.86652267 0.46151441 -0.15549587
-0.75332505 0.40139356 0.10480764
-0.85660857 0.45661801 -0.11918823
-0.83154893 0.44344625 -0.082449332
-0.85104609 0.45422524 -0.050556537
-0.82546812 0.44094416 -0.016335452
-0.84283996 0.4517374 -0.25623086
-0.81596279 0.43751538 0.01616093
-0.83802819 0.44953504 -0.21955223
-0.84833288 0.45506269 0.050451867
-0.83208138 0.4465321 -0.18355827
-0.80573165 0.43257278 0.080008969
-0.80573773 0.43275723 -0.14485833
-0.74317604 0.39932281 0.10358895
-0.83402765 0.44832671 -0.11626337
-0.83350545 0.44823352 -0.082797952
-0.83186835 0.44772753 -0.04950982
-0.83456558 0.44936711 -0.016544882
-0.8344599 0.4510026 -0.25416031
-0.82506257 0.4459236 0.016370358
-0.82281911 0.44489664 -0.21595301
-0.83619899 0.45231944 0.049823835
-0.8339709 0.45130268 -0.18432149
-0.80071253 0.4334856 0.079660349
-0.80777258 0.43730772 -0.14548407
-0.74184775 0.40178511 0.10358895
-0.83253634 0.45109004 -0.11626337
-0.85269642 0.46220583 0.15361866
-0.83543867 0.45303985 -0.08314658
-0.81282341 0.44095969 -0.048463102
-0.82244766 0.44655254 -0.016335452
-0.84822774 0.4620848 -0.25881904
-0.82174516 0.447844 0.016335452
-0.81099552 0.44216889 -0.2132536
-0.82760137 0.45141029 0.04940515
-0.80316961 0.43808416 -0.17783399
-0.80976439 0.44186461 0.080706216
-0.81664431 0.44580352 -0.14736128
-0.74044073 0.40437222 0.10358895
-0.8187623 0.44733098 -0.11455719
-0.85107797 0.46517929 0.15361866
-0.83568007 0.45676315 -0.083320886
-0.8217926 0.44954544 -0.04909113
-0.81035966 0.44365886 -0.016126024
-0.82459772 0.45295176 -0.25208977
-0.81491941 0.44782037 0.016230738
-0.79749322 0.43842539 -0.21010427
-0.80852002 0.44467148 0.048358425
-0.79475451 0.43710068 -0.17630751
-0.79250664 0.43604431 0.079137415
-0.83411902 0.45912972 -0.15080284
-0.75293571 0.41461471 0.10553886
-0.82067335 0.45210183 -0.11504468
-0.78024733 0.43000922 0.14110391
-0.80790639 0.44525266 -0.080706216
-0.81497186 0.44951725 -0.048777115
-0.78254616 0.43198863 -0.015602452
-0.81794184 0.45301926 -0.25053686
-0.78361577 0.43418643 0.015637357
-0.78573143 0.43553811 -0.20740487
-0.80346966 0.44555366 0.048149083
-0.78979009 0.43796784 -0.17554428
-0.78052622 0.43300879 0.078091539
-0.81178486 0.45053554 -0.14704841
-0.74974841 0.41627663 0.10529512
-0.80867809 0.44918033 -0.11358224
-0.82708913 0.45959592 0.14986424
-0.80104482 0.44530639 -0.080183282
-0.81514317 0.45333022 -0.048881788
-0.78976989 0.43958005 -0.015776975
-0.80447024 0.44941911 -0.24691339
-0.78733259 0.43984511 0.015742071
-0.79611409 0.444933 -0.21055418
-0.8071394 0.4512797 0.048463102
-0.80188698 0.44852698 -0.17859723
-0.77024049 0.43100208 0.077219985
-0.79289138 0.44385853 -0.14391972
-0.74829078 0.41889122 0.10529512
-0.8001771 0.44812077 -0.11260728
-0.81169319 0.45475593 0.14736128
-0.78905749 0.44225514 -0.079137415
-0.79257315 0.4445892 -0.047625724
-0.79695004 0.44722727 -0.015951499
-0.81972879 0.46170491 -0.25208977
-0.7926839 0.44665432 0.015881689
-0.77580434 0.43732157 -0.20560527
-0.79852116 0.45031071 0.048044413
-0.7968964 0.44939443 -0.17783399
-0.7652607 0.43173015 0.076871365
-0.78789657 0.44468197 -0.14329399
-0.74675041 0.42163107 0.10529512
-0.80889994 0.45690823 -0.11406972
-0.79626256 0.44995353 0.14485833
-0.78924346 0.44598716 -0.079311721
-0.7910164 0.44735312 -0.047625724
-0.79530543 0.45014545 -0.015951499
-0.80635291 0.45788601 -0.2484663
-0.7789489 0.4425045 0.015637357
-0.7759673 0.44098988 -0.20605516
-0.80215311 0.45605674 0.048358425
-0.77654904 0.44149977 -0.1736362
-0.76894462 0.43735394 0.077394299
-0.79320711 0.45133701 -0.14454547
-0.75562513 0.43012735 0.10675755
-0.77107507 0.43910015 -0.1089512
-0.82214934 0.46837521 0.14986424
-0.80845594 0.46057415 -0.081403457
-0.7877149 0.44912252 -0.047521055
-0.77636117 0.44300798 -0.015602452
-0.80307311 0.45973814 -0.24794866
-0.77566439 0.44422689 0.015602452
-0.77949589 0.44660214 -0.20740487
-0.77329993 0.44323152 -0.17325458
-0.7674132 0.4400354 0.077394299
-0.78305948 0.44918856 -0.14298111
-0.75584084 0.43375039 0.10700129
-0.77642387 0.4457424 -0.10992616
-0.82050937 0.47124219 0.14986424
-0.79302162 0.45545518 -0.080008969
-0.77228963 0.44390696 -0.046683677
-0.77307659 0.44471818 -0.015567547
-0.78640467 0.45384771 -0.24328992
-0.77757245 0.44893163 0.015672261
-0.77455723 0.44737104 -0.20650508
-0.78684455 0.45465088 0.047625724
-0.77174819 0.44592798 -0.17325458
-0.77622211 0.44869411 0.078440167
-0.77293652 0.44697484 -0.14141677
-0.75604057 0.43738005 0.10724504
-0.78688991 0.45541036 -0.11163233
-0.77099293 0.4463897 0.14110391
-0.76728761 0.44424438 -0.077568613
-0.77419162 0.44860259 -0.046893019
-0.77670908 0.45042378 -0.015672261
-0.78481555 0.45659024 -0.24328992
-0.77600062 0.45164314 0.015672261
-0.78309548 0.45595515 -0.20920448
-0.80431861 0.46831229 0.048777115
-0.78375828 0.45652452 -0.17630751
-0.77809405 0.45340714 0.078788787
-0.76625204 0.44668546 -0.14047816
-0.74079067 0.43201631 0.10529512
-0.78880489 0.46001735 -0.1121198
-0.88211936 0.51464307 0.16175325
-0.76917374 0.44892845 -0.077917233
-0.78469318 0.45835388 -0.047625724
-0.77866423 0.45501459 -0.015742071
-0.81162918 0.47579905 -0.25208977
-0.78312331 0.45927209 0.015846785
-0.78325993 0.45953566 -0.20965438
-0.78725719 0.46188083 0.047835067
-0.79239917 0.46508351 -0.17859723
-0.78345871 0.46002021 0.079486035
-0.77498609 0.45522702 -0.14235538
-0.73250818 0.43044767 0.10432017
-0.79583251 0.46765926 -0.1133385
-0.78485483 0.46157682 -0.079660349
-0.79521763 0.46804518 -0.048358425
-0.78749013 0.46368197 -0.015951499
-0.8117103 0.47947049 -0.25260741
-0.78676075 0.46491849 0.015951499
-0.78173172 0.46213055 -0.20965438
