# .PCD v0.7 - Point Cloud Data file format
VERSION 0.7
FIELDS x y z
SIZE 4 4 4
TYPE F F F
COUNT 1 1 1
WIDTH 1560
HEIGHT 1
VIEWPOINT 0 0 0 1 0 0 0
POINTS 1560
DATA ascii
0.68372893 9.8271246 -2.2742553
0.85675853 12.252201 -2.3874023
1.1442009 16.321989 -2.5914936
2.1529183 30.558199 -3.7613759
2.1394398 30.216644 -2.6502318
3.8475745 54.207047 -2.8480184
2.1468015 30.096937 -0.52667874
0.60442418 8.3101244 -2.2325733
0.71831453 9.8285656 -2.2751548
0.90340567 12.33153 -2.4034302
1.1910216 16.179993 -2.5695927
2.4367363 32.945919 -4.0562992
2.2649915 30.479212 -2.6739383
0.63458204 8.3040009 -2.2315381
0.75321621 9.8337698 -2.2769547
0.94874489 12.330093 -2.4038119
1.2458977 16.118402 -2.5605195
2.5661299 33.123253 -4.0792108
2.3747647 30.51482 -2.677773
2.3817651 30.467106 -1.601585
0.66295105 8.2940321 -2.2294674
0.78987527 9.8387136 -2.278754
0.99414414 12.35606 -2.4095361
1.297544 16.056856 -2.5514464
2.6753356 33.03495 -4.0694613
2.4783676 30.470602 -2.6746354
2.4819148 30.382961 -1.5976075
0.69093078 8.2975645 -2.2310205
0.82152092 9.8243876 -2.2760546
1.0328211 12.325304 -2.4041934
1.3517816 16.064274 -2.5533235
2.7648618 32.788528 -4.0402126
2.5750356 30.410597 -2.6701033
0.71860766 8.2971516 -2.2315381
0.85342276 9.8138447 -2.2742553
1.0767469 12.357018 -2.4110627
1.4105514 16.122677 -2.5633357
2.9237592 33.284908 -4.1026101
4.7280874 53.718346 -4.7179146
0.74791473 8.29844 -2.2325733
0.88767225 9.8108053 -2.2742553
1.1083564 12.226094 -2.3862574
1.4603728 16.046835 -2.5520723
2.938798 32.167461 -3.9661164
4.9090209 53.630081 -4.7116394
0.7770595 8.2977028 -2.2330909
0.92228031 9.8115273 -2.2751548
1.1502936 12.214331 -2.3847308
1.5202861 16.082937 -2.5586424
3.0502932 32.149105 -3.9651415
0.80489641 8.2834034 -2.229985
0.95709342 9.8140669 -2.2765048
1.1969289 12.251276 -2.392745
1.5795051 16.108986 -2.5636482
3.2017734 32.537319 -4.0143766
0.83380818 8.2805424 -2.229985
0.99075049 9.8048506 -2.2751548
1.2365263 12.215769 -2.3866391
1.6209432 15.957947 -2.5404961
3.3769355 33.130253 -4.0889606
0.86250162 8.2756615 -2.2294674
1.0251751 9.8032694 -2.2756047
1.2830374 12.248479 -2.3938897
1.6758152 15.944332 -2.5392444
3.4080298 32.316761 -3.9900026
0.89221388 8.280283 -2.2315381
1.0589677 9.7957573 -2.2747052
1.2723171 11.750109 -2.2973404
1.7370044 15.989445 -2.547379
3.6137376 33.157173 -4.0952978
5.8304048 53.409481 -4.7004833
0.92132795 8.2790384 -2.2320557
1.0938059 9.7978096 -2.2760546
1.3384163 11.969972 -2.3412266
1.7822427 15.889058 -2.5323615
3.7032566 32.911583 -4.0665364
6.0168171 53.388805 -4.7004833
0.9488976 8.2642565 -2.2289498
1.1284487 9.7978048 -2.2769547
1.347793 11.68438 -2.2862735
1.8295255 15.812097 -2.5210981
3.7421329 32.243809 -3.9856155
6.2031565 53.367474 -4.7004833
0.97819573 8.2647305 -2.229985
1.1595502 9.7823982 -2.2742553
1.3862562 11.660109 -2.2824574
1.8866179 15.845173 -2.5273554
3.8278611 32.053822 -3.9636788
6.3818126 53.282192 -4.6949058
1.0058289 8.2633581 -2.2305026
1.1929842 9.7724876 -2.2729053
1.4320598 11.71391 -2.2939057
1.9407111 15.828687 -2.5257909
3.9678216 32.268814 -3.9919524
6.5516391 53.205372 -4.6900249
1.0351459 8.2636309 -2.2315381
1.2256297 9.7704115 -2.2733555
1.4675469 11.665986 -2.2855103
1.9702334 15.639895 -2.4966943
3.9071116 30.928078 -3.8276725
6.736834 53.178223 -4.6896763
9.7354059 76.740784 -4.0540485
1.063 8.2523031 -2.2294674
1.2619288 9.7697191 -2.2742553
1.4981894 11.582911 -2.2702456
2.0514231 15.816712 -2.526104
4.1873717 32.197018 -3.9865904
6.9193211 53.130676 -4.6875844
1.0910412 8.2427969 -2.2279146
1.2978212 9.7787771 -2.2774045
1.5388739 11.579556 -2.2706273
2.0909705 15.691971 -2.5073318
4.2886868 32.099567 -3.9763534
7.1052818 53.110146 -4.687933
1.1200657 8.2408524 -2.2284322
1.3308883 9.7664633 -2.2756047
1.5800786 11.57995 -2.2717719
2.1315391 15.580849 -2.4907498
4.3219504 31.510132 -3.9051816
7.2911835 53.08897 -4.6882815
1.1498944 8.244545 -2.2305026
1.3622756 9.7424593 -2.271106
1.6229435 11.591862 -2.2752066
2.1790454 15.524407 -2.482928
11.78686 83.86776 10.398868
4.549746 32.332253 -4.0090141
7.474194 53.047413 -4.6868868
1.1792077 8.2443066 -2.2315381
1.3976605 9.7472897 -2.2733555
1.6645048 11.5939 -2.2767329
2.2650256 15.737648 -2.5182824
4.5962543 31.856421 -3.9519794
7.6610417 53.032829 -4.687933
1.2068597 8.2324944 -2.2294674
1.4316742 9.7423515 -2.2733555
1.7195427 11.687078 -2.2961955
2.3124492 15.678837 -2.5101478
12.466577 84.42363 10.478327
4.7358871 32.032627 -3.9758656
7.84552 53.001827 -4.6875844
11.038974 74.396255 -3.9416306
1.2347308 8.2225008 -2.2279146
1.4668355 9.7450027 -2.2751548
1.7559426 11.651886 -2.2904713
2.2500346 14.89524 -2.3859386
4.8173385 31.815708 -3.9510045
8.0281076 52.958355 -4.6861897
1.2640105 8.2219591 -2.2289498
1.5002472 9.7359705 -2.2742553
1.7936087 11.626282 -2.2866549
2.4191422 15.644738 -2.5073318
4.9210782 31.751617 -3.9451547
8.2129316 52.930004 -4.6861897
11.527974 74.123978 -3.9313729
1.293906 8.225131 -2.2310205
1.5324 9.7191257 -2.2715557
1.8341841 11.619949 -2.2866549
2.4678624 15.59913 -2.5013874
4.9920831 31.48329 -3.9139562
8.3963566 52.893154 -4.6854925
1.3223003 8.2186556 -2.2305026
1.5666295 9.7156401 -2.2720056
1.9316746 11.966223 -2.3561096
2.5248265 15.606021 -2.5038903
13.699332 84.582306 10.520738
5.0936975 31.414726 -3.9076192
8.5815897 52.867451 -4.6858416
1.350352 8.2101774 -2.2294674
1.6017996 9.7178049 -2.2738054
1.9497772 11.816066 -2.3278699
2.6050661 15.753024 -2.5289197
5.2085252 31.428085 -3.9115186
8.7654161 52.833244 -4.6854925
1.3786848 8.2035093 -2.2289498
1.6363612 9.7159967 -2.2747052
2.0141883 11.946638 -2.3549647
2.612983 15.465303 -2.4841797
5.3069243 31.343166 -3.9032314
8.9511309 52.810181 -4.6861897
1.4060026 8.1910305 -2.2268791
1.6689429 9.7025433 -2.2729053
2.0188954 11.724774 -2.3126051
2.6817341 15.541739 -2.4979458
5.4257784 31.379219 -3.9100561
9.1388302 52.798244 -4.687933
1.4359225 8.1936846 -2.2289498
2.0762532 11.835435 0.20974302
1.69977 9.6793833 -2.2688563
2.0851169 11.861599 0.6311717
2.0771482 11.816268 -2.3320675
2.083158 11.826247 -1.9019306
1.4651934 8.1924257 -2.229985
1.7352685 9.6829834 -2.271106
2.1152599 11.791554 -2.3286331
2.1205857 11.797516 -1.8984889
2.1327059 11.829372 -1.0516212
2.1388559 11.839849 -0.63054365
2.1431839 11.851949 -0.21023169
1.4944772 8.191062 -2.2310205
1.7677169 9.6790924 -2.2715557
2.1380339 11.683677 -2.308789
2.8095946 15.338427 -2.4697876
5.6131511 30.583649 -3.8179231
9.7070427 52.785873 -4.6956029
1.5191582 8.1727657 -2.2273967
1.8025609 9.6786108 -2.2729053
2.1958334 11.778814 -2.3290148
2.8141513 15.066382 -2.4275503
5.687748 30.392162 -3.7964742
7.7668247 41.461681 -3.6905227
1.5491143 8.1750059 -2.2294674
1.8352467 9.6665154 -2.2715557
2.2435308 11.805795 -2.3358839
2.8863118 15.159314 -2.4441323
5.9388485 31.132601 -3.8915322
1.5769107 8.1657543 -2.2284322
1.8678608 9.6543112 -2.270206
2.2892094 11.82102 -2.3404634
2.9437146 15.172421 -2.4478867
6.0573421 31.162344 -3.8978693
1.6054071 8.1602001 -2.2284322
1.8987385 9.6423273 -2.2688563
2.3521206 11.922746 -2.3622153
3.0100884 15.243969 -2.4610271
6.0866904 30.768192 -3.8510716
1.631319 8.149148 -2.2268791
1.9331537 9.6394625 -2.2697561
2.3630514 11.772442 -2.3339758
3.0512133 15.173332 -2.4513285
6.1673899 30.614429 -3.8344972
1.6604022 8.1393299 -2.2258439
1.9667926 9.6326542 -2.2697561
2.3648713 11.561742 -2.2939057
3.0842001 15.051744 -2.4334948
6.1753035 30.110453 -3.7740502
1.6899801 8.1391582 -2.2273967
2.0012889 9.6215658 -2.2688563
2.4144156 11.597624 -2.3026831
3.1427751 15.069892 -2.4381878
17.385826 83.293877 10.447616
6.334343 30.320791 -3.803299
1.7202023 8.1348009 -2.2279146
2.0332463 9.6068954 -2.2670567
2.4532452 11.57141 -2.2992485
3.1651552 14.903689 -2.4131584
17.717691 83.426865 10.47199
1.7492005 8.1384935 -2.2305026
2.0688217 9.6092653 -2.2693062
2.4659674 11.444221 -2.2755883
3.1728871 14.70002 -2.3818715
6.5374632 30.237026 -3.798424
1.7767718 8.1285639 -2.2294674
2.1019328 9.6000814 -2.2688563
2.5092597 11.450886 -2.2786412
3.2318006 14.723586 -2.3875031
18.454729 84.006889 10.560711
6.6421256 30.210144 -3.7979364
1.8017843 8.1072264 -2.2253263
2.1354284 9.5926867 -2.2688563
2.5534878 11.461219 -2.2824574
3.2698352 14.652449 -2.3778043
6.3439584 28.381224 -3.5707719
11.77276 52.625256 -4.7179146
1.8300673 8.1008883 -2.2253263
2.1659408 9.5798502 -2.2675066
2.6017103 11.488618 -2.2897081
3.2878461 14.506668 -2.3559034
6.8238902 30.059694 -3.7847748
11.960817 52.603264 -4.7196579
8.8740406 38.996162 -2.0959506
1.8582186 8.1004229 -2.2268791
2.1984971 9.5684309 -2.2666068
2.6191182 11.39 -2.2717719
3.3264968 14.443127 -2.3474557
6.9537435 30.144016 -3.798424
17.380318 75.162827 -4.0430579
1.8882395 8.1014128 -2.2289498
2.2336493 9.5682917 -2.2684064
2.6883421 11.506965 -2.2969587
3.3980362 14.521831 -2.3621607
7.0462484 30.065441 -3.7915993
1.9147286 8.0872517 -2.2268791
2.2692859 9.5699167 -2.2706561
2.7316689 11.510882 -2.2996302
3.3989208 14.3004 -2.328058
7.1778097 30.152668 -3.8057361
1.9411349 8.0730076 -2.2248087
2.3022237 9.5600414 -2.270206
2.7874641 11.566171 -2.3126051
3.5164907 14.568801 -2.3737369
6.9630475 28.803782 -3.6385314
1.9706799 8.0718117 -2.2263615
2.3341899 9.5462685 -2.2688563
2.8404229 11.607859 -2.3229089
3.5565066 14.51231 -2.3665409
7.1184449 29.002934 -3.666805
2.0002365 8.0705099 -2.2279146
2.3646841 9.5267143 -2.2661569
2.8932278 11.647412 -2.3328309
3.6052389 14.49214 -2.3652894
7.5459528 30.287737 -3.8325474
15.11657 60.629238 -5.4667568
2.0274549 8.0597296 -2.2268791
2.397922 9.5184021 -2.2661569
2.9117932 11.549672 -2.3152766
3.6712749 14.540755 -2.3753011
7.5475025 29.849363 -3.7803874
2.0531895 8.0432453 -2.2242911
2.4316134 9.5118618 -2.2666068
2.9618261 11.577477 -2.3229089
3.7220132 14.527851 -2.3753011
7.6654572 29.876675 -3.7872121
2.0793142 8.0285492 -2.2222204
2.4652929 9.5052023 -2.2670567
3.0076437 11.587972 -2.3271067
3.7826378 14.553008 -2.3815587
7.7757077 29.872786 -3.7901371
11.237893 43.081303 -2.3333466
2.109292 8.0287151 -2.2242911
2.4958072 9.493206 -2.2661569
3.0385811 11.541329 -2.3198559
3.7604158 14.272958 -2.3377569
7.9071455 29.969675 -3.8057361
13.834193 52.360386 -4.7381349
11.3756 43.024487 -2.3322999
2.1378911 8.0291433 -2.2263615
2.5269239 9.4769049 -2.2643573
3.0788589 11.538776 -2.3213823
3.8846693 14.538374 -2.3834357
7.9234352 29.612064 -3.763813
11.525686 42.984524 -2.3322999
2.1674142 8.0272284 -2.2279146
2.5610087 9.4717875 -2.2652571
3.1180899 11.52417 -2.3206191
3.801084 14.028999 -2.3020899
7.7523055 28.572668 -3.635119
2.192873 8.0102968 -2.2253263
2.5950797 9.4665508 -2.2661569
3.1593397 11.517001 -2.3213823
11.170648 40.693443 3.6919172
3.9588561 14.411851 -2.3671668
7.8425269 28.510979 -3.6307318
2.2197819 7.9988718 -2.2242911
2.6281109 9.4574337 -2.2661569
3.1995251 11.505902 -2.3213823
3.9874167 14.319921 -2.3543391
8.2192392 29.477751 -3.7574759
2.2487381 7.9947929 -2.2253263
11.469168 40.748234 0.73890001
2.6600487 9.4444513 -2.2652571
11.493141 40.806175 2.2217662
3.247117 11.521121 -2.326725
4.041131 14.319223 -2.3565292
8.0338221 28.428787 -3.6273196
11.445951 40.476089 -3.6800642
11.477206 40.532574 -2.2077403
11.510827 40.624264 -0.73701513
2.2745152 7.9794621 -2.2232556
11.633824 40.813824 0.74078488
2.6870749 9.4205866 -2.261658
3.281925 11.490837 -2.3229089
4.0679698 14.233569 -2.34464
8.0526743 28.138622 -3.5936835
11.60253 40.489517 -3.6849449
11.63797 40.586449 -2.2127645
2.3025727 7.9774432 -2.2248087
2.7231917 9.4223824 -2.2643573
3.3145607 11.46103 -2.3190925
4.1055384 14.17754 -2.3377569
7.9462967 27.404917 -3.5035002
21.762665 74.907677 -4.0880666
22.002542 75.634659 -1.3749355
2.329319 7.9656491 -2.2237732
2.7582579 9.4202986 -2.2661569
3.3600647 11.468232 -2.3229089
4.1377673 14.104361 -2.328058
17.340332 58.993435 -5.379601
22.046581 74.907875 -4.0922532
22.059517 74.855362 -1.3621603
2.3576577 7.9593239 -2.2242911
2.7905684 9.4087467 -2.265707
3.3944876 11.437613 -2.3190925
4.2066665 14.156106 -2.3390083
8.6718578 29.144875 -3.7335896
17.886126 60.074459 -5.483839
2.3870897 7.9565959 -2.2258439
2.8228354 9.3970804 -2.2652571
3.4496481 11.476459 -2.3293962
4.284524 14.235912 -2.3546519
8.8044615 29.217066 -3.7467513
15.690254 52.034267 -4.7548685
2.4142897 7.9463668 -2.2253263
2.8522153 9.3759842 -2.2625577
3.4388089 11.29719 -2.2954323
4.3186383 14.169853 -2.3462045
8.6259642 28.267206 -3.6287818
2.4425828 7.9397359 -2.2258439
2.886076 9.3696938 -2.2634575
3.4921038 11.330145 -2.3045912
4.3045864 13.948948 -2.3121016
8.5991697 27.831049 -3.5766218
18.162327 58.745571 -5.379601
11.958565 38.631943 -2.1193972
2.4668345 7.9200954 -2.222738
2.9199233 9.3632851 -2.2643573
3.5415711 11.349747 -2.3110785
4.3821125 14.026228 -2.3274322
8.7980356 28.143417 -3.6204948
2.4925027 7.9100299 -2.2222204
2.9527142 9.359127 -2.265707
3.5655932 11.294881 -2.3023016
4.3774076 13.849633 -2.3005254
8.8757448 28.064878 -3.6141577
12.147975 38.364937 -3.5207434
2.5204816 7.9072413 -2.2237732
2.9843245 9.35114 -2.2661569
3.5994489 11.271772 -2.3000119
4.4160824 13.812467 -2.296771
8.9107246 27.837101 -3.5888088
12.28789 38.34127 -3.5224862
2.5512252 7.9034667 -2.2253263
3.0133562 9.3295383 -2.2634575
3.6443598 11.269712 -2.3023016
4.4587779 13.771753 -2.2927039
9.0579996 27.960684 -3.6087954
12.436415 38.343624 -3.5266697
2.5788 7.8945127 -2.2253263
3.0475285 9.3184319 -2.2634575
3.6934483 11.286776 -2.3084073
4.5517097 13.893145 -2.3155432
9.2037354 28.05933 -3.6258569
12.580098 38.33028 -3.529459
2.6027057 7.8744569 -2.2222204
3.079428 9.3058872 -2.2630076
3.7254219 11.251449 -2.303828
4.5715899 13.790917 -2.3011513
9.2803593 27.962976 -3.6175699
12.721363 38.308819 -3.5315504
2.6289461 7.8616605 -2.2211852
3.1149838 9.3043213 -2.2652571
3.7559359 11.212317 -2.2984853
4.6297545 13.804839 -2.3061571
9.2580948 27.589531 -3.5732095
12.862633 38.286842 -3.5336425
2.6543853 7.8510695 -2.2206676
3.1439493 9.2884016 -2.2639074
3.7880616 11.184922 -2.2954323
4.6926312 13.839923 -2.3146045
9.5600023 28.179029 -3.6536431
13.008739 38.300571 -3.5388715
2.6816537 7.84588 -2.2217028
3.1709461 9.2668619 -2.2612078
3.8276725 11.179729 -2.2969587
4.7256875 13.786913 -2.3083472
9.6157894 28.021563 -3.6375566
13.140847 38.272305 -3.5402663
2.7071328 7.8309922 -2.2201498
3.2039142 9.2575788 -2.261658
3.8686044 11.171865 -2.2981036
4.7453179 13.68821 -2.2945809
9.6731853 27.871555 -3.6224446
20.133125 57.977341 -5.3694906
2.7299874 7.8087311 -2.2165263
3.236212 9.2463379 -2.261658
3.893949 11.119383 -2.2900898
4.8022232 13.697659 -2.2989612
9.7533302 27.788918 -3.6161075
20.303709 57.816471 -5.3611236
2.7572303 7.7991533 -2.2165263
3.2723675 9.2460089 -2.2643573
3.9379845 11.120526 -2.2931426
4.8401046 13.652886 -2.2942681
9.4771309 26.703335 -3.4791265
20.498726 57.726479 -5.3593812
2.7876873 7.7985773 -2.2191145
3.3019981 9.2271891 -2.2625577
3.9794235 11.114107 -2.2946692
4.8357453 13.490863 -2.2698643
9.9162407 27.634207 -3.6048956
20.71089 57.684566 -5.3621697
2.8122678 7.7815304 -2.2170439
3.332191 9.2101107 -2.2612078
4.0255485 11.120454 -2.2988667
4.825592 13.316044 -2.2432706
9.6931105 26.718628 -3.4898508
20.94335 57.698082 -5.3701878
2.8387527 7.7698517 -2.2165263
3.3629842 9.1947622 -2.2603083
4.0710917 11.124769 -2.3026831
4.8829198 13.328794 -2.2482765
9.6906223 26.423712 -3.4557273
21.124052 57.568512 -5.3649588
2.8645136 7.7562733 -2.2154911
3.3984408 9.1921053 -2.2625577
4.1187463 11.134431 -2.3076441
4.921874 13.29129 -2.2448349
9.799366 26.434393 -3.4615772
21.237591 57.259045 -5.3429956
2.8902211 7.7426057 -2.2144558
3.4305046 9.1801872 -2.2625577
4.1534653 11.108951 -2.3053544
5.0707173 13.547835 -2.2911394
9.4472256 25.21405 -3.306072
21.500265 57.35247 -5.3586836
2.9206381 7.7415075 -2.2170439
3.4581735 9.1614685 -2.2607579
4.197073 11.107242 -2.3080258
5.1191058 13.540186 -2.2927039
9.0009689 23.78273 -3.1222928
21.714464 57.314331 -5.3621697
2.9462924 7.7317805 -2.2170439
3.4887452 9.1456995 -2.2598584
4.2345858 11.095096 -2.3084073
5.1980677 13.60527 -2.3067827
9.8228502 25.683149 -3.3762684
21.959976 57.357269 -5.3733258
2.9760058 7.7245336 -2.2180793
3.5213475 9.1352854 -2.2603083
4.2759328 11.081331 -2.308789
5.1639061 13.36869 -2.2698643
10.25021 26.522667 -3.4913132
2.99454 7.6924963 -2.2118676
3.5555162 9.1241322 -2.2607579
4.3210039 11.082802 -2.3122237
5.324738 13.643174 -2.3196106
10.279442 26.311117 -3.4684017
3.0220051 7.6796718 -2.21135
3.592339 9.1243591 -2.2639074
4.3695107 11.086982 -2.3164213
10.38289 26.304617 -3.4723015
22.01 55.704548 -5.2401519
3.0482578 7.6755252 -2.2129028
3.6204197 9.1069632 -2.2625577
4.4166584 11.104212 -2.3229089
5.4065199 13.579084 -2.3149173
10.512672 26.377001 -3.4864385
22.135555 55.483204 -5.2262068
3.0792468 7.671473 -2.2149734
18.319084 45.639202 0.85841405
3.6463752 9.0798035 -2.2589586
4.4543962 11.080663 -2.3213823
10.637308 26.421165 -3.4971631
22.936796 56.91354 -5.3684454
3.1067343 7.662468 -2.2154911
3.6825633 9.0735998 -2.2607579
4.5056071 11.095969 -2.3278699
5.368176 13.206992 -2.2579753
9.9380655 24.4256 -3.2378249
5.0825925 12.485645 -1.1793915
5.0518961 12.397861 -0.70161593
3.1319962 7.6480012 -2.2144558
18.528446 45.221989 0.85303873
3.7112556 9.0534782 -2.2589586
4.5398397 11.069277 -2.3255801
5.4059954 13.168071 -2.2545338
10.807992 26.300304 -3.4913132
5.0602341 12.30751 -1.1642264
3.1527689 7.6227393 -2.2103145
18.724407 45.249424 0.85478395
3.7487967 9.0548735 -2.2625577
4.585216 11.069685 -2.3290148
5.4889903 13.238534 -2.2698643
9.6837521 23.332552 -3.1018188
5.1054478 12.295295 -1.1647493
3.1763747 7.6045604 -2.2082443
3.7712913 9.0244093 -2.2580585
4.6321549 11.073539 -2.3332126
5.4680414 13.065371 -2.2432706
5.166626 12.333094 -1.641824
5.1383224 12.253511 -1.1624832
3.211333 7.617126 -2.2149734
3.8027718 9.0111895 -2.2580585
4.6795444 11.083436 -2.3385551
5.5859027 13.217239 -2.2726803
5.222023 12.344234 -1.6457237
5.158741 12.188698 -1.1579511
5.1685963 12.200134 -0.69439352
3.2363913 7.602314 -2.2139382
3.8326697 8.9942789 -2.2571588
4.7205172 11.072452 -2.3397002
5.6467276 13.232185 -2.2786248
5.227654 12.238303 -1.6340244
5.2223883 12.220087 -1.1626576
5.2331491 12.233433 -0.69732434
3.2651956 7.5962954 -2.2154911
3.8648148 8.9826336 -2.2576087
4.7560368 11.048692 -2.3381736
5.2535887 12.192844 -2.1027923
5.2609053 12.198109 -1.6310995
5.2681727 12.209099 -1.1633549
5.2805686 12.226093 -0.69795239
3.2893829 7.579536 -2.2139382
3.8976882 8.9769173 -2.2594085
4.8070874 11.060834 -2.3442793
5.2939959 12.175354 -2.1027923
5.2712212 12.11143 -1.6218374
5.3012128 12.168715 -1.1612631
5.301136 12.162741 -0.69533557
5.2905679 12.121162 3.5437505
3.3106263 7.5597372 -2.21135
5.3454156 12.200336 0.23250096
3.928998 8.9632578 -2.2594085
5.3503757 12.200069 0.69816172
4.8500514 11.059216 -2.3473325
5.366672 12.231424 1.1685842
5.274529 12.015718 -2.0783885
5.3672342 12.22111 1.6388991
5.2735424 12.002085 -1.6096504
5.2907152 12.029766 -1.1497585
5.3001199 12.045445 -0.68968332
5.3091826 12.054626 -0.229918
5.4200888 12.300621 3.6017258
3.3390918 7.5493202 -2.2118676
5.3216395 12.031643 0.22963877
3.9539511 8.9352331 -2.2558093
5.3379517 12.057129 0.69104403
4.8897552 11.039571 -2.3469508
5.3452792 12.062304 1.1542907
5.29772 11.94935 -2.0702538
5.3390627 12.042602 1.61745
5.3017201 11.952757 -1.6055069
5.3611841 12.081114 2.0934062
5.3116579 11.963878 -1.1452264
5.3699255 12.089445 2.5713422
5.3255816 11.983958 -0.68727589
5.367671 12.072993 3.0503364
5.3284855 11.984857 -0.22894068
5.3781958 12.090996 3.5458212
3.3670008 7.5411448 -2.2129028
5.3510246 11.97919 0.22901048
3.9898562 8.9277964 -2.2576087
5.3490372 11.969131 0.6870665
4.9186473 11.000927 -2.3423715
5.371078 12.007198 1.1508044
5.3297138 11.90915 -2.0664995
5.3693724 11.992154 1.6133065
5.3357582 11.911504 -1.602582
5.3823233 12.015455 2.0852716
5.3558292 11.95072 -1.1457494
5.3904095 12.022258 2.5610385
5.3906293 12.011515 3.0395386
5.3555474 11.933346 -0.22831239
5.4116673 12.052761 3.540127
3.3885398 7.5187798 -2.2097969
5.3808575 11.939504 0.22859162
4.0178366 8.910965 -2.2567091
5.3875031 11.943104 0.68664783
4.9505596 10.969373 -2.3393183
5.402297 11.964771 1.1485384
5.3691745 11.891413 -2.0664995
5.3968554 11.947144 1.6096504
5.3768673 11.897361 -1.6030694
5.4177189 11.982196 2.0827687
5.399158 11.93558 -1.146098
5.4286318 12.000736 2.5602751
5.4360552 12.006001 3.0426881
5.4078999 11.938257 -0.22876614
5.4481273 12.021479 3.5365036
3.4150522 7.5110202 -2.2108324
5.4283004 11.933388 0.22883596
4.0529552 8.9057531 -2.2589586
5.4366002 11.940589 0.68758982
4.9869008 10.9529 -2.3393183
5.4402952 11.943163 1.1481898
5.4090147 11.869001 -2.0658739
5.450047 11.953524 1.6130629
5.4233041 11.889357 -1.6045319
5.4627953 11.970398 2.0840201
5.4292006 11.891289 -1.1436577
5.4688559 11.978143 2.5595119
5.4428906 11.915769 -0.68654317
5.4779339 11.986951 3.0426881
5.4462104 11.912033 -0.22862652
5.4908576 12.004146 3.5370212
3.4441757 7.5019612 -2.2118676
5.4757662 11.927087 0.22908029
4.0799489 8.8826981 -2.2567091
5.4857564 11.937871 0.68853194
5.0311203 10.943464 -2.3412266
5.4931884 11.943056 1.1501071
5.4640384 11.87422 -2.0702538
5.50419 11.961475 1.6167189
5.4846992 11.913629 -1.6103816
5.5243769 11.994319 2.0915291
5.481513 11.89579 -1.1459237
5.513546 11.959801 2.5598936
5.493217 11.91025 -0.68738055
5.5389748 12.003953 3.0521359
5.5154037 11.95287 -0.22977838
5.5464954 12.014723 3.5458212
3.4662755 7.4811306 -2.2092795
5.5446715 11.961366 0.23012744
4.1100202 8.8623791 -2.2553592
5.5593271 11.987499 0.69250941
5.0684557 10.924058 -2.3408449
5.5801458 12.021394 1.15952
5.5304179 11.908822 -2.0796399
5.6494789 12.154094 2.1228158
5.616261 12.077114 -1.1652722
5.5999718 12.036607 2.5805008
5.662869 12.16623 -0.70329064
5.6471314 12.121374 3.583091
3.4997351 7.484735 -2.2139382
4.139389 8.8486996 -2.2553592
5.1090574 10.911632 -2.3419898
6.463141 13.797318 -2.4131584
5.6431603 12.041391 1.6328056
11.615806 24.774588 -3.3596942
5.7303281 12.210749 -1.1800888
5.7405276 12.226934 -0.70789623
5.6844797 12.091097 3.5799851
3.5212419 7.4660983 -2.2118676
4.1727414 8.8394871 -2.2567091
5.1376705 10.878651 -2.3385551
6.5061889 13.763962 -2.4112811
5.7012858 12.055715 1.6374366
11.685242 24.697998 -3.3548195
5.7879286 12.200338 3.6182904
3.5406353 7.4398084 -2.2077267
4.2018976 8.8213482 -2.2558093
5.1789894 10.867741 -2.3400817
6.543993 13.71977 -2.4075267
11.395076 23.868837 -3.2475746
25.470371 53.327888 -5.1704268
5.9639373 12.458862 3.7011125
3.5674219 7.4291444 -2.2082443
4.2309742 8.8031139 -2.2549093
5.2160406 10.847829 -2.3397002
6.5832744 13.679046 -2.404398
5.8128633 12.072855 1.6452364
10.940769 22.71294 -3.0954816
24.322592 50.471016 -4.901639
3.5950191 7.4201226 -2.2092795
4.2574277 8.7795238 -2.25266
5.2607327 10.843684 -2.3427529
6.6301241 13.654204 -2.4040852
10.999156 22.631763 -3.0896318
3.6192002 7.4040585 -2.2082443
4.2863374 8.7611074 -2.25176
5.911005 12.076538 0.70465142
5.2959604 10.819965 -2.341608
5.9372492 12.124799 1.1811346
6.6734042 13.622106 -2.4025209
11.357744 23.163588 -3.167628
26.02743 53.058239 -5.1704268
6.344656 12.905425 3.8532979
3.6492975 7.4000421 -2.2108324
4.3203416 8.7530823 -2.2535596
5.3293538 10.792611 -2.3397002
5.9133554 11.970024 1.1680613
6.7174096 13.591646 -2.4012692
26.180656 52.902786 -5.1641521
6.2626314 12.627057 3.7766876
3.6656463 7.3747015 -2.2066913
4.3495531 8.7429562 -2.2544594
5.9455838 11.94588 0.6993131
5.3746033 10.798664 -2.344661
6.757431 13.565173 -2.4003308
6.0032387 12.045905 1.6525484
11.463291 22.991819 -3.1544664
26.200869 52.527882 -5.1355648
6.2754951 12.55375 3.7606409
3.6974299 7.3739481 -2.2103145
4.3748031 8.7172689 -2.25176
5.9738073 11.898277 0.69774306
5.4061017 10.767554 -2.3419898
5.9872422 11.919863 1.1670153
6.7941012 13.52032 -2.3965762
6.0283122 11.991177 1.6479174
26.251541 52.172691 -5.109767
6.3244877 12.542122 3.7637467
3.7266335 7.3678937 -2.2123852
4.4008031 8.6932526 -2.2495105
6.0080824 11.8631 0.69690567
5.4454265 10.752122 -2.3427529
6.0099068 11.861567 1.1633549
6.8376789 13.489475 -2.3953247
6.0036917 11.839048 1.6298808
11.39181 22.454494 -3.0915818
26.343338 51.903061 -5.0923357
6.3533435 12.490695 3.7549467
3.7488198 7.3479557 -2.2103145
4.4320059 8.679575 -2.2499604
6.0476413 11.838496 0.69669628
5.4811416 10.72955 -2.3419898
6.0240769 11.787291 1.1581255
6.8874192 13.470802 -2.3962634
6.0106325 11.750859 1.6206186
11.558749 22.58777 -3.115468
25.656336 50.115353 -4.925694
25.7029 50.163078 -2.9539464
25.764559 50.2402 -0.98553735
6.3969088 12.46844 3.7549467
3.7726731 7.3313928 -2.2092795
25.900188 50.309898 0.98770148
4.4622784 8.6640501 -2.2499604
6.1136198 11.865254 0.69952244
5.5095615 10.692904 -2.3381736
6.9271603 13.432632 -2.3937604
11.830538 22.921251 -3.1671407
25.882318 50.124622 -4.9354553
6.4386144 12.442605 3.7539115
3.7964637 7.3147492 -2.2082443
4.4951873 8.6536102 -2.2513101
6.1632924 11.859791 0.70046449
5.5459509 10.671864 -2.3377919
6.9685345 13.397857 -2.3918834
11.752824 22.576956 -3.1252177
26.070002 50.058716 -4.9378958
6.483799 12.423477 3.7549467
3.8157043 7.2894702 -2.2046208
4.5235605 8.6344128 -2.2504103
6.2176371 11.862969 0.70192993
5.5868168 10.659393 -2.3393183
7.0106745 13.364702 -2.3903189
11.945967 22.753742 -3.1554415
26.185303 49.854515 -4.9267397
6.5271168 12.400774 3.7549467
3.8429282 7.2795243 -2.2056561
4.5454817 8.6030607 -2.246361
6.2636728 11.850024 0.70245332
5.625824 10.6433 -2.3400817
7.0582108 13.341893 -2.3906317
12.086632 22.82769 -3.1715281
26.290165 49.632511 -4.9138408
6.5703673 12.377913 3.7549467
3.8792114 7.2865276 -2.2118676
4.580976 8.5974636 -2.2490606
5.6555562 10.609735 -2.3370285
7.1103096 13.327635 -2.392509
12.269097 22.977978 -3.1983392
26.438816 49.494762 -4.9093084
6.6077356 12.349242 3.7528763
3.8936553 7.2525177 -2.2056561
4.606698 8.577075 -2.2477109
5.6888366 10.583014 -2.3355021
7.1600833 13.31442 -2.3943863
11.221913 20.850058 -2.9073153
26.588758 49.360069 -4.9051251
6.6709876 12.363503 3.7642643
3.9130855 7.2310719 -2.2030678
4.6431079 8.5729351 -2.2508602
5.73138 10.577901 -2.3385551
7.2065196 13.289343 -2.3943863
11.537028 21.257406 -2.9697125
26.712381 49.198082 -4.8978043
6.8932176 12.669349 3.8646863
3.9429314 7.2258463 -2.2056561
4.6702008 8.5515451 -2.2495105
5.7748609 10.569889 -2.3412266
7.2538085 13.265841 -2.3946991
11.82653 21.610559 -3.0247974
14.043793 25.651522 -2.5585439
3.9690638 7.2137308 -2.2061737
4.6896811 8.5164156 -2.2445617
5.7965674 10.522152 -2.3351207
7.3038898 13.247358 -2.3959506
14.133947 25.624729 3.5931959
11.700486 21.204159 -2.9736123
14.089562 25.512667 -2.5498283
3.9973502 7.2025146 -2.2072091
4.7222204 8.5051031 -2.2459114
5.82937 10.490541 -2.3328309
7.3571925 13.229133 -2.3975151
12.440368 22.360117 -3.1417918
27.217192 48.879578 -4.8946667
14.279388 25.633944 5.7036629
4.0205789 7.1851463 -2.2061737
4.7514591 8.4843369 -2.2450116
5.8678703 10.473555 -2.3335941
7.412024 13.218876 -2.4003308
11.045601 19.683044 -2.7713091
27.413019 48.829433 -4.8991985
14.332255 25.518892 5.6891613
4.0389924 7.1592889 -2.2025502
4.7839146 8.4727926 -2.246361
5.9063277 10.456426 -2.3343573
7.45228 13.182611 -2.3984535
12.156267 21.486132 -3.0311346
14.423174 25.472126 5.6899247
4.0687361 7.153542 -2.2051384
4.8124995 8.4543486 -2.2459114
5.9398799 10.430625 -2.3332126
34.313259 60.230839 6.0646448
7.4610853 13.091298 -2.3865645
12.162341 21.322866 -3.0140727
27.711748 48.564201 -4.8918772
14.537313 25.465952 5.6998467
4.1004033 7.1510291 -2.2087619
4.8317838 8.4231272 -2.2418623
5.9782009 10.413238 -2.3339758
7.4828167 13.028797 -2.3796813
11.455435 19.92968 -2.8224943
14.641255 25.451643 5.707479
4.1153984 7.1223378 -2.2041032
4.8660369 8.4146442 -2.2441118
6.0097532 10.388256 -2.3328309
34.622646 59.823441 6.047214
7.4975696 12.9496 -2.3699825
4.1450973 7.1162734 -2.2066913
4.8953743 8.3976116 -2.2441118
35.056885 60.113014 3.6469793
6.0459814 10.367212 -2.3328309
34.680641 59.444084 6.0210667
7.5337572 12.908002 -2.3671668
12.247106 20.966805 -2.9814119
28.834627 49.305031 -2.9934077
4.1581707 7.0817738 -2.2004797
4.9256468 8.3821507 -2.2445617
35.114662 59.732018 3.6312783
6.0831256 10.347739 -2.3332126
34.837444 59.236786 6.0123515
7.5527277 12.837357 -2.3590322
12.199349 20.718658 -2.9521632
4.1887703 7.077189 -2.2035854
34.211269 57.778999 1.1720687
4.9518943 8.3598766 -2.2432117
6.1202073 10.328132 -2.3335941
34.840824 58.772038 5.977489
7.5521469 12.734458 -2.3449528
12.310102 20.740814 -2.9614253
4.2124615 7.0608649 -2.2030678
34.343044 57.542473 1.1696951
4.9750538 8.3324995 -2.2405124
35.735653 59.828354 3.6522129
6.1552186 10.305018 -2.3332126
7.5925012 12.701234 -2.3437014
12.427263 20.772673 -2.9721496
4.2370811 7.0461187 -2.2030678
5.0081272 8.321763 -2.2423122
6.1860867 10.275061 -2.3313043
7.5980544 12.610357 -2.3318124
12.639104 20.960365 -3.0052984
4.2624278 7.0353327 -2.2041032
5.0346837 8.3034439 -2.2418623
6.2140198 10.244418 -2.3290148
7.6346965 12.576653 -2.3302481
28.382122 46.698803 -4.7810154
4.2849445 7.0171146 -2.2030678
5.0666881 8.2908058 -2.2432117
35.499725 58.066711 3.5668004
6.2548599 10.231041 -2.3309228
7.6476254 12.499373 -2.3208621
12.789776 20.88739 -3.0072482
34.907543 56.897018 -1.1651576
4.3053613 6.9955339 -2.2009974
5.0915117 8.2664309 -2.2414124
35.689613 57.922043 3.5655446
6.2884727 10.205803 -2.3301597
35.575073 57.713528 5.9314709
7.6684027 12.43561 -2.3139789
12.589475 20.400019 -2.9433885
35.080662 56.734028 -1.1643199
4.3348465 6.9886699 -2.2035854
5.1141677 8.2386751 -2.238713
6.3240619 10.183789 -2.3301597
7.7159324 12.415481 -2.3152304
36.549908 58.78849 8.4996567
13.367242 21.492075 -3.1076686
35.356762 56.736797 -1.1669028
4.3622866 6.9784122 -2.2051384
5.1449642 8.2240763 -2.2396126
6.3585281 10.159989 -2.329778
7.7592268 12.388469 -2.3152304
12.442702 19.850773 -2.8766043
4.3814721 6.9549675 -2.2025502
5.1757131 8.2093668 -2.2405124
6.3845301 10.122784 -2.3263433
7.775001 12.317883 -2.3070958
13.046242 20.653076 -2.9994485
29.020378 45.923504 -4.7527766
35.538116 56.150646 -1.1599219
4.3984766 6.9282136 -2.1989267
5.2022495 8.1879587 -2.2396126
6.4240422 10.107063 -2.3278699
7.8200746 12.293998 -2.3077216
36.933346 58.040764 8.4470091
12.21641 19.190716 -2.7932458
4.4236703 6.9144483 -2.1994443
35.983562 56.222683 1.1651576
5.2318521 8.1713896 -2.2400625
6.4635115 10.091193 -2.3293962
7.7776637 12.133581 -2.282692
13.355172 20.818804 -3.0369844
4.4488273 6.9005866 -2.1999619
5.2518897 8.1399784 -2.2364633
6.4944415 10.061971 -2.3278699
7.8296127 12.121293 -2.2855077
37.962498 58.748543 8.588377
13.304913 20.582005 -3.0091982
4.4739399 6.8866372 -2.2004797
5.2813368 8.123229 -2.2369132
6.5295229 10.039242 -2.3278699
8.0496845 12.367054 -2.3371313
13.495855 20.718405 -3.0360093
4.4905467 6.8596625 -2.1968563
5.3107257 8.1063747 -2.2373631
37.204254 56.789158 3.558008
6.5580721 10.006534 -2.3255801
38.007244 57.970707 6.0646448
8.118803 12.378525 -2.34464
13.450447 20.491943 -3.0096855
29.380022 44.743847 -4.6830521
4.5102105 6.8374944 -2.1947856
5.3375764 8.0887213 -2.2373631
6.5886364 9.977026 -2.3240535
8.1576262 12.34824 -2.3440144
13.842387 20.937374 -3.0818324
29.564625 44.684212 -4.6875844
4.533927 6.8241096 -2.1953032
5.3679395 8.0732841 -2.2382631
6.6282072 9.9649315 -2.3263433
8.1963053 12.313109 -2.3427629
13.404727 20.122362 -2.9687374
29.661806 44.509666 -4.6795659
4.5577188 6.8082428 -2.1953032
5.3895817 8.0447826 -2.2355635
38.130466 56.894184 3.5894094
6.6651349 9.9449978 -2.3271067
8.2117319 12.243408 -2.3349411
13.718279 20.438057 -3.0223601
29.783682 44.356224 -4.6743369
37.042267 55.083214 -1.1586652
4.5825381 6.7938924 -2.1958208
37.558247 55.661491 1.1720687
5.4143577 8.0210752 -2.2342138
6.6932192 9.9119081 -2.3248169
8.2533102 12.213035 -2.3346283
38.213837 56.526573 8.3777866
13.151213 19.446188 -2.8824539
29.929392 44.238789 -4.6729422
37.301632 55.052891 -1.1607596
4.6029663 6.7730627 -2.194268
5.4412303 8.000514 -2.2337639
37.659397 55.351788 3.5086026
6.7233582 9.8819923 -2.3232903
8.3381414 12.246196 -2.3465173
13.954515 20.479593 -3.042834
30.088133 44.140629 -4.6736398
37.60183 55.080894 -1.1641104
4.6200337 6.7473888 -2.1911621
5.4713211 7.9846897 -2.2346637
6.7567043 9.856842 -2.3229089
8.3987083 12.243084 -2.3515232
14.084345 20.515854 -3.0555084
30.237488 44.028782 -4.6729422
37.827847 54.998734 -1.1651576
4.6424637 6.72963 -2.1906445
5.495841 7.960731 -2.233314
6.7921886 9.8348103 -2.3232903
8.444766 12.218565 -2.3524618
14.144578 20.450245 -3.0530713
38.953575 56.298115 10.8431
30.427284 43.975391 -4.6785202
38.019615 54.866348 -1.1651576
4.669229 6.7181449 -2.1921973
5.5224843 7.9398971 -2.2328641
6.8242273 9.8078232 -2.3225272
8.4783382 12.176042 -2.3499587
38.801899 55.704105 8.3353767
13.455491 19.309532 -2.8897662
30.525919 43.790447 -4.6701531
38.382942 55.020657 -3.515825
4.6948686 6.7049689 -2.1932325
38.411518 54.837029 1.1686481
5.5423369 7.9094019 -2.2297149
38.183228 54.470592 3.486203
6.8516622 9.7742949 -2.3202376
8.5695667 12.215911 -2.3634121
13.602658 19.376171 -2.9068279
30.690035 43.699936 -4.6718965
4.712676 6.6806493 -2.1906445
5.5789046 7.9027419 -2.233314
12.474586 17.67075 1.133597
6.8744121 9.7342825 -2.3164213
8.62356 12.202053 -2.3665409
12.407027 17.542557 -2.6382277
4.7314925 6.6578569 -2.1885738
5.6062078 7.885787 -2.2337639
12.4922 17.565248 1.1296194
6.906075 9.7070255 -2.3156581
8.7052097 12.23133 -2.3778043
12.434044 17.457659 -2.6316469
12.467363 17.491514 -1.8792521
12.495098 17.523956 -1.1279447
12.503686 17.523058 -0.3757503
4.7512946 6.6389894 -2.1875386
5.6291604 7.8598342 -2.2319643
6.933651 9.6776886 -2.3141315
8.7478495 12.200871 -2.3778043
12.506484 17.430275 -2.6340842
4.7778282 6.6270661 -2.1890914
12.373986 17.163284 0.36932781
5.6483555 7.8316388 -2.229265
12.429173 17.227137 1.1132905
6.9742866 9.6629772 -2.3164213
8.8402996 12.243861 -2.3918834
40.299911 55.795067 8.4509087
14.22673 19.68961 -2.9826305
39.444786 54.53091 -3.5271299
38.477753 53.154945 -1.1454015
4.7952404 6.6049318 -2.187021
12.470254 17.170141 0.37040988
5.6756573 7.8118758 -2.229265
6.9982109 9.6286812 -2.31375
8.9445639 12.297597 -2.4084654
40.494415 55.65406 8.4509087
14.221773 19.538723 -2.9672751
4.8171363 6.5841923 -2.1859856
12.569083 17.179762 0.37156174
5.7063422 7.7967353 -2.2306147
7.0288172 9.5966291 -2.3122237
9.0794992 12.387408 -2.4325564
14.282851 19.479349 -2.9658124
31.430679 42.834675 -4.64819
39.867065 54.292347 -3.5300608
38.866844 52.910805 -1.1459599
4.8343582 6.5595627 -2.1833978
12.662815 17.17543 0.37246925
5.7302556 7.7694936 -2.2288151
7.063436 9.573617 -2.3126051
9.1743088 12.425564 -2.4463224
14.262132 19.302341 -2.9468009
40.09911 54.210648 -3.5338287
4.8572278 6.5426464 -2.1833978
5.7526913 7.7431879 -2.2270155
7.0979853 9.550477 -2.3129869
9.2671366 12.460038 -2.4594631
15.891561 21.351255 -3.2680488
39.961681 53.593182 -1.1669028
4.8788743 6.524107 -2.1828799
5.7680106 7.7074561 -2.2225163
7.1324577 9.5272112 -2.3133683
9.3709812 12.508238 -2.4754193
15.885016 21.187653 -3.2514744
31.877502 42.503197 -4.64819
4.9016194 6.5070353 -2.1828799
5.8040953 7.702292 -2.2265656
7.1609359 9.4959908 -2.3118417
9.4611874 12.541748 -2.4882469
15.904952 21.068321 -3.2412372
4.9185028 6.4845881 -2.1808095
39.502701 52.061756 1.1407242
5.8262277 7.6757798 -2.224766
7.1852655 9.4628096 -2.3095522
9.5586805 12.579429 -2.502326
15.925534 20.943144 -3.2305129
32.173454 42.279613 -4.64819
4.9422359 6.4665179 -2.1808095
5.8518043 7.6538463 -2.2243161
7.2151265 9.4301748 -2.3080258
9.6851912 12.649389 -2.5232882
15.962326 20.840151 -3.2232008
4.9636016 6.4476957 -2.1802919
5.8774376 7.629261 -2.2234163
7.253994 9.4127054 -2.3099339
9.7449608 12.635844 -2.5273554
15.998603 20.73715 -3.2158885
4.9814034 6.42662 -2.1787388
5.8967347 7.6020274 -2.2211666
7.2863703 9.390152 -2.3103154
28.854099 37.171661 4.1168885
9.7892351 12.606577 -2.527981
16.047792 20.658903 -3.2119887
5.0050659 6.4131098 -2.179774
28.848598 36.95113 0.81827354
5.9219103 7.5824327 -2.2211666
28.866926 36.947975 2.457278
7.3045936 9.3460989 -2.3057361
28.915833 36.997299 4.1081729
9.8249016 12.566268 -2.526417
16.068428 20.5371 -3.2017517
28.808102 36.793205 -4.0883012
28.82856 36.79287 -2.4496372
28.85535 36.813828 -0.81645846
5.0261483 6.3916864 -2.1787388
28.986319 36.848286 0.81834334
5.9496632 7.5606751 -2.2211666
7.3400164 9.3208036 -2.3061175
9.8721189 12.531721 -2.5267298
16.087063 20.406351 -3.1905396
28.937819 36.681122 -4.087604
29.002811 36.737129 -2.4529865
5.043541 6.3656516 -2.1761506
5.974915 7.5357623 -2.2202671
7.3664055 9.2874365 -2.3042095
9.9155302 12.492357 -2.526104
16.148319 20.337641 -3.1885898
5.0646238 6.3488898 -2.1761506
5.9925756 7.5067711 -2.2175674
7.3971658 9.2629547 -2.3042095
9.9236021 12.417744 -2.5176563
16.168575 20.225056 -3.1793277
5.0868592 6.3335686 -2.1766684
40.24321 50.08823 1.1215265
6.0101094 7.4777451 -2.2148681
41.1665 51.200829 3.4430783
7.4319186 9.2401361 -2.3049729
9.9622536 12.381687 -2.5170307
16.241571 20.171579 -3.1798151
5.1076069 6.3118792 -2.175633
6.037478 7.4556651 -2.2148681
7.4607882 9.2067347 -2.3034463
10.000102 12.335886 -2.5151536
16.262865 20.047174 -3.1695781
5.1282697 6.2901182 -2.1745977
6.0672264 7.4365077 -2.2157679
7.4829521 9.1684656 -2.3003933
10.030251 12.280794 -2.5113993
16.303564 19.947474 -3.1632409
33.344368 40.782433 -4.6087956
5.145287 6.2662101 -2.1725271
6.0894384 7.4107656 -2.2144182
7.5149045 9.1422939 -2.3003933
10.050473 12.218246 -2.5057676
16.335253 19.844458 -3.1559289
32.002186 38.863201 -4.4045024
5.1671305 6.24821 -2.1725271
6.1140246 7.3879633 -2.2139683
7.5442696 9.1129808 -2.2996302
10.079195 12.166356 -2.502326
16.347765 19.725988 -3.1456916
32.152901 38.769665 -4.4065943
5.1853518 6.2280703 -2.1714919
6.1272631 7.3541756 -2.2099192
7.5694227 9.0818787 -2.2981036
10.110626 12.122248 -2.5001359
16.377483 19.628984 -3.1388669
32.383438 38.785183 -4.4205389
5.2134209 6.2197251 -2.1745977
41.604546 49.617546 1.1302527
6.155376 7.3382931 -2.2112689
7.5982337 9.0552244 -2.2977221
42.263649 50.350018 5.7512336
10.127908 12.061422 -2.4945042
16.392263 19.507872 -3.1286299
32.454521 38.595654 -4.4118237
5.2287025 6.191721 -2.1714919
6.1822133 7.3182497 -2.2117188
7.6224976 9.0168219 -2.2950509
10.149079 11.997076 -2.4888725
16.426914 19.411139 -3.1222928
32.630241 38.530792 -4.4174013
5.2402725 6.1616564 -2.1673508
6.2077298 7.2940583 -2.2112689
7.6590185 8.9961367 -2.2965772
10.178088 11.946536 -2.485744
16.456739 19.302456 -3.1144934
32.737637 38.371521 -4.4128695
5.2603064 6.1394763 -2.1663156
6.2268138 7.2649455 -2.2090194
7.6817126 8.9560843 -2.2935243
10.198646 11.882174 -2.4801123
16.498152 19.214775 -3.1096184
32.95966 38.359776 -4.4247227
5.2820921 6.1258445 -2.1673508
6.239408 7.2309818 -2.2049701
7.7175102 8.9408226 -2.295814
10.220432 11.832133 -2.4763579
16.520245 19.111898 -3.1018188
33.214436 38.39793 -4.4418049
5.310843 6.1137371 -2.169939
6.2658911 7.210628 -2.2054203
7.7386327 8.8991451 -2.2923794
10.255947 11.785655 -2.4744806
16.534718 18.994228 -3.0920694
33.261902 38.182594 -4.4303007
5.3283362 6.0907979 -2.168386
6.2948437 7.1905479 -2.20632
7.7657709 8.8676443 -2.2912345
10.286607 11.737901 -2.4719777
16.551874 18.873795 -3.0823197
33.337143 38.000385 -4.4226308
5.3419018 6.0634651 -2.1652801
6.3186555 7.169632 -2.20632
7.7914853 8.8345919 -2.2897081
10.304567 11.68002 -2.4669719
16.567078 18.765226 -3.0735452
33.51181 37.931557 -4.4282088
5.359417 6.0428252 -2.1642449
6.3475256 7.1519022 -2.2076695
7.8259511 8.814579 -2.2912345
10.32691 11.623302 -2.4625916
16.574432 18.642017 -3.0628207
33.763214 37.948303 -4.4438968
5.3841023 6.0260239 -2.1652801
6.3568635 7.1122713 -2.202271
7.8529682 8.7799845 -2.2897081
10.361536 11.576546 -2.4607143
16.615574 18.557425 -3.0584333
33.879509 37.812416 -4.4418049
5.4038105 6.0057578 -2.1647625
6.3815899 7.087471 -2.2018209
7.8783102 8.746686 -2.2881815
44.670452 49.576786 5.8383889
10.383369 11.519761 -2.4563344
16.606359 18.410908 -3.0442965
34.075367 37.764915 -4.4501719
5.4208527 5.982563 -2.1632097
6.4011292 7.0619397 -2.2004712
7.9061589 8.7162218 -2.2874184
10.405581 11.467712 -2.4525797
16.627291 18.311646 -3.0369844
34.236439 37.678207 -4.4540071
5.4328489 5.9559913 -2.1601038
6.4309955 7.0453115 -2.202271
44.434872 48.662422 3.4535456
7.9297223 8.6841593 -2.2858918
10.421561 11.405074 -2.4469483
16.645569 18.20368 -3.0286973
34.463409 37.676189 -4.4672546
5.4601412 5.9441023 -2.1626918
6.4410443 7.0070372 -2.1973219
7.9573321 8.6535339 -2.2851286
10.437234 11.342459 -2.4413166
16.668667 18.101662 -3.0213852
34.659512 37.625992 -4.4756217
5.4756083 5.9193354 -2.1606214
6.464138 6.9830818 -2.196872
7.9848204 8.6228256 -2.2843654
45.704491 49.339108 5.884058
10.460655 11.288568 -2.4375622
16.683157 17.990969 -3.0126104
34.823174 37.539825 -4.479805
5.4988728 5.9030113 -2.1616566
6.4832726 6.9573321 -2.1955223
8.0068398 8.5862837 -2.2820759
10.481854 11.23649 -2.4338076
16.718348 17.909422 -3.0082233
34.983913 37.450077 -4.4836402
45.661049 48.828613 -1.1669028
5.5038795 5.8692436 -2.1559627
6.5115209 6.93892 -2.196872
8.0245171 8.5482349 -2.2790227
10.496672 11.173914 -2.4281759
16.718212 17.784424 -2.9970112
35.148849 37.377411 -4.4888692
5.5190277 5.8443794 -2.1538923
6.5344973 6.9172873 -2.196872
8.057004 8.5230274 -2.2797861
10.495667 11.098855 -2.4194157
16.744347 17.694286 -2.9911613
35.331173 37.309456 -4.4954929
5.5503588 5.838645 -2.158551
6.5559158 6.8916125 -2.1959722
8.0771036 8.4877272 -2.2774963
10.509823 11.036404 -2.413784
16.756714 17.583992 -2.9823868
35.422684 37.145531 -4.4906125
5.5703835 5.8168688 -2.1580334
6.5731907 6.8616519 -2.1937227
8.1081572 8.4580669 -2.2774963
10.550206 10.997807 -2.413784
16.793255 17.499607 -2.9779994
35.640465 37.113625 -4.5017686
5.598702 5.8057318 -2.161139
6.5982943 6.8375154 -2.1937227
8.1267262 8.4184113 -2.2744434
10.566564 10.938188 -2.4087782
16.79933 17.377998 -2.9677625
35.767002 36.986149 -4.5014195
5.596056 5.7625914 -2.1523392
6.6207638 6.8130412 -2.1932726
8.1505909 8.3843603 -2.2729168
10.577135 10.872916 -2.4025209
16.790649 17.248137 -2.9555755
35.92926 36.895321 -4.5056033
5.6255875 5.7526937 -2.1559627
6.6485968 6.794066 -2.1946225
8.1770554 8.3530569 -2.2721536
10.592911 10.813348 -2.3975151
16.824354 17.162481 -2.9509444
36.04668 36.758289 -4.504209
5.6402135 5.7275152 -2.1538923
6.6695361 6.7680426 -2.1937227
8.2006521 8.3188686 -2.2706273
10.611168 10.756619 -2.3931346
16.870222 17.089518 -2.9485071
36.236359 36.694622 -4.5118785
5.6601706 5.7077932 -2.1538923
6.6862578 6.7378016 -2.1914732
8.2268724 8.2874069 -2.2698641
10.651438 10.722315 -2.3937604
16.900372 17.000973 -2.9433885
36.445721 36.649841 -4.5219884
5.6827917 5.690733 -2.1549275
6.7058091 6.7128367 -2.1905735
8.2488127 8.2516947 -2.2679558
10.677155 10.677159 -2.3915703
16.92577 16.913961 -2.9380264
36.658009 36.606873 -4.5324469
5.6934128 5.6636834 -2.1518216
6.7278166 6.6880155 -2.1901233
8.2663813 8.2146101 -2.2652845
10.711555 10.637042 -2.3909445
16.98612 16.856171 -2.9382701
36.702816 36.409351 -4.5230346
5.7049041 5.6356277 -2.1487157
6.7471862 6.6629276 -2.1892235
8.297802 8.1884604 -2.2660477
10.728492 10.583425 -2.3868773
17.012232 16.770489 -2.9331515
36.741695 36.194313 -4.5122271
5.7300563 5.6210923 -2.1507864
6.7687807 6.6354237 -2.188324
8.3179197 8.1512032 -2.2637579
10.736163 10.513623 -2.3799942
16.996965 16.633051 -2.9199896
36.967518 36.163357 -4.5244288
5.7524114 5.6037507 -2.1518216
6.7865543 6.6088662 -2.186974
8.3491383 8.124855 -2.2645214
10.756802 10.464197 -2.3768656
16.980867 16.507408 -2.9078028
37.270725 36.206253 -4.5460434
5.7640204 5.5779285 -2.1492336
6.799778 6.5756521 -2.1838248
8.3633299 8.0848446 -2.2610867
10.793265 10.426582 -2.3768656
16.98411 16.395645 -2.8985407
37.204197 35.902603 -4.5233827
5.7834549 5.557776 -2.1492336
6.8243594 6.5557656 -2.1847248
8.3872509 8.0515251 -2.2599418
10.819234 10.382523 -2.3749883
16.986803 16.289774 -2.8897662
37.522064 35.957233 -4.5467405
5.7906756 5.5278931 -2.1450922
6.8500228 6.5345922 -2.1856244
8.4025402 8.012826 -2.2568891
10.839682 10.3297 -2.3715467
17.009066 16.197519 -2.8839164
37.676208 35.853516 -4.5502272
5.8108959 5.5066333 -2.1450922
6.8642983 6.5026054 -2.182925
8.4375563 7.9873714 -2.2584155
10.860246 10.273614 -2.3677924
17.033775 16.108038 -2.8785541
37.746113 35.669769 -4.5436034
5.8314905 5.4876375 -2.1456099
6.8781466 6.4680591 -2.1797757
8.4625244 7.955183 -2.2576523
10.904674 10.243764 -2.3696697
17.020435 15.983256 -2.8668547
37.928516 35.592319 -4.5505757
5.8482442 5.4669518 -2.1450922
6.8952866 6.4412217 -2.178426
8.4745073 7.9136786 -2.2538359
10.92992 10.199457 -2.3677924
17.023989 15.880692 -2.8585675
38.08712 35.50441 -4.5554562
5.8550172 5.4370103 -2.1409512
6.9208932 6.4222989 -2.1797757
8.4876852 7.870697 -2.2500198
10.954988 10.155101 -2.3659151
17.044371 15.78879 -2.8527179
38.219604 35.37936 -4.5565023
5.8663821 5.4076595 -2.1378453
6.9501238 6.4021659 -2.1815755
8.5193624 7.8421965 -2.250783
10.980514 10.104172 -2.3634121
17.064131 15.691281 -2.8463807
28.056101 25.780853 -3.3335328
27.991007 25.702999 -1.9915926
28.02079 25.721363 -0.66392446
5.8890119 5.388731 -2.1388805
6.9735408 6.3766508 -2.1815755
8.5437899 7.8097591 -2.2500198
11.002887 10.050538 -2.3602834
17.077549 15.588481 -2.8390684
27.998751 25.54846 -3.3161016
27.963957 25.498829 -1.9833235
28.015827 25.53717 -0.66169053
5.9120774 5.3720384 -2.1404335
6.9802213 6.3403888 -2.1770763
8.5709972 7.7798901 -2.2500198
11.04493 10.021963 -2.3621607
17.073263 15.481096 -2.8298063
27.963749 25.338188 -3.3014593
27.924015 25.293335 -1.9745311
27.97434 25.321125 -0.65861893
5.9255581 5.3485179 -2.1388805
6.9994159 6.3133764 -2.1761765
8.5938349 7.7487922 -2.2492564
11.062234 9.9674826 -2.3584063
17.094748 15.392178 -2.8244441
27.929132 25.1387 -3.2875144
27.899284 25.094189 -1.966576
27.964396 25.135101 -0.65631521
5.9384365 5.3226457 -2.1368101
7.0257678 6.2928038 -2.1775262
8.6032782 7.7030349 -2.2446773
11.094018 9.9261694 -2.3577805
17.095095 15.284783 -2.8156698
27.921648 24.956076 -3.2763586
27.891369 24.911507 -1.9598771
27.956474 24.95212 -0.65408128
5.9512062 5.2967477 -2.1347394
7.0418682 6.2630591 -2.1757267
8.6271782 7.6703496 -2.2439139
11.113834 9.8742619 -2.3546519
17.097878 15.180202 -2.8073823
27.901306 24.763229 -3.2638083
27.885521 24.731823 -1.9533874
27.946302 24.777018 -0.65191716
5.9667654 5.2733822 -2.1337044
7.0479894 6.2267747 -2.1712275
8.6465435 7.6336899 -2.2420058
11.134666 9.8268976 -2.3521488
17.109409 15.089286 -2.8010452
27.876961 24.568209 -3.2509093
27.862473 24.546801 -1.9460604
27.906536 24.568327 -0.64898515
5.9900289 5.2586627 -2.1357749
7.0667543 6.199563 -2.1703279
8.6703358 7.6036773 -2.2416241
11.162956 9.7827644 -2.3508976
17.138081 15.008548 -2.7971454
27.863604 24.384144 -3.2394047
27.83074 24.346811 -1.9378959
27.877716 24.370733 -0.64633238
6.0078044 5.2354045 -2.135257
7.0898228 6.176136 -2.1707778
8.6922216 7.5666933 -2.2400978
11.189793 9.7340088 -2.3490202
17.136444 14.901736 -2.7883708
27.849272 24.200499 -3.2279
27.817238 24.155602 -1.9307783
27.85689 24.18153 -0.64388907
6.0172791 5.2068152 -2.1321514
7.1138844 6.1513844 -2.1712275
8.7170982 7.5350199 -2.2397161
11.208755 9.6819735 -2.3458915
17.148869 14.802513 -2.7815461
27.867214 24.04586 -3.2202303
27.804575 23.974886 -1.9240792
27.816935 23.977081 -0.64102691
6.025157 5.176971 -2.1285279
7.1327677 6.1264892 -2.1707778
8.7388716 7.5007153 -2.2385712
11.237805 9.6421757 -2.3452659
17.161688 14.714557 -2.7756963
27.820869 23.836946 -3.2052395
27.789877 23.802008 -1.9175897
27.836657 23.825212 -0.63956088
6.048171 5.1619773 -2.1305985
7.1452112 6.093967 -2.1680782
8.7532415 7.4627767 -2.2358999
11.247339 9.5823889 -2.34026
17.164583 14.613379 -2.7678969
24.667959 20.994068 -2.8339562
27.772381 23.61945 -1.9106814
27.834318 23.655388 -0.6376062
6.0573111 5.133338 -2.1274927
7.1500807 6.0551372 -2.1631293
8.7702494 7.4245629 -2.2336102
11.280713 9.5430784 -2.34026
17.176069 14.520057 -2.7615597
27.766159 23.447615 -1.9046103
27.800581 23.460064 -0.63495344
