# .PCD v0.7 - Point Cloud Data file format
VERSION 0.7
FIELDS x y z
SIZE 4 4 4
TYPE F F F
COUNT 1 1 1
WIDTH 1554
HEIGHT 1
VIEWPOINT 0 0 0 1 0 0 0
POINTS 1554
DATA ascii
4.8612728 8.3024292 -2.2211666
8.666358 14.795122 0.89860845
6.0301447 10.294604 -2.3190925
6.9970837 11.935784 -2.1913342
8.6198168 14.692123 -2.0915217
8.6207962 14.68792 -1.4900146
8.639924 14.708745 -0.89400291
8.6556034 14.723668 -0.29812202
4.1276002 6.9988947 -2.177186
8.7264776 14.791003 0.29976252
4.8882413 8.2820549 -2.2202671
8.72756 14.786941 0.89986449
6.0660458 10.27349 -2.3190925
7.0397067 11.91299 -2.1916471
8.6852007 14.685865 -2.0949342
8.6973734 14.700608 -1.4943722
8.7105532 14.711149 -0.89599168
8.7227221 14.725855 -0.29875028
4.1500292 6.9811234 -2.1761506
8.7999983 14.803239 0.30060026
4.9216533 8.2758493 -2.2229664
8.8005714 14.792427 0.90206259
6.089819 10.23201 -2.3145132
7.0761395 11.884489 -2.1907084
31.112658 52.23341 7.4649854
8.7561989 14.694507 -2.1002965
8.7649679 14.697537 -1.4971614
8.7766819 14.711342 -0.89777112
8.7853527 14.714201 -0.29913425
4.1642256 6.9524069 -2.1714919
8.8701229 14.803304 0.30122852
4.9535193 8.2636328 -2.2243161
8.8696117 14.790739 0.90384203
6.1247287 10.213442 -2.3148949
7.1114855 11.849553 -2.1888313
30.724619 51.174831 7.3289795
8.8227739 14.689375 -2.1039524
30.939966 51.492779 9.514658
8.8187866 14.676932 -1.4980329
8.8547382 14.725121 -0.90049255
8.8624353 14.72628 -0.30000687
4.185472 6.932868 -2.169939
8.9351854 14.794502 0.30168229
4.9702396 8.2262764 -2.2189171
8.9418535 14.793872 0.90593553
6.1562829 10.185278 -2.3133683
7.1456451 11.812826 -2.1866412
30.732477 50.785336 7.2885184
8.8986721 14.699242 -2.1098022
31.068346 51.29998 9.4990149
8.9019556 14.69889 -1.5034364
8.930934 14.735112 -0.90300471
8.9386806 14.736288 -0.30084458
4.2156734 6.9281163 -2.1730449
9.0023661 14.788844 0.30220586
4.9968996 8.2055473 -2.2180173
8.9986324 14.771099 0.90645891
6.1856689 10.153668 -2.3110785
7.184782 11.784437 -2.1860156
8.9830122 14.722319 -2.1176019
8.9978514 14.740851 -1.5109318
33.05442 54.130608 12.32855
9.0187531 14.763503 -0.90666825
9.0244827 14.761299 -0.30199644
4.2418494 6.9166532 -2.1740801
9.0685797 14.781193 0.30269456
5.0265293 8.1897163 -2.2184672
9.0658102 14.765129 0.9080289
6.2149081 10.121977 -2.308789
7.2269115 11.760965 -2.1863284
30.5977 49.735836 9.2487192
9.0586519 14.724624 -1.5125006
9.0911779 14.765944 -0.90876162
9.0958824 14.762056 -0.30265963
4.2619066 6.8952298 -2.1720095
9.1432467 14.786871 0.30346245
5.0581636 8.1770906 -2.2198169
9.1404209 14.770757 0.91033173
6.2419405 10.086864 -2.3057361
7.2627172 11.727272 -2.1847639
33.428806 53.957195 7.7935452
9.2696218 14.956216 -2.1604998
9.120491 14.709848 -1.5142438
9.1584587 14.75958 -0.91033173
9.1579103 14.747203 -0.30300871
4.2849264 6.8786726 -2.1714919
9.2096167 14.778621 0.30395111
5.0804935 8.1494617 -2.2171178
9.2130594 14.772655 0.9124251
6.273994 10.060019 -2.3045912
7.2983828 11.693468 -2.1831996
9.3575325 14.981009 -2.168787
9.1865673 14.701574 -1.5166842
9.2236862 14.749536 -0.91169238
9.2188759 14.730403 -0.30332282
4.3099403 6.8653078 -2.1720095
9.2643423 14.751462 0.30405584
5.1068296 8.1283808 -2.2162178
9.280057 14.770776 0.91420454
6.3048949 10.031406 -2.3030648
31.281096 49.750526 5.1414914
7.3359933 11.66291 -2.182261
34.016125 54.058529 7.8422933
9.418232 14.961689 -2.1707368
9.2569294 14.699772 -1.5198219
9.2868347 14.735833 -0.91284388
9.2911329 14.736968 -0.30409074
4.3318148 6.8469558 -2.1709743
9.339941 14.762903 0.30492842
5.1285481 8.1031666 -2.2139683
9.3465214 14.761914 0.91566998
6.3314714 9.996067 -2.3000119
7.375689 11.640185 -2.1825738
9.5039444 14.987373 -2.179024
9.328474 14.699329 -1.5231338
4.3555303 6.8341856 -2.1714919
9.4150562 14.767312 0.30569634
5.1568041 8.0852137 -2.2139683
9.4151802 14.756142 0.91734481
6.3614097 9.9700546 -2.2988667
7.4152155 11.612701 -2.182261
9.5818462 14.994258 -2.1848738
9.4050732 14.711959 -1.527666
9.4299707 14.73958 -0.91703075
9.4444742 14.750892 -0.30573127
4.3772726 6.8156877 -2.1704566
9.4946547 14.778097 0.30660388
5.1860476 8.0688047 -2.2144182
9.4871569 14.7551 0.91933346
6.3929901 9.9428329 -2.2977221
7.4503593 11.578443 -2.1806967
9.7179623 15.090897 -2.2038856
9.4617615 14.687414 -1.5285373
9.5116701 14.753573 -0.91996151
9.5132504 14.744721 -0.30628973
4.3968406 6.7938776 -2.168386
9.5592194 14.765011 0.30702275
5.2141795 8.0506544 -2.2144182
9.5527277 14.743684 0.92069423
6.4297957 9.9237499 -2.2984853
7.4864297 11.545737 -2.1794453
9.8278465 15.145141 -2.2168036
9.527072 14.676024 -1.5308034
9.5892229 14.76048 -0.92247367
9.5821047 14.738244 -0.3068482
4.4236937 6.7833447 -2.169939
9.645668 14.785143 0.30813968
5.2401218 8.0291386 -2.2135184
9.6347027 14.757077 0.92362505
6.456882 9.88974 -2.295814
7.5202055 11.50961 -2.177568
9.8936939 15.130677 -2.2197285
9.6044235 14.682693 -1.534987
9.6560068 14.750309 -0.92393911
9.6707487 14.761582 -0.30803499
4.4472227 6.7702532 -2.1704566
9.7144089 14.783159 0.30876797
5.2549458 7.993804 -2.2085695
9.7099228 14.765099 0.92613721
6.487483 9.864994 -2.2950509
7.5550776 11.479657 -2.1766293
9.9470882 15.102763 -2.2204597
9.6727953 14.680706 -1.5381246
9.7202568 14.741553 -0.92540449
9.7251501 14.73778 -0.30820951
4.4686975 6.7514644 -2.1694212
9.7769899 14.765835 0.30911702
5.2871199 7.9819117 -2.2103691
9.7790575 14.757751 0.92781192
6.5164585 9.8341036 -2.2931426
7.5994668 11.459802 -2.177881
9.9931641 15.058022 -2.218997
9.7438126 14.676732 -1.541262
9.7937641 14.740801 -0.92749786
9.7931471 14.728718 -0.30873308
4.4900918 6.7326117 -2.168386
9.8440151 14.754905 0.30960572
5.3127847 7.9601669 -2.2094693
9.8903971 14.813223 0.93346417
6.5387526 9.7933378 -2.2889447
7.6339331 11.424994 -2.1763165
9.8160315 14.674098 -1.544574
9.8696003 14.743042 -0.92980069
9.8567467 14.712714 -0.30911702
4.5081801 6.7088795 -2.1657977
9.9356251 14.780193 0.31086224
5.3437991 7.9464254 -2.2108188
6.5805717 9.7818546 -2.2916162
7.6693525 11.391724 -2.175065
10.093608 14.981304 -2.2180221
9.8783264 14.656269 -1.5463171
9.9522772 14.754859 -0.93273151
9.933773 14.716342 -0.30991983
4.5348191 6.6979017 -2.1673508
10.002852 14.768602 0.31135091
5.3649483 7.9180436 -2.2081196
6.6124716 9.7555761 -2.290853
7.7024193 11.355073 -2.1731877
10.148067 14.949265 -2.2185097
9.9641275 14.672791 -1.5517209
10.010454 14.729944 -0.93335956
10.005328 14.711337 -0.31054813
4.5581703 6.6820326 -2.1673508
10.079145 14.769933 0.31211883
5.3837667 7.8863902 -2.2045202
6.6475897 9.7340574 -2.2912345
7.7475853 11.33627 -2.1747522
10.188986 14.897363 -2.2160723
10.040041 14.674093 -1.5555557
10.073097 14.711386 -0.93440622
10.088259 14.722517 -0.31152546
4.5847516 6.6708555 -2.1689036
10.144225 14.75444 0.3125377
5.4090524 7.8643394 -2.2036204
6.672627 9.6978521 -2.2881815
7.7792649 11.297769 -2.1725621
8.3689079 12.145014 -1.8109785
10.108159 14.663565 -1.5581703
10.156149 14.722167 -0.9373371
10.157475 14.718605 -0.31215376
4.6014094 6.6452827 -2.1657977
10.218147 14.756887 0.31330562
5.4362097 7.8479619 -2.2040703
6.6930141 9.6551409 -2.2836022
7.8110552 11.263795 -2.1709976
10.330891 14.886379 -2.2248468
10.193384 14.677283 -1.5633998
10.220858 14.711376 -0.93880254
10.227057 14.709325 -0.31271222
4.622314 6.6284037 -2.1652801
10.299346 14.763766 0.31421313
5.4613428 7.8257408 -2.2031708
6.7306123 9.6409435 -2.2855103
7.8491979 11.234839 -2.1706848
10.382794 14.850224 -2.2248468
10.256842 14.664626 -1.5656657
10.308801 14.727966 -0.94215196
10.296687 14.69975 -0.31327069
4.6432042 6.6090655 -2.1642449
10.357722 14.737539 0.31442255
5.4841418 7.8002539 -2.201371
6.7597094 9.6109657 -2.2839837
7.8713098 11.183144 -2.1659918
10.407138 14.77494 -2.218997
10.329769 14.65968 -1.5689776
10.376266 14.714742 -0.9436174
10.380222 14.709463 -0.31424803
4.6695929 6.5975494 -2.1657977
10.441446 14.746998 0.31539989
5.5034533 7.7699299 -2.1982217
6.7966251 9.5921154 -2.2851286
7.9125867 11.15882 -2.1666176
10.440257 14.712626 -2.2150974
10.412022 14.667397 -1.5736841
10.455324 14.717511 -0.9461295
10.454433 14.710818 -0.31501594
4.694839 6.5843544 -2.1668332
10.504228 14.731827 0.31581876
5.5291882 7.7516379 -2.1982217
6.8243608 9.5603437 -2.2832205
7.9518414 11.135736 -2.1672435
8.7138968 12.193915 -1.8402272
10.479386 14.653648 -1.5761244
10.508718 14.68926 -0.94654816
10.519692 14.693744 -0.31543481
4.7132659 6.5640421 -2.1652801
10.588256 14.740543 0.31679606
5.5550737 7.7307091 -2.1977718
6.8434196 9.5201263 -2.2790227
7.9802794 11.093481 -2.1644275
10.461303 14.531664 -2.198523
10.544446 14.636379 -1.5782162
10.594964 14.701094 -0.94968832
10.610685 14.712078 -0.31662154
4.7338963 6.542026 -2.1637273
10.636126 14.698634 0.31669134
5.5854549 7.7160058 -2.1991215
6.8828754 9.501338 -2.2805493
8.018569 11.060957 -2.1638019
10.483992 14.456493 -2.1926734
10.634089 14.652699 -1.5839685
10.672246 14.694486 -0.95178181
10.678428 14.697602 -0.31711021
4.7589812 6.5285826 -2.1647625
10.708784 14.685403 0.31724986
5.6102514 7.6907601 -2.1977718
6.9113731 9.4709091 -2.2790227
8.0454779 11.016948 -2.1606731
10.548623 14.433996 -2.1951108
10.716914 14.658918 -1.5886748
10.758858 14.705497 -0.9549219
10.761553 14.703811 -0.31805265
4.778307 6.5072637 -2.1632097
10.795286 14.701394 0.3183668
5.6288033 7.6626883 -2.1950724
6.9385748 9.4388189 -2.2771149
8.0772896 10.98384 -2.1594217
10.587013 14.386146 -2.1931608
10.79874 14.663127 -1.5932069
10.835992 14.708332 -0.95743406
10.849604 14.716049 -0.31913471
4.7987123 6.4898267 -2.1626918
10.872705 14.698989 0.31913471
5.655519 7.642992 -2.1950724
6.9686661 9.4141808 -2.2767329
8.1155834 10.955576 -2.1594217
10.647803 14.363457 -2.1953545
10.860365 14.644837 -1.5951242
10.893216 14.678439 -0.95795745
10.897156 14.678381 -0.31909978
4.8190303 6.4699373 -2.1616566
10.954839 14.707755 0.32011205
5.6808319 7.624197 -2.1950724
6.9956207 9.3819275 -2.2748251
8.1518669 10.928606 -2.1594217
10.694192 14.326476 -2.1951108
4.8381395 6.4508314 -2.1606214
5.7097483 7.607439 -2.1959722
10.970231 14.610982 0.95753878
7.0207982 9.3508291 -2.2729168
8.1804695 10.88745 -2.1569188
10.742946 14.287468 -2.1948669
10.947959 14.549563 -1.5930327
10.964055 14.565648 -0.95544529
10.958451 14.547647 -0.31791306
4.8582554 6.4284329 -2.1590683
10.983698 14.533607 0.31798285
5.7327452 7.5827971 -2.1946225
11.00069 14.545515 0.95575935
7.0419908 9.3078127 -2.268719
8.2203226 10.857393 -2.1569188
10.773568 14.224571 -2.1909673
10.997479 14.509667 -1.5928583
11.028228 14.539691 -0.95638734
11.026091 14.531605 -0.31840172
4.8806663 6.4114342 -2.1590683
11.07687 14.545754 0.31913471
5.7569537 7.5570846 -2.1932726
11.075597 14.538804 0.95785272
7.0708714 9.2784882 -2.2675743
8.2569704 10.827063 -2.1566057
11.079493 14.512367 -1.5973904
11.115294 14.548715 -0.95952755
11.110745 14.537517 -0.31937903
4.9041915 6.3958926 -2.1595864
11.161551 14.556544 0.32018185
5.7796092 7.5348616 -2.192373
11.143306 14.522235 0.9593181
7.1068001 9.2584229 -2.268719
8.2928267 10.799623 -2.1566057
10.859306 14.131698 -2.1882861
11.151949 14.50203 -1.600528
11.181742 14.535523 -0.96109754
11.187043 14.531918 -0.32011205
4.9182892 6.3704209 -2.1564806
11.239191 14.552311 0.32094976
5.8070688 7.516181 -2.1928227
11.225591 14.52946 0.96224904
7.1338644 9.2301435 -2.2675743
8.3328953 10.773734 -2.1572316
10.896422 14.078004 -2.1858487
11.221931 14.493329 -1.6036657
11.265438 14.539033 -0.96392375
11.264571 14.532675 -0.32094976
4.9333825 6.3440623 -2.1533747
11.308252 14.541799 0.32154316
5.8319635 7.4968815 -2.1928227
11.300768 14.521713 0.96434242
7.166038 9.2051868 -2.2675743
8.371006 10.749156 -2.1578572
10.950364 14.051188 -2.1873109
11.294505 14.48235 -1.6068033
11.339386 14.534667 -0.96612185
11.339838 14.524789 -0.32164785
4.9625597 6.333539 -2.1559627
11.386212 14.526597 0.32217142
5.8522878 7.4636993 -2.1896734
11.390892 14.527344 0.96748257
7.2033658 9.1834917 -2.268719
8.4036779 10.706059 -2.1556673
10.995667 14.003151 -2.1860926
11.375827 14.476885 -1.6108123
11.423511 14.527127 -0.96852928
11.426383 14.525563 -0.32259029
4.9811416 6.3140159 -2.1549275
11.467767 14.531144 0.32311383
5.8600993 7.4228401 -2.1833749
11.463752 14.520845 0.969576
7.222827 9.14569 -2.2652845
8.450161 10.692079 -2.158483
11.046964 13.972841 -2.1870675
11.45468 14.478142 -1.6151702
11.497653 14.522051 -0.97072738
11.510499 14.533051 -0.32360253
5.0068598 6.3035131 -2.1569982
11.55446 14.541567 0.32419589
5.8871055 7.4064174 -2.1842747
11.536749 14.508878 0.9714601
7.2534885 9.1188841 -2.2649028
8.4917135 10.671733 -2.1600473
11.079597 13.914003 -2.1838987
11.547361 14.491049 -1.6210967
11.575673 14.51618 -0.97303021
11.583602 14.520923 -0.32423082
5.0214796 6.2745628 -2.1533747
11.632672 14.530345 0.32489401
5.9239593 7.3969584 -2.1878741
11.629808 14.516379 0.97480965
7.2733545 9.075388 -2.260705
8.541893 10.654407 -2.162863
11.124307 13.865562 -2.1826801
11.629083 14.484365 -1.625106
11.66258 14.515691 -0.97585636
11.66305 14.511103 -0.32496381
5.0395937 6.2500982 -2.151304
11.713468 14.521856 0.32566193
5.9547043 7.3797445 -2.1892235
11.715529 14.519213 0.97774047
7.302525 9.0468864 -2.2599418
8.5883369 10.632245 -2.1647403
11.165156 13.81738 -2.1812177
11.7134 14.485509 -1.6298124
11.749603 14.519926 -0.97889179
11.74509 14.509155 -0.32583642
5.0590734 6.231854 -2.1507864
5.9680834 7.3463464 -2.1851747
11.786278 14.508188 0.97962451
7.3349643 9.0256653 -2.260705
8.6285305 10.609838 -2.1659918
11.219687 13.791054 -2.1829238
11.784012 14.474402 -1.6329499
11.807783 14.493267 -0.97972924
11.823456 14.507332 -0.32667413
5.0809317 6.2165394 -2.151304
5.9825439 7.314446 -2.1815755
11.8672 14.504059 0.98213667
7.3573885 8.9921799 -2.2584155
8.6849442 10.607148 -2.1713107
11.251395 13.731854 -2.1797554
11.864787 14.475306 -1.637482
11.887443 14.49264 -0.982346
11.903209 14.50152 -0.32747695
5.1038303 6.2002563 -2.1518216
6.0043173 7.2890096 -2.1802256
11.948244 14.499537 0.98464876
7.3837409 8.9603806 -2.2568891
8.7432747 10.602682 -2.1766293
11.284101 13.67412 -2.1768305
11.939332 14.463002 -1.6407939
11.992661 14.517263 -0.98684686
11.998348 14.513828 -0.32869864
5.1205125 6.1764531 -2.1497512
6.0322146 7.2710042 -2.1811254
12.031951 14.497698 0.98737025
7.4036913 8.9209538 -2.2534544
8.7991657 10.594889 -2.1813223
11.330493 13.633123 -2.1765866
12.024123 14.457433 -1.6451519
12.075193 14.5137 -0.98946363
12.073252 14.501053 -0.32936183
5.1369219 6.1502309 -2.1471629
6.063808 7.2573791 -2.1833749
12.11962 14.50006 0.9904058
7.4312997 8.8877354 -2.2519279
8.8518801 10.579235 -2.1847639
11.372919 13.587397 -2.1756117
12.119284 14.46884 -1.6512526
12.147558 14.492302 -0.99103373
12.157199 14.498665 -0.33026937
5.1546297 6.1278253 -2.1456099
12.208234 14.508026 0.33096743
6.0815802 7.2246709 -2.1802256
12.20232 14.495862 0.99302256
7.4610152 8.8602362 -2.2515461
8.9091244 10.572438 -2.18977
11.42264 13.545625 -2.1756117
12.195413 14.456901 -1.6547388
12.238007 14.497125 -0.99427861
12.241277 14.495866 -0.33117688
5.1772332 6.1112733 -2.1461277
12.287296 14.504084 0.33180517
6.0903873 7.1866221 -2.1748266
12.283839 14.489745 0.99553466
7.490622 8.8326464 -2.2511647
8.9773626 10.581998 -2.1979043
11.462361 13.501616 -2.1746368
12.290956 14.467385 -1.6608399
12.311886 14.486897 -0.99637198
12.325489 14.49265 -0.33208442
5.1937108 6.0896597 -2.1445746
12.3716 14.500654 0.33271268
6.1255555 7.1771774 -2.178426
12.368065 14.486268 0.99825615
7.5084009 8.7943182 -2.24773
9.0334921 10.573127 -2.2025976
11.499099 13.449454 -2.1726868
12.360806 14.447103 -1.6634544
12.396142 14.483286 -0.99909347
12.412423 14.492064 -0.33306172
5.2159948 6.0705843 -2.1445746
12.472963 14.516536 0.33407396
6.1429529 7.146884 -2.1757267
12.449812 14.47935 1.0007683
7.5405817 8.7667418 -2.24773
9.1018257 10.574379 -2.2097936
11.545973 13.409235 -2.1726868
12.454084 14.453674 -1.6692067
12.4961 14.492206 -1.0028617
12.487754 14.477415 -0.33372495
5.2295704 6.0435734 -2.1414688
12.547029 14.494911 0.33463246
6.1754818 7.1316876 -2.1779761
12.540805 14.482611 1.0040131
7.5711398 8.7403641 -2.24773
9.1529121 10.558964 -2.2132351
11.58724 13.357826 -2.1712244
12.525351 14.434193 -1.6719956
12.579348 14.486201 -1.0054785
12.580174 14.482048 -0.33484188
5.2493672 6.0238242 -2.1409512
12.627875 14.490909 0.33550507
6.187572 7.0979509 -2.1739271
12.626729 14.479387 1.0068393
7.5925703 8.7035246 -2.2450588
9.2112541 10.555346 -2.2188668
11.632783 13.32082 -2.1714683
12.620238 14.441388 -1.6779224
12.662812 14.485003 -1.0083046
12.67147 14.484701 -0.33592394
5.2680359 6.0049353 -2.1404335
12.720585 14.494839 0.336622
6.2097411 7.0733786 -2.1730273
12.71804 14.481753 1.010084
7.6252718 8.6827297 -2.2462037
9.2702131 10.54835 -2.2241855
11.675274 13.275662 -2.1707368
12.714005 14.446607 -1.6836746
12.748928 14.481192 -1.0111308
12.757643 14.480895 -0.33686635
5.2976904 5.9942679 -2.1435394
12.810837 14.495296 0.33766916
6.229229 7.0458207 -2.1712275
12.789687 14.461205 1.0117588
7.6440415 8.6400146 -2.2423875
9.3467836 10.557196 -2.2332587
11.71102 13.222937 -2.168787
12.798714 14.440909 -1.6882067
12.835052 14.471719 -1.0137476
12.843943 14.476666 -0.33780879
5.3121552 5.9685273 -2.1409512
12.899777 14.488572 0.33861157
6.2550135 7.0229406 -2.1712275
12.885258 14.467179 1.0153177
7.6663122 8.6044884 -2.2400978
9.4033003 10.546619 -2.2379518
11.751472 13.171041 -2.1673245
12.878235 14.428844 -1.6920416
12.92274 14.468539 -1.0166783
12.922379 14.463055 -0.33854178
5.3213544 5.9369998 -2.1362925
12.979782 14.481457 0.33944932
6.2821722 7.0065103 -2.1725771
12.978352 14.469694 1.0186671
7.7002363 8.582058 -2.2412426
9.4659338 10.546247 -2.2445219
11.795082 13.132001 -2.1673245
12.971138 14.431222 -1.6976196
13.013378 14.473137 -1.0200279
13.012908 14.462457 -0.33958891
5.3410144 5.9193192 -2.1362925
13.061073 14.470198 0.3402521
6.301363 6.9787579 -2.1707778
13.085011 14.486549 1.0230633
7.7194433 8.5462742 -2.2385712
9.5199022 10.532199 -2.2485893
11.835526 13.084857 -2.1663496
13.048328 14.420634 -1.7014544
13.102699 14.470553 -1.0230633
13.10494 14.462879 -0.34067097
5.3720336 5.9120812 -2.1404335
13.149162 14.465954 0.34122944
6.3165092 6.9466252 -2.1676283
13.191941 14.502844 1.0274596
7.757153 8.5279922 -2.2408609
9.585865 10.531039 -2.2554724
11.867758 13.02879 -2.1639123
13.136166 14.416232 -1.7063351
13.188117 14.463102 -1.0257849
13.19983 14.465789 -0.34182283
5.3900313 5.8904419 -2.1393983
13.242788 14.467165 0.3423464
6.344666 6.9288468 -2.168978
7.7815681 8.4950743 -2.2393346
9.6546001 10.532464 -2.2629812
11.910485 12.984356 -2.1634247
13.229509 14.417269 -1.711913
13.253386 14.433159 -1.0269363
13.262412 14.432886 -0.34213698
5.4053249 5.8659072 -2.1373277
13.325733 14.456141 0.34318414
6.3622108 6.8994937 -2.1667287
7.7965341 8.4519844 -2.2351367
9.7167673 10.526275 -2.2689257
11.955733 12.942703 -2.1634247
13.314915 14.409043 -1.7164451
13.379621 14.468928 -1.0327979
13.367041 14.445209 -0.34353316
5.4168658 5.8394504 -2.1342218
13.426643 14.469042 0.34454539
6.3877048 6.8812151 -2.1676283
7.8325372 8.4347124 -2.2374265
9.7771664 10.521491 -2.2748702
11.99588 12.900081 -2.1629374
13.403333 14.408578 -1.7216746
13.458822 14.458106 -1.0352052
13.458491 14.447621 -0.34465012
5.4372149 5.8205075 -2.1342218
13.512571 14.460069 0.34545293
6.4076948 6.8546028 -2.1662786
7.8552256 8.4001522 -2.2355182
9.8448801 10.520469 -2.2820661
12.038127 12.855228 -2.1624498
13.502585 14.414044 -1.7279496
13.552923 14.457664 -1.0385549
13.55809 14.453061 -0.3459067
5.453527 5.7972732 -2.1326692
13.610924 14.463785 0.34667459
6.4235673 6.8236818 -2.1635792
7.8871894 8.3755417 -2.2362814
9.9086361 10.514795 -2.2883236
12.08293 12.813125 -2.1624498
13.600667 14.417553 -1.7340508
13.638958 14.448025 -1.0412763
13.653778 14.453614 -0.34705856
5.4803715 5.7852139 -2.135257
13.702598 14.459728 0.34772176
6.4419866 6.7955594 -2.1617796
7.9042172 8.3351393 -2.232847
9.971117 10.507365 -2.2942681
12.120746 12.763676 -2.161231
13.681103 14.401764 -1.7378855
13.736092 14.449547 -1.0448351
13.741358 14.444986 -0.34800097
5.4938669 5.7590585 -2.1326692
13.802684 14.463891 0.34897831
6.4656672 6.7730327 -2.1617796
7.9278426 8.301816 -2.2313204
10.045946 10.512486 -2.3030286
12.163857 12.71985 -2.1609874
13.773983 14.398556 -1.7432891
13.82236 14.439019 -1.0475566
13.829043 14.435925 -0.34894341
5.5018926 5.7273064 -2.1280103
13.889111 14.453115 0.34988585
6.491972 6.7532296 -2.1626794
7.9526935 8.269846 -2.2301757
10.101759 10.497279 -2.3074086
12.209551 12.678751 -2.161231
13.871161 14.39917 -1.7492157
13.928113 14.448208 -1.0517435
13.921004 14.430736 -0.34999055
5.5245366 5.7108445 -2.1290457
13.972856 14.439028 0.35072356
6.5168638 6.731926 -2.1631293
7.9815097 8.2420368 -2.2301757
10.172709 10.497416 -2.3152304
12.2565 12.638901 -2.1617186
13.961573 14.392131 -1.7542707
14.017418 14.439624 -1.0546743
14.024237 14.436562 -0.35131696
5.5471349 5.6942911 -2.1300809
14.081785 14.450319 0.35218954
6.5294361 6.6979785 -2.1595302
8.0047512 8.2085009 -2.2286491
10.229978 10.483055 -2.3199234
12.292227 12.587517 -2.1602564
14.05627 14.388926 -1.7598487
14.106833 14.430593 -1.057605
14.129085 14.443266 -0.35267821
5.5696797 5.6776552 -2.1311162
14.169961 14.439609 0.35313201
6.547317 6.6695809 -2.1577303
8.0223446 8.1693087 -2.2255962
10.278972 10.45996 -2.3227391
12.326933 12.539615 -2.1590376
14.172084 14.406525 -1.7680414
14.193546 14.418272 -1.0603266
14.202156 14.421983 -0.35330653
5.5789762 5.6495309 -2.1274927
14.266951 14.442335 0.35435367
6.5707703 6.6492176 -2.1581805
8.039732 8.132885 -2.2229249
10.314993 10.427217 -2.3230519
12.362866 12.493021 -2.1580625
14.250627 14.39059 -1.7718763
14.28767 14.417944 -1.0637807
14.261168 14.386163 -0.35358575
5.5935936 5.6268907 -2.1259398
14.354249 14.434642 0.355331
6.5900331 6.6246285 -2.1572804
8.0652714 8.1047897 -2.2225432
10.331393 10.37476 -2.3189847
12.406404 12.449787 -2.1580625
14.348904 14.394054 -1.7781514
14.4144 14.449666 -1.0696424
14.4003 14.425457 -0.35578477
5.6145692 5.6086946 -2.1264575
14.446995 14.426842 0.35637814
6.6048408 6.5933256 -2.1545811
8.078228 8.0613298 -2.2183454
10.357751 10.328872 -2.3167946
12.446977 12.403598 -2.1575749
14.454107 14.398723 -1.7849497
14.498725 14.433074 -1.0721544
14.529954 14.454082 -0.35773942
5.6299968 5.5849814 -2.1249044
14.54554 14.424202 0.3575649
6.6264334 6.5688567 -2.1541312
8.1021338 8.0289392 -2.2172008
10.386728 10.285701 -2.3152304
12.476084 12.346114 -2.1551375
14.560943 14.404224 -1.7919221
14.614352 14.446969 -1.0769694
14.611622 14.43419 -0.35850734
5.6522126 5.5680051 -2.1259398
14.647098 14.423848 0.35882148
6.6451554 6.5415869 -2.1527817
8.1273136 7.9978518 -2.2164373
10.414115 10.241075 -2.3133533
12.512025 12.295537 -2.153919
14.655192 14.396596 -1.7973257
14.693194 14.423854 -1.0790628
14.69903 14.419511 -0.35941488
5.66471 5.5414848 -2.1233516
14.741674 14.415977 0.35990354
6.6679511 6.5183492 -2.1527817
8.1439505 7.9584546 -2.2133844
10.437082 10.192236 -2.3105373
12.556285 12.253175 -2.1541626
14.756701 14.395432 -1.8036008
14.792076 14.419882 -1.0826217
14.82124 14.443254 -0.36122993
5.6784749 5.5162945 -2.1212809
14.839605 14.415777 0.3611252
6.6937227 6.5002756 -2.1541312
8.1618176 7.9204097 -2.2107131
10.466568 10.153444 -2.3095987
12.596852 12.211466 -2.1541626
14.844064 14.37988 -1.8081329
14.914426 14.442997 -1.0880647
14.920422 14.438714 -0.36241668
5.7036862 5.5041418 -2.1238692
14.935893 14.408312 0.36224213
6.7093558 6.470108 -2.1518817
8.1837969 7.889215 -2.2095683
10.482033 10.097658 -2.3052187
12.630825 12.159158 -2.1527004
14.950533 14.387217 -1.8152797
14.999305 14.424068 -1.0905768
15.028402 14.441973 -0.36381286
5.7214713 5.482861 -2.1233516
15.032296 14.400367 0.36335912
6.7234583 6.4385605 -2.1491826
8.2112875 7.8605976 -2.2095683
10.514359 10.058278 -2.3045928
12.667441 12.109514 -2.1517253
15.059717 14.39138 -1.8224266
15.069781 14.390938 -1.0920422
15.078727 14.389421 -0.36381286
5.7433729 5.4655209 -2.1243868
6.7515421 6.4204211 -2.1509819
8.2272902 7.8210669 -2.2065153
10.543678 10.01607 -2.3033414
12.703878 12.059753 -2.1507504
15.137324 14.364779 -1.8257385
15.167746 14.383603 -1.0954963
15.165148 14.37109 -0.36468551
5.7497807 5.433496 -2.1197281
6.7739077 6.3968196 -2.1509819
8.2416935 7.7801695 -2.2030807
10.55989 9.9615908 -2.299274
12.743013 12.012609 -2.1502628
15.236665 14.358321 -1.831665
15.28766 14.39629 -1.1005206
15.292406 14.390692 -0.36653543
5.7701221 5.4147129 -2.1202457
6.793354 6.3704677 -2.1500821
8.2630739 7.7459803 -2.2015543
10.58451 9.9152136 -2.2970841
12.787763 11.970769 -2.1507504
15.32161 14.337716 -1.8358486
15.393249 14.394679 -1.104498
15.390763 14.382276 -0.36768728
5.787571 5.3932257 -2.1197281
6.8112702 6.3427329 -2.1487324
8.2756872 7.7037187 -2.1977382
10.590132 9.8512955 -2.2908266
12.823658 11.920649 -2.1497755
15.429949 14.338392 -1.842821
15.482921 14.377549 -1.1073242
15.500962 14.384244 -0.36911842
5.8006911 5.3677397 -2.1176574
15.557306 14.391104 0.36992121
6.8233552 6.3096547 -2.1455832
8.3097382 7.6814446 -2.1996462
10.620099 9.8102484 -2.2898879
12.868106 11.87851 -2.1502628
15.537007 14.337143 -1.849619
15.597623 14.382986 -1.1119298
15.606963 14.381536 -0.3704448
5.8250823 5.3526893 -2.1197281
15.657515 14.382708 0.371108
6.8482113 6.2884331 -2.1464829
8.3234816 7.6404448 -2.1962116
10.642635 9.7624331 -2.287385
12.906561 11.830838 -2.1497755
15.654533 14.344735 -1.8576375
15.702226 14.378371 -1.1158028
15.707225 14.372872 -0.37163153
5.8328137 5.3242249 -2.1161046
15.758303 14.379226 0.37236455
6.8690252 6.2656903 -2.1464829
8.3371696 7.6022167 -2.1931586
10.661808 9.7151155 -2.2845693
12.942791 11.785297 -2.1492879
15.747689 14.334323 -1.8630412
15.792669 14.36519 -1.1188382
15.794757 14.357018 -0.37257397
5.8470678 5.2999406 -2.1145515
15.878051 14.387236 0.37400505
6.8937421 6.2442932 -2.1473827
8.3709307 7.5796585 -2.1950669
10.689794 9.6725397 -2.2833178
12.977963 11.734717 -2.1483128
15.84788 14.324694 -1.8689677
15.9109 14.371554 -1.1236531
15.91455 14.364766 -0.3742145
5.8698392 5.2833767 -2.1161046
15.971281 14.370515 0.37501732
6.9053564 6.2110667 -2.1442335
8.3871174 7.5412059 -2.1923954
10.719087 9.6312037 -2.2823792
13.024753 11.694654 -2.1492879
15.968961 14.333162 -1.8773347
16.550377 14.849805 4.3222055
16.020439 14.369274 -1.1278399
16.016708 14.355844 -0.37543616
5.885366 5.2602782 -2.1150692
16.082483 14.369308 0.37644842
6.9211798 6.1817336 -2.1424339
8.4133921 7.5118814 -2.1923954
10.736424 9.5792637 -2.2789376
13.068457 11.651761 -2.1497755
16.062027 14.315782 -1.8823898
16.112265 14.350454 -1.1307708
16.1429 14.367654 -0.37721631
5.9022489 5.2384191 -2.1145515
16.190878 14.364843 0.3778097
6.93397 6.1497765 -2.1397343
8.4307499 7.4746499 -2.1901057
10.760928 9.5338659 -2.2770603
13.088239 11.587654 -2.146363
16.177549 14.317723 -1.8900594
16.204138 14.331184 -1.1337016
16.206446 14.323133 -0.37753049
5.9147 5.2126765 -2.1124811
16.297943 14.358465 0.37913609
6.9568558 6.1268249 -2.1401844
8.4405785 7.4309077 -2.1859078
10.785245 9.4884129 -2.2751832
13.137555 11.549757 -2.1478255
16.279814 14.307194 -1.8961602
16.335106 14.345699 -1.1393539
16.340508 14.340343 -0.37948513
5.9241385 5.1843634 -2.1093752
16.423222 14.367316 0.38088134
6.9767318 6.1012216 -2.1397343
8.4679461 7.402689 -2.1862895
10.806394 9.4403181 -2.2726803
13.186768 11.511658 -2.1492879
16.386692 14.300072 -1.9027841
16.460352 14.35422 -1.1445875
16.453787 14.338388 -0.38095114
5.9465694 5.1674581 -2.1109281
16.515539 14.346624 0.38185865
6.9921026 6.0717187 -2.1379349
8.4877987 7.3679428 -2.1847632
10.813915 9.3805313 -2.2673614
13.211867 11.452558 -2.1468506
16.499752 14.297579 -1.9101051
16.566219 14.345055 -1.1484603
16.570276 14.338435 -0.38248694
5.9572606 5.140358 -2.1083403
16.620033 14.335901 0.38311523
7.0014462 6.0370955 -2.1343358
8.5149555 7.3395495 -2.1851447
10.842101 9.3388615 -2.2664227
13.254777 11.408957 -2.1473379
16.623562 14.303577 -1.9186466
16.664658 14.328806 -1.1518098
16.681423 14.338158 -0.38395295
5.9781022 5.1220436 -2.1093752
16.737331 14.340562 0.38472083
7.0229063 6.0151138 -2.1347857
8.5375423 7.3072267 -2.1843815
10.868505 9.2990065 -2.2654841
13.278955 11.353332 -2.1451445
16.735498 14.298521 -1.9257932
16.774345 14.326649 -1.1561013
16.79221 14.331772 -0.38534915
5.9921141 5.0996861 -2.1083403
16.851254 14.336475 0.38618684
7.0423775 5.9892983 -2.1343358
8.551259 7.2699709 -2.1817102
10.897891 9.2584505 -2.2648585
13.329096 11.315906 -2.1468506
16.837505 14.28936 -1.9320685
16.897367 14.330018 -1.1611257
16.898584 14.320899 -0.38664061
5.9936438 5.0650268 -2.1026461
16.968412 14.334343 0.38772267
7.0602641 5.9621625 -2.1334357
8.5645771 7.2299519 -2.1786571
10.898438 9.1936026 -2.2582881
13.362446 11.264189 -2.1458757
16.955847 14.288269 -1.9399126
17.012981 14.326262 -1.1656265
17.00967 14.31333 -0.38803682
6.0186887 5.050281 -2.1052344
17.070433 14.318723 0.38890943
7.0840192 5.9399877 -2.1343358
8.5792313 7.1911812 -2.1759858
10.912289 9.1402855 -2.2545338
13.401687 11.217473 -2.1458757
17.060625 14.275026 -1.9461877
17.127245 14.320592 -1.1700227
17.137787 14.319261 -0.38981694
6.0333109 5.0267687 -2.1041989
17.166405 14.297445 0.38995659
7.083744 5.8977647 -2.128037
8.6057892 7.1624479 -2.1763675
10.927423 9.0882416 -2.2510922
13.428546 11.160477 -2.1439257
17.180849 14.273951 -1.954206
17.238592 14.311754 -1.1742096
17.267698 14.32574 -0.39163199
6.0582652 5.0118337 -2.1067872
17.302507 14.308796 0.39191124
7.1042871 5.873003 -2.128037
8.6216602 7.1248593 -2.174078
10.989542 9.0752001 -2.2573495
13.456294 11.108303 -2.1424632
17.31971 14.287429 -1.9643161
17.357792 14.308664 -1.1789199
17.379923 14.321815 -0.393098
6.058434 4.9782233 -2.1010931
17.430218 14.317338 0.39372629
7.1327591 5.8568335 -2.1307364
8.6391716 7.0912442 -2.1725514
11.01041 9.0311937 -2.2554724
13.499201 11.068652 -2.1434383
17.417849 14.271591 -1.9700685
17.483961 14.315552 -1.1842581
17.487667 14.313501 -0.39445931
6.0749083 4.9581065 -2.1010931
17.542667 14.312564 0.3951923
7.1476135 5.8294516 -2.1293867
8.6611166 7.0613184 -2.1721697
11.017328 8.975913 -2.2507794
13.531593 11.016453 -2.1424632
17.536167 14.271599 -1.9780867
17.58247 14.299083 -1.1877123
17.585636 14.291463 -0.39554134
6.086174 4.9320073 -2.0990226
17.645355 14.294034 0.39637908
7.1648908 5.8020115 -2.1284869
8.6796064 7.026103 -2.1706433
11.02863 8.9212475 -2.246712
13.577682 10.975393 -2.1436818
17.647867 14.260384 -1.9850591
17.705307 14.296598 -1.192632
17.727238 14.304074 -0.39760074
6.1003432 4.908309 -2.0979872
17.785522 14.305037 0.39840353
7.1759834 5.7696447 -2.1257875
8.7129545 7.0003891 -2.1725514
11.041217 8.8678608 -2.2429576
13.605078 10.91923 -2.1419756
17.790161 14.267907 -1.9951692
17.833952 14.292817 -1.1977608
17.85977 14.308376 -0.39945066
6.12433 4.8907409 -2.1000578
17.897217 14.287166 0.39972994
7.1986094 5.7445149 -2.1262374
8.7293425 6.9610653 -2.1702616
11.084463 8.8359432 -2.2451477
13.634136 10.860637 -2.1402695
17.910921 14.257209 -2.0028389
17.958128 14.284535 -1.2025757
17.977829 14.295098 -0.4009167
6.1316175 4.8598595 -2.0964344
18.037231 14.291019 0.40168458
7.2165599 5.7156744 -2.1253376
8.7412758 6.9208007 -2.1672087
11.096634 8.7793264 -2.2410803
13.680078 10.815521 -2.1412446
18.034052 14.25266 -2.0110316
18.101915 14.296047 -1.2088561
18.10453 14.292967 -0.40262702
6.1439891 4.8348441 -2.0948815
18.147385 14.280588 0.40308076
7.232409 5.6893029 -2.1244378
8.7761841 6.8987408 -2.1698802
11.114812 8.7339401 -2.2388902
13.729923 10.781127 -2.1434383
18.151096 14.242504 -2.018527
18.207373 14.281544 -1.2127289
18.221991 14.282724 -0.40412796
6.1675973 4.8203921 -2.0974696
18.279068 14.28117 0.40489581
7.2353287 5.6508298 -2.119489
8.7897253 6.8623524 -2.1675904
11.126539 8.6805105 -2.235136
13.758082 10.725808 -2.1419756
18.268944 14.237351 -2.026371
18.343786 14.28539 -1.2184858
18.341835 14.278728 -0.40573356
6.1798091 4.79528 -2.0959167
18.405317 14.281775 0.40664107
7.2524891 5.6256084 -2.1190388
8.8198357 6.8364372 -2.169117
11.14902 8.6387224 -2.2338843
13.787293 10.675266 -2.1410007
18.400467 14.236897 -2.0354352
18.449509 14.269696 -1.2223587
18.481749 14.284324 -0.40772313
6.1926174 4.7724004 -2.0948815
18.540596 14.283345 0.40852594
7.2798009 5.606205 -2.1212883
8.8315697 6.7987661 -2.1664453
11.172842 8.5949373 -2.2326329
13.818176 10.622238 -2.1400259
18.534464 14.242575 -2.0450222
18.583162 14.269683 -1.2279063
18.596544 14.269629 -0.40915421
6.1984973 4.7425385 -2.0912578
18.660233 14.271987 0.41006172
7.2977796 5.5795741 -2.1208386
44.641644 34.118774 2.9446306
8.844326 6.7595534 -2.163774
11.1965 8.5510864 -2.2313814
13.885156 10.596818 -2.1446569
18.64743 14.226123 -2.0519948
18.718632 14.27011 -1.2335587
18.724184 14.264009 -0.41086456
6.2103982 4.7173686 -2.089705
18.773638 14.255139 0.41145793
7.3203149 5.5564241 -2.1217382
8.8678665 6.7286415 -2.163774
11.210537 8.5000172 -2.2282526
13.948961 10.568661 -2.1488004
18.78274 14.225907 -2.0614076
18.849556 14.266149 -1.2388968
18.859991 14.263695 -0.41274941
6.2299109 4.697989 -2.0907402
18.915903 14.259333 0.41348243
7.3178787 5.5144162 -2.1154397
8.8897314 6.6964669 -2.1633925
11.227516 8.4513273 -2.2257497
14.000043 10.530648 -2.1509941
18.934202 14.236883 -2.0725634
18.97588 14.257856 -1.2439212
18.992815 14.260212 -0.41456446
6.2416339 4.672739 -2.0891874
19.0296 14.241146 0.41487861
7.3199162 5.4759994 -2.1104908
8.9099092 6.6630411 -2.1626294
52.715164 39.407307 5.7582054
11.252199 8.4085398 -2.2248113
14.03672 10.48171 -2.1509941
19.189747 14.324454 -2.0950499
19.08157 14.233322 -1.2475847
19.103401 14.239244 -0.41589087
6.2625594 4.6543784 -2.0907402
19.194763 14.2605 0.41739175
7.3436823 5.4538989 -2.1118405
8.9283857 6.6283865 -2.1614842
11.279897 8.3680305 -2.2244983
14.090756 10.445662 -2.1536753
19.595003 14.52072 -2.1337469
19.237064 14.245088 -1.254493
19.260693 14.252164 -0.41822946
6.2741036 4.6290507 -2.0891874
19.34421 14.266997 0.41955584
7.3689508 5.4328551 -2.1136403
8.9388237 6.5878639 -2.1584315
11.299498 8.3215742 -2.2226212
14.163908 10.423471 -2.1592813
19.657721 14.455891 -2.1347928
19.376793 14.244091 -1.2603546
19.374784 14.232202 -0.41962567
6.2816744 4.5991774 -2.0860815
19.47295 14.257275 0.42126617
7.4067364 5.4209161 -2.1190388
8.9660816 6.557373 -2.1591947
11.326731 8.2777748 -2.2219954
14.259518 10.41729 -2.1682997
19.711285 14.389528 -2.1351414
19.509544 14.231833 -1.2655882
19.514833 14.23046 -0.42158034
6.2976913 4.5772209 -2.0860815
19.609201 14.246922 0.42308122
7.4234014 5.3914442 -2.118139
8.9825592 6.5214233 -2.1576684
11.339561 8.2265949 -2.2188668
14.353853 10.40574 -2.1768305
19.748489 14.311277 -2.1337469
19.651316 14.230413 -1.2715546
19.652718 14.220974 -0.42343029
6.3104987 4.5529475 -2.0850463
19.733418 14.232199 0.42468688
7.4137235 5.3449821 -2.1100409
9.0068626 6.4911742 -2.1580498
11.358593 8.1800337 -2.2169895
14.438422 10.390359 -2.1841426
19.803167 14.245759 -2.1342697
19.785196 14.222354 -1.2769974
19.806187 14.226946 -0.42566419
6.3310618 4.5342708 -2.0865991
19.893545 14.24238 0.4270604
7.4386759 5.3236055 -2.1118405
9.0214787 6.4539895 -2.1561418
11.380651 8.1357355 -2.2157381
14.532758 10.381433 -2.1929171
19.847914 14.173068 -2.1337469
19.920891 14.214684 -1.2825451
19.924885 14.212286 -0.42719999
6.3342552 4.5031872 -2.0824583
20.015633 14.229635 0.428666
7.4483476 5.2932625 -2.109591
9.031148 6.4133635 -2.1530888
11.394685 8.0888014 -2.2132351
14.625389 10.374532 -2.2016916
19.885885 14.095637 -2.1325266
20.078733 14.227071 -1.2896628
20.069027 14.209674 -0.42922449
6.3396854 4.475471 -2.0793524
20.362539 14.369527 0.43501869
7.4683681 5.2683592 -2.1100409
9.049159 6.381114 -2.1523256
11.416389 8.0444279 -2.2119834
14.741051 10.379414 -2.213635
19.920305 14.015815 -2.1309578
20.343918 14.308558 -1.3034796
20.416271 14.348798 -0.43557718
6.35921 4.454423 -2.0803876
20.487919 14.35113 0.43662432
7.4707513 5.2310786 -2.1055419
9.0740938 6.3490324 -2.1527071
11.410178 7.9776311 -2.2051005
14.835762 10.368834 -2.2224095
20.481392 14.29334 -1.3089224
20.53512 14.325492 -0.43704319
6.3763075 4.4332991 -2.0809052
19.555149 13.591193 0.41568142
7.4802723 5.1969881 -2.1028426
9.0929775 6.3150768 -2.1519439
11.431466 7.9332452 -2.2038488
14.922603 10.34833 -2.2297218
20.616529 14.2809 -1.3143653
20.689426 14.320697 -0.43920726
6.3917427 4.4110155 -2.0809052
20.823824 14.365398 0.4415808
7.4999709 5.1719532 -2.1032922
9.1149645 6.2832999 -2.1519439
11.449327 7.8865728 -2.2019718
15.03222 10.346822 -2.24069
17.901321 12.307844 -1.1385165
17.869772 12.27697 -0.378438
6.4007273 4.3843088 -2.0788348
20.926645 14.328768 0.44269773
7.5179772 5.1457434 -2.1032922
9.1173992 6.2381387 -2.1473646
11.463739 7.8376427 -2.1994689
15.133647 10.342834 -2.2506831
20.945049 14.293098 -1.3289148
20.989607 14.318152 -0.44350055
6.4072428 4.3576283 -2.0762465
21.053413 14.313273 0.44437319
7.5317788 5.1185923 -2.1023927
9.1396589 6.2089748 -2.1477461
11.476594 7.7907057 -2.1969659
15.235207 10.338296 -2.2606766
21.104763 14.299748 -1.3360325
21.133007 14.313505 -0.44552505
6.4232602 4.3374367 -2.0767641
21.200211 14.3105 0.44646746
7.5487099 5.0935893 -2.1023927
9.1553173 6.1753364 -2.1466014
11.482708 7.7393589 -2.1932113
15.350231 10.338284 -2.2723761
20.165043 13.575914 -2.1267743
21.241558 14.28988 -1.3416847
21.292377 14.313275 -0.44782877
6.4399633 4.3160686 -2.0772817
21.353043 14.305413 0.44863155
7.5518727 5.057447 -2.0983434
9.1735497 6.1411629 -2.145838
11.509655 7.6992264 -2.1932113
15.453892 10.329863 -2.2823691
20.205687 13.501011 -2.1260772
21.390968 14.282193 -1.347965
21.458643 14.316565 -0.45027208
6.4517746 4.2914214 -2.0762465
21.522745 14.310501 0.4511447
7.5646105 5.0278206 -2.0969937
9.1894598 6.1031475 -2.1443117
11.524939 7.6513581 -2.1910214
15.551062 10.316454 -2.2913876
20.24839 13.422463 -2.12538
21.556396 14.2787 -1.3550828
21.608528 14.307807 -0.45236638
6.4642339 4.2656193 -2.0752113
21.691896 14.308601 0.45358807
7.5846152 5.001132 -2.0974436
9.2002897 6.0618663 -2.1416404
11.546309 7.6047163 -2.18977
15.661728 10.307408 -2.3021121
20.297447 13.348164 -2.12538
21.718752 14.271981 -1.361991
21.73102 14.274628 -0.45383239
6.4733605 4.2376637 -2.0731406
21.86132 14.305653 0.45603138
7.5963697 4.9690337 -2.095644
9.2142286 6.0227361 -2.1397321
11.570794 7.5601869 -2.1891441
15.752588 10.284667 -2.3099117
20.316206 13.25407 -2.1222422
21.872972 14.25882 -1.3683761
21.92561 14.287666 -0.4567993
6.4856095 4.211803 -2.0721054
22.031012 14.301653 0.4584747
7.5998178 4.931613 -2.0915949
9.2378864 5.989994 -2.1401138
11.576875 7.5037618 -2.1850767
15.785183 10.22362 -2.3091805
20.367992 13.181687 -2.122591
22.049192 14.258818 -1.3761218
22.080265 14.273435 -0.4589285
6.7918167 3.6204002 -2.0622702
26.613277 14.180346 0.52636456
7.9033813 4.2093863 -2.0673003
9.5659838 5.0927491 -2.1065314
11.923674 6.3426051 -2.1390851
15.958354 8.4816437 -2.218997
21.515186 11.430206 -2.1314809
21.372421 11.344798 -1.2681004
26.64929 14.133901 -0.52653909
6.8146596 3.6020882 -2.065376
26.821745 14.171431 0.52950603
7.9042425 4.17449 -2.0637012
9.5837011 5.0593286 -2.1065314
11.952731 6.3046284 -2.1403368
15.973816 8.418478 -2.2170475
21.565531 11.3606 -2.1325266
21.525009 11.329657 -1.2747993
26.985178 14.191583 -0.53219366
6.8306131 3.5800736 -2.0664113
27.048185 14.170511 0.53299648
7.9204922 4.1477795 -2.0641508
9.5856485 5.017652 -2.1030967
11.95891 6.2546301 -2.1375208
15.971438 8.3461142 -2.2126598
21.612118 11.288948 -2.133224
21.907927 11.433718 -1.2951057
27.098389 14.130579 -0.53345025
6.8327827 3.5508652 -2.0633056
27.26074 14.160821 0.53620774
7.9280052 4.1165123 -2.0623512
9.5943918 4.9796362 -2.1011887
11.966643 6.2055693 -2.1350179
16.007524 8.2939701 -2.213635
21.640779 11.207936 -2.1321781
21.976086 11.371867 -1.2967805
27.318073 14.124074 -0.5368011
6.8417025 3.5252211 -2.0622702
7.9527206 4.0941668 -2.0650506
9.6012421 4.9407282 -2.0988991
11.988231 6.163763 -2.1350179
16.001064 8.2198963 -2.20876
21.683319 11.134141 -2.1325266
22.022757 11.298727 -1.2971991
27.573631 14.134451 -0.5408501
6.859128 3.5039523 -2.0638232
7.9548144 4.0601778 -2.0619013
9.614933 4.905396 -2.0981357
11.993835 6.1138015 -2.1322021
16.026117 8.1622019 -2.2082727
21.72205 11.058389 -2.1325266
22.051376 11.216367 -1.2965711
27.754723 14.10515 -0.54343307
6.8782096 3.4834807 -2.0658937
27.957039 14.152759 0.54695845
7.9654632 4.0306244 -2.0610015
9.6390038 4.87535 -2.0996623
12.008053 6.0683308 -2.1309505
16.033247 8.0954685 -2.2053478
21.756964 10.980696 -2.1321781
22.036894 11.11234 -1.2934309
27.965631 14.095832 -0.54664427
6.892055 3.460315 -2.0664113
28.164661 14.140717 0.55009985
7.9805255 4.0050631 -2.0614514
9.6419258 4.8346319 -2.0966094
12.026342 6.0275946 -2.1306376
16.020958 8.0226974 -2.1999855
21.812973 10.913613 -2.1339211
22.023609 11.014182 -1.2905002
28.215002 14.098254 -0.55055362
6.898303 3.4348593 -2.0648584
28.446566 14.158169 0.55463749
8.0014353 3.9806554 -2.0632513
9.6455975 4.796514 -2.0939381
12.038463 5.9811859 -2.1290734
16.034643 7.9596601 -2.1980357
21.836658 10.830317 -2.1325266
22.104872 10.958524 -1.2930123
28.453989 14.093755 -0.55425352
6.9073806 3.407845 -2.0638232
28.614178 14.117171 0.55694121
8.0117874 3.9509747 -2.0623512
9.6578283 4.7585282 -2.0927932
12.040808 5.9274282 -2.1256318
16.040951 7.8931346 -2.1951108
21.863605 10.748748 -2.1314809
22.306227 10.956686 -1.3024328
28.689699 14.085996 -0.55788362
6.9209704 3.3845596 -2.0643408
28.902868 14.128126 0.56154865
8.0192108 3.9181638 -2.0605516
9.6637964 4.7196145 -2.0905035
12.043674 5.8766956 -2.122503
16.055498 7.8273244 -2.1931608
21.890244 10.667131 -2.1304348
22.513134 10.960944 -1.312272
28.929285 14.078524 -0.56158352
6.9396954 3.3637521 -2.0664113
29.176294 14.142094 0.56594664
7.9935756 3.8728576 -2.0506537
9.6766777 4.6841445 -2.0897403
12.06665 5.8384485 -2.1231289
16.052771 7.7602186 -2.189261
21.956055 10.604514 -2.133224
22.747202 10.981747 -1.3237858
29.194395 14.0817 -0.56577212
6.9595175 3.3449066 -2.0689995
29.40213 14.125017 0.56936729
8.0211 3.8516774 -2.0542529
9.6779995 4.6452312 -2.0866873
12.072709 5.7894559 -2.120626
16.033216 7.6818318 -2.1829238
21.994692 10.533372 -2.1335726
23.545694 11.266054 -1.3679574
29.402132 14.055611 -0.56884372
6.9571991 3.3139448 -2.0648584
29.678749 14.13062 0.57376534
8.0362558 3.8244944 -2.054703
9.6852894 4.6072054 -2.0847793
12.09106 5.7464337 -2.1203129
16.049177 7.6207061 -2.1814616
22.009724 10.446286 -2.1314809
23.761736 11.267653 -1.3782152
29.642565 14.04365 -0.57254362
6.9687233 3.2896409 -2.0648584
29.858103 14.088366 0.57627845
8.0583706 3.8005736 -2.0569522
9.6924324 4.5691857 -2.082871
12.091388 5.694931 -2.1168714
16.06131 7.5578785 -2.1795115
22.035238 10.3643 -2.1304348
24.006989 11.281483 -1.3901478
29.937588 14.055665 -0.57729071
6.9784155 3.2644751 -2.0643408
30.18606 14.1145 0.58165383
8.0574636 3.7658224 -2.0533531
9.7065458 4.5344911 -2.0824895
12.091501 5.6435018 -2.1134298
16.076799 7.4967384 -2.1780491
22.11101 10.305841 -2.1342697
30.18228 14.042185 -0.58106047
6.989769 3.2400942 -2.0643408
30.420212 14.0948 0.58521408
8.0687923 3.7368522 -2.0529034
9.7187529 4.4989295 -2.0817263
12.116508 5.6037455 -2.1143684
16.070429 7.4255891 -2.1736617
22.168556 10.238616 -2.1363616
30.428799 14.040767 -1.7562902
30.439323 14.039163 -0.58510935
7.0098133 3.2197087 -2.0669291
30.670309 14.087317 0.58912343
8.0882225 3.7133288 -2.054703
9.7343969 4.4649792 -2.0817263
12.124249 5.5585976 -2.1124914
16.07692 7.3639865 -2.1712244
22.258509 10.186048 -2.1415908
24.623175 11.26298 -1.4190373
30.640924 14.002632 -0.58804137
7.0239673 3.1980481 -2.0679643
30.985035 14.101099 0.59421951
8.1011343 3.6850748 -2.054703
9.725915 4.4221125 -2.0767653
12.116602 5.503984 -2.1077983
16.066376 7.2914109 -2.1663496
22.361118 10.14345 -2.1482146
24.85881 11.265993 -1.4303418
30.871773 13.978094 -0.59153187
7.0245228 3.1687422 -2.0648584
31.168959 14.053701 0.59680253
8.1192799 3.6591737 -2.0560527
9.7359228 4.3857141 -2.0756204
12.121328 5.4551721 -2.1052952
16.088106 7.2336674 -2.1658623
22.505424 10.114342 -2.1586735
25.051037 11.247864 -1.4391342
7.0408311 3.1465688 -2.0664113
31.488047 14.065513 0.60196841
8.1355629 3.6323969 -2.0569522
9.752964 4.3525047 -2.0760019
12.147515 5.4160423 -2.1065466
16.102377 7.1726136 -2.1643996
22.682568 10.098925 -2.1722698
25.163134 11.192836 -1.4433211
35.964664 15.98244 -0.68696165
7.0553055 3.1235349 -2.0674467
31.811255 14.076884 0.60720408
8.1428442 3.6016173 -2.0556028
9.7573271 4.3136692 -2.0737123
12.159115 5.3704224 -2.1052952
16.105524 7.1067414 -2.1614747
22.8708 10.087239 -2.1869118
25.143568 11.079155 -1.4399717
31.671671 13.942471 -0.60402775
7.0697055 3.1004384 -2.0684819
32.043343 14.046045 0.61069459
8.150012 3.5708227 -2.0542529
9.7687283 4.2780056 -2.0729489
12.154263 5.3176503 -2.101228
16.122957 7.0473032 -2.1604998
23.073845 10.080722 -2.2029486
25.138155 10.97215 -1.4374595
32.105087 13.999678 -0.61135781
7.0769391 3.0742068 -2.0674467
32.31229 14.029668 0.61488318
8.173152 3.547009 -2.0569522
9.7763948 4.2407618 -2.0714226
12.172751 5.2751884 -2.101228
16.111029 6.975203 -2.1556253
23.247866 10.060249 -2.2161963
25.190969 10.890669 -1.4382969
32.30061 13.950977 -0.61415023
7.0823035 3.0471926 -2.0658937
8.1890659 3.519995 -2.0578523
9.7821198 4.2027321 -2.0695145
12.180199 5.2279935 -2.0993509
16.095139 6.9017143 -2.1502628
23.440325 10.046541 -2.2311869
25.419783 10.884423 -1.4491827
32.610188 13.949814 -0.61910671
7.0911198 3.0216966 -2.065376
32.92458 14.023165 0.6246565
8.1977177 3.4898593 -2.0569522
9.8003426 4.1700997 -2.0702777
12.189285 5.1815772 -2.0977864
16.108168 6.840837 -2.1488004
23.636646 10.033159 -2.2465265
25.615751 10.862689 -1.4581846
32.927505 13.949793 -0.62420279
7.1051841 2.9984257 -2.0664113
33.24971 14.024718 0.62989229
8.2044621 3.4589531 -2.0556028
9.8039856 4.1312885 -2.0679879
12.181808 5.1282697 -2.0934062
16.117311 6.7784066 -2.1468506
23.844173 10.023171 -2.2629116
33.10778 13.903639 -1.8818964
33.182526 13.921406 -0.62811214
7.1209559 2.9758387 -2.0679643
33.482975 13.985649 0.63338268
8.2200813 3.4317963 -2.0565026
9.807477 4.0925016 -2.0656981
12.194166 5.0834322 -2.0924675
16.126211 6.7160029 -2.1449006
23.993061 9.9873447 -2.2737191
33.410599 13.893825 -1.8963412
33.530087 13.929768 -0.63376671
7.1313 2.9509649 -2.0679643
33.808781 13.98332 0.63861847
8.2320099 3.4030836 -2.0565026
9.8144445 4.0552459 -2.0641718
12.208184 5.039331 -2.0918419
16.134878 6.6536131 -2.1429508
24.016724 9.898982 -2.2726731
33.669437 13.863798 -1.9082738
33.7906 13.906792 -0.63781565
7.1308303 2.9216609 -2.0648584
34.132519 13.984859 0.6438542
8.2504644 3.3787186 -2.0583022
9.8267231 4.020216 -2.0637903
12.206542 4.9913454 -2.0887132
16.149504 6.597064 -2.1419756
24.021614 9.8030472 -2.2698841
34.018524 13.87577 -1.92544
34.164864 13.921572 -0.64395893
7.1404805 2.8979962 -2.0648584
34.459084 13.97839 0.64908987
8.2567911 3.3476996 -2.0569522
9.8436394 3.989084 -2.0645535
12.211075 4.9435139 -2.0865231
16.150345 6.5317307 -2.1390507
24.024435 9.711381 -2.2670951
34.288975 13.846705 -1.9380007
34.432083 13.8905 -0.64807767
7.1541376 2.8744957 -2.0658937
8.2630024 3.316678 -2.0556028
9.8520365 3.9525082 -2.0634086
12.213589 4.8949766 -2.0840201
16.169363 6.4738359 -2.1385634
24.047094 9.6230135 -2.2660494
34.667213 13.858889 -1.9566323
34.7812 13.890379 -0.65373224
7.171309 2.8523598 -2.0679643
35.113308 13.959083 0.6595614
8.2890148 3.293577 -2.059202
9.8712482 3.9202652 -2.0645535
12.221417 4.8486795 -2.0824559
16.162336 6.4056482 -2.1346636
24.009953 9.5062132 -2.2592511
35.008816 13.853902 -1.9731705
35.063801 13.861507 -0.65813029
7.1745238 2.8232284 -2.0658937
8.2895803 3.2603407 -2.0565026
9.8764133 3.8804715 -2.0626454
12.231756 4.8009577 -2.0812044
16.173512 6.3448462 -2.1332014
24.005894 9.4077988 -2.255765
35.371799 13.847823 -1.9907553
35.391304 13.848318 -0.66336596
7.1807351 2.7967632 -2.0648584
8.3141861 3.234884 -2.0596519
9.8679419 3.8374312 -2.0580659
12.228182 4.7503719 -2.0777628
16.178148 6.2783461 -2.1307638
23.982851 9.3023462 -2.2505355
