# .PCD v0.7 - Point Cloud Data file format
VERSION 0.7
FIELDS x y z
SIZE 4 4 4
TYPE F F F
COUNT 1 1 1
WIDTH 1510
HEIGHT 1
VIEWPOINT 0 0 0 1 0 0 0
POINTS 1510
DATA ascii
7.0277128 -3.4124737 -2.0933285
8.1588516 -3.9652455 -2.0942943
9.4142408 -4.5774026 -2.0347872
10.142169 -4.9357152 -1.7864817
13.752472 -6.698617 -1.8782505
17.966047 -8.7548647 -1.7485185
10.628933 -5.1840768 -0.61976248
10.490934 -5.121304 -0.2037743
7.019228 -3.438684 -2.0943637
8.1484604 -3.9954169 -2.0951941
9.3982058 -4.6102366 -2.0347872
13.725442 -6.7448301 -1.877763
10.411496 -5.1185775 -1.0150158
10.564179 -5.1982203 -0.61704099
10.472994 -5.1578937 -0.2037743
10.092546 -4.9727135 3.0147245
7.0141096 -3.4665885 -2.0964344
8.1449442 -4.0290203 -2.0978935
9.3750162 -4.6395316 -2.0332606
10.454412 -5.1782484 -1.8478041
13.692922 -6.7882915 -1.8765444
10.414985 -5.1655121 -1.0171075
10.499456 -5.2119756 -0.6143195
10.485371 -5.2095456 -0.20436768
10.050907 -4.9958749 3.0074775
7.001966 -3.4910514 -2.0964344
8.132575 -4.0582972 -2.0983434
9.367548 -4.6766119 -2.0351689
10.21009 -5.1016922 -1.8077569
13.670918 -6.836935 -1.876788
10.539435 -5.2731552 -1.0310525
10.518702 -5.2673731 -0.6165176
10.451032 -5.2380505 -0.20405354
9.998868 -5.0136104 2.9971247
6.9828339 -3.5119991 -2.0943637
10.437432 -5.2517643 0.20394883
8.1270628 -4.0910416 -2.1005929
9.338892 -4.7031016 -2.0324974
10.481964 -5.2810507 1.0268689
10.167523 -5.1248536 -1.8033768
13.651715 -6.8840194 -1.8772755
17.806488 -8.9869032 -1.7450323
9.9263163 -5.0119686 2.1614842
10.530558 -5.3193669 -0.61829704
10.439986 -5.2736163 2.7003124
10.483577 -5.2979326 -0.20503086
9.9890833 -5.0502262 2.9991951
6.9780412 -3.538631 -2.0964344
10.457409 -5.3053465 0.20468183
8.104763 -4.1135592 -2.0983434
10.384971 -5.2708755 0.61034197
9.3372488 -4.7411556 -2.0355504
10.368472 -5.2670546 1.0174562
10.153994 -5.1603312 -1.8040025
10.325127 -5.2495699 1.4222155
10.325127 -5.2495699 -1.4222155
10.379323 -5.2794046 1.8443626
10.318624 -5.2507982 -1.0129241
10.302853 -5.2473006 -0.60594577
10.286994 -5.239224 2.66522
10.337666 -5.2673039 -0.20251772
6.9731488 -3.5652695 -2.098505
10.254605 -5.2452884 0.20105173
8.0858727 -4.1377501 -2.0969937
10.27406 -5.2597651 0.60489905
9.321475 -4.7720928 -2.0355504
10.251642 -5.2505465 1.0076946
10.108698 -5.179563 -1.7989967
10.226401 -5.242126 1.4110035
10.241383 -5.2520633 -1.413197
10.258892 -5.2633038 1.8262162
10.244429 -5.2558832 -1.007346
9.8631649 -5.0624518 2.1549969
10.235646 -5.2558918 -0.60301495
10.213175 -5.2466054 2.6508231
10.24096 -5.2631383 -0.20098191
10.160645 -5.2241039 3.061312
6.9640951 -3.5913594 -2.0995402
10.214908 -5.2700491 0.20063286
8.0817699 -4.1713123 -2.0996931
10.220146 -5.2772698 0.60280561
9.2908049 -4.7973957 -2.0324974
10.208469 -5.2734981 1.0052543
10.067742 -5.2030268 -1.7949294
10.19217 -5.2695856 1.4088097
10.205356 -5.2786603 -1.4107596
10.201859 -5.279109 1.819333
10.211864 -5.284286 -1.0059516
9.8471766 -5.0977521 2.1553786
10.199503 -5.2824039 -0.60196823
10.167114 -5.26788 2.6436248
10.185244 -5.2795286 -0.20024893
6.9378057 -3.6085155 -2.0953991
10.185806 -5.3001361 0.20042343
8.0654316 -4.1985979 -2.0992434
10.17332 -5.298152 0.6011309
10.159963 -5.2934499 1.0022911
10.042513 -5.2344861 -1.7936778
10.170194 -5.3032951 1.4083222
10.171027 -5.3059883 -1.408566
10.157103 -5.3009791 1.81464
10.172161 -5.3088379 -1.0038599
9.7875547 -5.1102862 2.1462197
10.184542 -5.3198237 -0.60217756
10.164979 -5.3141227 -0.200214
10.175282 -5.3217697 3.0768409
6.9285879 -3.6345057 -2.0964344
10.117664 -5.3096399 0.1994461
8.0679808 -4.2357845 -2.1037421
10.135314 -5.3234153 0.59997946
10.122021 -5.3186879 1.0003736
9.985713 -5.2492881 -1.7867948
10.155133 -5.3406115 1.4088097
10.154202 -5.3423839 -1.4088097
10.13504 -5.3345613 1.8140143
10.180013 -5.358233 -1.0064745
9.8026628 -5.1617999 2.1534703
10.169444 -5.3572035 -0.60238689
10.136986 -5.3423653 2.6454244
10.136139 -5.3464408 3.0706291
6.9141517 -3.6577652 -2.0959167
10.122046 -5.3570857 0.19989987
8.0479794 -4.2611856 -2.1023927
10.153733 -5.3783941 0.60217756
9.2539377 -4.9017758 -2.0355504
10.140365 -5.373579 1.0040342
9.9568558 -5.2785606 -1.7849175
10.134676 -5.3750963 1.408566
10.135491 -5.3777957 -1.4088097
10.139041 -5.381947 1.8180816
10.13661 -5.3806572 -1.0040342
9.7603092 -5.183095 2.1481278
10.120698 -5.3767395 -0.60060751
10.1286 -5.3832045 2.6481237
10.124102 -5.3830805 -0.2001442
10.127648 -5.3872333 3.073735
6.9098639 -3.6864247 -2.098505
10.127982 -5.4055672 0.20038854
8.0278978 -4.2864985 -2.1010427
10.141945 -5.4175687 0.60259628
9.2575512 -4.945148 -2.0401299
10.126818 -5.4117599 1.0045571
9.9226913 -5.3049026 -1.7821016
10.121102 -5.4132485 1.4092971
10.128908 -5.4196978 -1.4105159
10.137607 -5.4266281 1.8212101
10.116011 -5.4150672 -1.0038599
10.117712 -5.4205232 -0.60154951
10.144099 -5.4369388 2.6571219
10.124636 -5.4287815 -0.20052816
10.149639 -5.4444695 3.0861585
6.9139662 -3.7196746 -2.1036813
10.146029 -5.4607902 0.20112152
8.0231819 -4.3200383 -2.1037421
10.147589 -5.4661984 0.60406166
9.222949 -4.968123 -2.0363138
10.139434 -5.4640894 1.0076946
9.9197626 -5.3479433 -1.7849175
10.149319 -5.4739885 1.4158782
10.127399 -5.464448 -1.4129534
10.170753 -5.4901319 1.8305963
10.140878 -5.4740062 -1.0082177
10.130361 -5.4728961 -0.60343367
10.214206 -5.5204968 2.6805167
10.132009 -5.4783564 -0.20105173
10.331077 -5.5883226 3.1472397
6.8890538 -3.7373381 -2.1000578
10.179632 -5.5247889 0.20216867
8.0097656 -4.348948 -2.104192
10.216199 -5.5492525 0.60929525
9.2090006 -5.002161 -2.037077
10.253347 -5.5717478 1.0209423
9.9513636 -5.4098978 -1.7939906
10.17278 -5.5348687 -1.4219716
10.168957 -5.535089 -1.0129241
25.594563 -13.943021 -1.5274774
10.565794 -5.7606573 -0.21005715
10.250451 -5.5910487 3.1286047
6.8674912 -3.756727 -2.0974696
8.01334 -4.3871746 -2.1091411
9.2018147 -5.0399342 -2.0393667
9.9774561 -5.4692893 -1.8021252
10.177763 -5.5837121 -1.4253839
17.39278 -9.5459557 -1.7357937
25.489719 -14.001507 -1.5241278
6.8644862 -3.7862742 -2.1005754
7.9894457 -4.4104104 -2.1068916
9.1807289 -5.0701256 -2.0386035
10.22455 -5.6512423 -1.8503071
13.352627 -7.3862567 -1.8736194
17.366327 -9.6104689 -1.7364911
25.433701 -14.086528 -1.5237092
6.8579812 -3.8139682 -2.1026461
7.9586778 -4.4297423 -2.1028426
9.169836 -5.1059613 -2.0401299
10.071896 -5.6128545 -1.8262162
13.311159 -7.4241185 -1.8714259
17.31881 -9.6672573 -1.7352709
25.440178 -14.206382 -1.5270587
6.8254223 -3.8286819 -2.096952
40.618778 -22.784874 0.81293309
7.9448652 -4.4584503 -2.1032922
9.1476364 -5.1376138 -2.0393667
10.032314 -5.6390853 -1.8227745
13.285164 -7.4705377 -1.8714259
17.286694 -9.7286291 -1.7354451
25.426222 -14.321093 -1.5293615
6.8254685 -3.8600919 -2.1010931
7.9115119 -4.4779415 -2.0987935
9.1193981 -5.1637101 -2.037077
10.227395 -5.7958102 -1.8618832
40.414238 -22.911856 5.704217
13.255967 -7.5182014 -1.8711821
17.245697 -9.7849789 -1.7347479
25.330919 -14.384118 -1.5266401
6.7951708 -3.874325 -2.0959167
7.8958335 -4.5055299 -2.0987935
9.1149569 -5.2032971 -2.0401299
13.229643 -7.5644279 -1.8711821
17.213165 -9.8461065 -1.7349222
25.315222 -14.492297 -1.5287334
6.7983537 -3.9076483 -2.1010931
7.8699222 -4.5272336 -2.0960939
9.1001415 -5.2370405 -2.0408931
10.179836 -5.8631258 -1.8606318
13.216526 -7.6151948 -1.8728882
17.066504 -9.8414392 -1.7235919
25.229881 -14.56061 -1.5266401
6.7870307 -3.9311397 -2.1016109
7.8498087 -4.550375 -2.0947442
9.0895185 -5.2711291 -2.0424197
13.182617 -7.653996 -1.8716695
17.106125 -9.9400225 -1.730913
25.153833 -14.628126 -1.5249652
41.700874 -24.260746 -0.84211355
6.7689519 -3.9507029 -2.1000578
7.8346758 -4.5763807 -2.0947442
9.0618181 -5.2952991 -2.0401299
10.696616 -6.2556071 -1.9626271
13.147253 -7.694952 -1.8704509
16.978491 -9.9452944 -1.7215002
25.098295 -14.707423 -1.5245465
41.660782 -24.432459 -0.84302104
6.7527614 -3.9745059 -2.0995402
7.8220115 -4.6056776 -2.095644
9.0440407 -5.3294735 -2.0405114
10.692333 -6.3058085 -1.9660686
13.116893 -7.7387795 -1.8699634
16.916222 -9.9882908 -1.7187113
25.061417 -14.809474 -1.5255933
41.640656 -24.616407 -0.84434742
6.7305393 -3.9931242 -2.096952
7.8117809 -4.6382961 -2.0974436
9.0270691 -5.3620124 -2.0408931
10.654974 -6.3340087 -1.9632527
13.098677 -7.7928939 -1.8714259
16.737436 -9.9616842 -1.704069
24.99584 -14.888686 -1.5247558
41.788101 -24.900822 -0.84909445
6.7215338 -4.0195689 -2.098505
7.7997017 -4.6661758 -2.0983434
9.018404 -5.3995419 -2.0431828
10.623744 -6.3632174 -1.9613756
13.062547 -7.830163 -1.8699634
16.637638 -9.9810991 -1.6974453
24.953182 -14.975608 -1.5251746
41.704357 -25.048599 -0.84916431
6.706512 -4.0408387 -2.0979872
7.7850351 -4.6943808 -2.0987935
8.9970875 -5.4273901 -2.0424197
10.599776 -6.399241 -1.9610627
13.040231 -7.8787918 -1.8706945
16.553293 -10.005297 -1.6922158
24.931517 -15.081226 -1.5270587
41.750099 -25.274797 -0.85188693
6.6956687 -4.0662298 -2.0990226
7.7735977 -4.7245631 -2.100143
8.9814425 -5.4608021 -2.0431828
10.584125 -6.44031 -1.9623141
13.004174 -7.9191012 -1.869476
16.470627 -10.033995 -1.6873351
24.906006 -15.184796 -1.5287334
6.6682529 -4.0815096 -2.0948815
7.7736754 -4.761848 -2.1046422
8.9539566 -5.4869919 -2.0412748
10.56663 -6.4803138 -1.9632527
12.986603 -7.9706769 -1.8709384
16.399843 -10.069533 -1.6836746
24.900494 -15.300919 -1.5316643
6.6605415 -4.1088181 -2.096952
7.760323 -4.7910018 -2.1055419
8.9414301 -5.5223398 -2.0428011
10.537226 -6.5130048 -1.9620013
12.955324 -8.0138702 -1.8704509
16.284967 -10.077443 -1.6754819
24.935228 -15.442428 -1.5371071
6.6395969 -4.1279626 -2.0948815
7.7352781 -4.8129134 -2.1032922
8.9220991 -5.5535173 -2.0428011
10.516103 -6.5507917 -1.9623141
12.927271 -8.0590448 -1.8704509
16.124525 -10.060075 -1.6627573
23.620596 -14.742595 -1.4592313
6.6211481 -4.150218 -2.0938461
7.7035718 -4.8305683 -2.0992434
8.9133244 -5.5934863 -2.0454724
10.492022 -6.5892916 -1.9623141
12.897381 -8.1030636 -1.8702071
16.053888 -10.094028 -1.6590967
23.414263 -14.733335 -1.4498109
42.988178 -27.060621 -0.88665205
6.6262202 -4.1856856 -2.1000578
7.6858158 -4.8587704 -2.0992434
8.8804712 -5.6161699 -2.0424197
10.468958 -6.625874 -1.9623141
12.862564 -8.1470947 -1.869476
15.924309 -10.090287 -1.6493353
23.285101 -14.765776 -1.4449959
42.954247 -27.249077 -0.88790864
6.6083097 -4.2067151 -2.0990226
7.669661 -4.8842306 -2.0992434
8.857502 -5.6450248 -2.0416565
10.438599 -6.6552448 -1.9607497
12.838822 -8.1918392 -1.8699634
15.939369 -10.177979 -1.6545646
23.155218 -14.791302 -1.4399717
42.858868 -27.398851 -0.88790864
6.5813141 -4.2202635 -2.0948815
7.6656857 -4.9193931 -2.1028426
8.8486462 -5.6807303 -2.043946
10.416966 -6.6927094 -1.9610627
12.821837 -8.2441206 -1.8716695
15.821745 -10.176888 -1.645849
23.053061 -14.839607 -1.4368315
6.556807 -4.2369199 -2.0917757
7.6444197 -4.9416127 -2.1014926
8.828763 -5.7115827 -2.043946
10.396374 -6.7282896 -1.9613756
12.799427 -8.2898312 -1.8724008
15.776094 -10.225554 -1.6448032
22.916584 -14.859468 -1.4313885
42.963257 -27.879345 -0.89398205
6.5597844 -4.2713771 -2.0974696
7.6099305 -4.9589586 -2.0969937
8.8087721 -5.7423663 -2.043946
10.373299 -6.7674294 -1.9616885
12.767296 -8.3356018 -1.872157
15.741971 -10.281649 -1.6449775
22.765005 -14.879982 -1.4253175
6.5432191 -4.2931895 -2.096952
7.5999608 -4.9884439 -2.0987935
8.7821102 -5.7687678 -2.0424197
10.344196 -6.797451 -1.9604369
12.734608 -8.3746214 -1.8714259
15.91236 -10.472355 -1.6665921
22.625452 -14.896085 -1.4196653
6.5176654 -4.3074083 -2.0933285
7.585752 -5.0170927 -2.0996931
8.7596579 -5.7956924 -2.0416565
10.3237 -6.8356981 -1.9610627
12.705297 -8.4190226 -1.8714259
15.81427 -10.487094 -1.6601425
22.506746 -14.930807 -1.4154785
6.4970107 -4.3280544 -2.0917757
7.56495 -5.0413804 -2.0987935
8.7383566 -5.8277593 -2.0416565
10.303506 -6.876781 -1.9620013
12.684087 -8.468832 -1.8726445
15.664916 -10.466963 -1.6482893
22.408703 -14.984332 -1.4127569
6.4834676 -4.3517838 -2.0922933
7.5367155 -5.0625529 -2.0960939
8.7293673 -5.865891 -2.0443277
10.271242 -6.9071932 -1.9604369
12.654609 -8.5163736 -1.8728882
15.667952 -10.548285 -1.6524729
22.346323 -15.055765 -1.4121288
6.4698377 -4.3754706 -2.0928109
7.5166578 -5.0853338 -2.0951941
10.248281 -6.9412169 -1.9604369
12.629583 -8.5605192 -1.8733757
15.606301 -10.586133 -1.6498581
22.322718 -15.147731 -1.4138037
6.4616799 -4.4012513 -2.0948815
7.4972506 -5.1104431 -2.0947442
8.6535521 -5.9008408 -2.0359321
10.233779 -6.9836273 -1.9623141
12.58815 -8.5967159 -1.8716695
15.505103 -10.596703 -1.6430601
22.309275 -15.252614 -1.4163158
6.437541 -4.4194379 -2.0922933
24.234337 -16.637121 0.51310074
7.4729409 -5.1321702 -2.0929446
24.220407 -16.639999 1.540038
8.6933489 -5.9747734 -2.0504336
24.191681 -16.632696 2.5684798
10.216251 -7.0266876 -1.9638785
24.185234 -16.634483 3.6041644
12.562971 -8.6439781 -1.8724008
15.495915 -10.66997 -1.6460234
22.305849 -15.370543 -1.4196653
24.156252 -16.651836 -0.51212341
6.4077754 -4.4319921 -2.0876343
24.173195 -16.725834 0.51310074
7.4636936 -5.1661792 -2.095644
24.156403 -16.732925 2.57092
10.18192 -7.0555544 -1.9620013
24.297035 -16.842892 3.6300006
12.547518 -8.7012787 -1.8748381
15.484768 -10.742167 -1.6488123
22.268467 -15.459702 -1.420712
6.4049463 -4.4631681 -2.0917757
7.4481201 -5.1920161 -2.0960939
8.4904099 -5.9229918 -2.0122719
10.158467 -7.0892806 -1.9620013
12.516966 -8.741704 -1.8745944
15.421048 -10.777891 -1.6460234
22.266184 -15.567795 -1.4238522
6.3853664 -4.4810534 -2.0902226
7.4140034 -5.2067833 -2.0915949
8.4128904 -5.9104853 -1.9985336
10.135275 -7.125833 -1.9623141
12.478258 -8.7796316 -1.8733757
15.419171 -10.856889 -1.6498581
22.267223 -15.684528 -1.4274111
6.3752084 -4.5088897 -2.0922933
7.3989644 -5.2348824 -2.0924947
8.3238745 -5.893631 -1.9825056
10.105865 -7.1606493 -1.9616885
12.454015 -8.8277273 -1.8743507
15.381179 -10.910645 -1.6498581
22.25519 -15.798408 -1.4303418
6.3610044 -4.5322371 -2.0928109
7.3829026 -5.2642283 -2.0933945
10.092063 -7.2039151 -1.9638785
12.42319 -8.8744678 -1.8745944
15.402981 -11.007133 -1.6563078
22.284384 -15.936411 -1.4357848
6.3310208 -4.5442748 -2.0881522
7.3590727 -5.2841358 -2.0915949
10.06491 -7.2350349 -1.9632527
12.398527 -8.9190931 -1.8753256
15.246425 -10.975856 -1.6435831
22.234655 -16.012554 -1.4359941
6.3190475 -4.5675073 -2.0891874
7.3532143 -5.3189292 -2.0951941
10.031594 -7.2643318 -1.9616885
12.368925 -8.9634838 -1.8755693
15.227688 -11.039217 -1.6455004
22.13336 -16.057232 -1.4330633
6.3093119 -4.5940852 -2.0912578
7.3078294 -5.3250542 -2.0875459
10.007771 -7.3004694 -1.9620013
12.329546 -9.0007515 -1.8743507
25.165411 -18.377857 4.9355078
15.206759 -11.105229 -1.6474178
22.102976 -16.153248 -1.434738
6.2947955 -4.6172242 -2.0917757
7.2923379 -5.3528366 -2.0884457
8.1859884 -6.0110073 -1.97411
9.9790449 -7.3330178 -1.9613756
12.293255 -9.0402069 -1.8736194
21.969252 -16.173468 -1.4297137
24.957548 -18.386848 -0.54109442
6.2770853 -4.638021 -2.0912578
7.2845774 -5.3863697 -2.0915949
8.0229025 -5.9344683 -1.9397644
9.9676762 -7.3783836 -1.9641914
12.264813 -9.0854263 -1.8741069
15.08884 -11.181466 -1.6430601
19.939417 -14.786729 -1.3009673
24.880369 -18.464319 -0.54081517
6.2500095 -4.6518292 -2.0876343
7.2657309 -5.4117646 -2.0915949
9.9402761 -7.411953 -1.9638785
12.233026 -9.1281834 -1.8741069
25.155209 -18.777445 4.9718008
15.017787 -11.21023 -1.6395737
19.964483 -14.913615 -1.3059915
6.2306423 -4.6713004 -2.0865991
7.2312078 -5.4253993 -2.087096
8.3989477 -6.3038163 -2.0412748
9.8985481 -7.4347415 -1.9607497
12.207434 -9.1755991 -1.8750819
25.222132 -18.964861 4.9980817
14.941938 -11.235045 -1.6355647
19.931456 -14.997622 -1.3072476
6.2266316 -4.7023344 -2.0907402
7.2168903 -5.4541321 -2.0884457
8.3831558 -6.3378315 -2.0428011
9.8819876 -7.4763999 -1.9626271
12.173749 -9.216958 -1.8748381
25.199867 -19.08618 5.0068421
14.967748 -11.336453 -1.6427114
19.82168 -15.023675 -1.3034796
6.2101798 -4.7240405 -2.0907402
7.1947074 -5.4769301 -2.0875459
8.3547344 -6.362298 -2.0412748
9.8511171 -7.5072575 -1.9616885
12.135186 -9.2545805 -1.8738631
25.283863 -19.289053 5.0368776
14.967687 -11.418843 -1.6470692
19.731018 -15.063687 -1.3009673
6.1921182 -4.7445145 -2.0902226
24.815933 -19.021297 0.54577166
7.166266 -5.4948959 -2.0848465
8.3278008 -6.3878369 -2.0401299
9.8326855 -7.5476117 -1.9632527
12.11068 -9.3029299 -1.8750819
25.335419 -19.468668 5.0606556
14.922996 -11.467379 -1.6465462
19.586485 -15.061852 -1.2948964
6.1694021 -4.7613792 -2.0881522
24.986811 -19.291111 0.55100739
7.1562958 -5.5270247 -2.0875459
8.3085594 -6.4192681 -2.0408931
9.8078432 -7.5830975 -1.9635657
12.078133 -9.3451471 -1.8750819
25.476631 -19.719002 5.1025796
14.879725 -11.51696 -1.6461976
19.603268 -15.183944 -1.299502
24.494545 -18.986225 -0.54095483
6.1542692 -4.7840714 -2.0886698
25.026663 -19.461687 0.55338091
7.1431112 -5.5567565 -2.0893452
8.2907505 -6.4518495 -2.042038
9.7704029 -7.6087909 -1.9613756
12.050137 -9.390913 -1.8758131
25.535391 -19.907406 5.1282353
14.933712 -11.64233 -1.6566564
19.565891 -15.264564 -1.3005486
24.437578 -19.078995 -0.54116422
6.1436162 -4.810288 -2.0907402
7.1067982 -5.5684366 -2.0843966
8.2728128 -6.4843831 -2.0431828
9.7468929 -7.6452875 -1.9620013
12.00479 -9.423111 -1.8738631
25.689468 -20.172091 5.1732879
14.813063 -11.631632 -1.6477664
19.465378 -15.295749 -1.2974085
24.719795 -19.438591 -0.54891312
6.1176863 -4.8245263 -2.0876343
7.0888467 -5.5944171 -2.0848465
8.2408829 -6.5059214 -2.0408931
9.7201471 -7.6792641 -1.9620013
11.973382 -9.4661894 -1.8741069
25.740204 -20.350277 5.1970663
14.691109 -11.619001 -1.6387022
19.452583 -15.39583 -1.3001299
6.1053467 -4.8494563 -2.0891874
7.0763583 -5.6227427 -2.0866458
8.2150497 -6.5322042 -2.0401299
9.6961737 -7.7126851 -1.9623141
11.941925 -9.5058432 -1.8741069
25.922441 -20.641811 5.2483773
14.666045 -11.682627 -1.6404454
19.451408 -15.500083 -1.3034796
36.725582 -29.286175 -0.8199141
6.0847054 -4.866056 -2.0876343
7.0658183 -5.6547151 -2.0893452
8.1964073 -6.5618649 -2.0408931
9.6630249 -7.7415438 -1.9610627
11.904024 -9.543745 -1.8733757
14.742241 -11.823441 -1.6533444
19.503105 -15.652895 -1.3105972
36.726028 -29.49684 -0.82221782
6.072196 -4.890902 -2.0891874
7.0293469 -5.6658936 -2.0843966
8.1734533 -6.590435 -2.0408931
9.6282578 -7.7690234 -1.9594984
11.882993 -9.5952168 -1.8753256
14.579987 -11.777176 -1.6397481
19.451452 -15.72339 -1.3108065
24.978035 -20.205166 -0.5607807
6.0550866 -4.9120679 -2.0891874
25.517673 -20.708084 0.57362568
7.0170903 -5.6965365 -2.0866458
8.1595421 -6.6263523 -2.0431828
9.6026115 -7.8038311 -1.9598112
11.852508 -9.639143 -1.8758131
14.504786 -11.800335 -1.6359133
19.346886 -15.75084 -1.307457
24.910456 -20.294762 -0.56085056
6.0453839 -4.9392858 -2.0917757
7.0001807 -5.723464 -2.0875459
8.1302834 -6.6498222 -2.0416565
9.5798988 -7.8410568 -1.9607497
11.821859 -9.6829729 -1.8763006
14.397238 -11.796596 -1.6284178
19.288698 -15.815744 -1.3072476
36.631557 -30.057392 -0.82710445
6.0236301 -4.9566755 -2.0902226
6.96662 -5.7367139 -2.0834966
8.1024761 -6.6744165 -2.0405114
9.5524702 -7.8744493 -1.9607497
11.801768 -9.735549 -1.8784941
14.400537 -11.883557 -1.6334729
19.11017 -15.781238 -1.2988739
6.0077786 -4.9789033 -2.0907402
25.86594 -21.44383 0.58647066
6.9525528 -5.7659736 -2.0852964
8.0806389 -6.7039123 -2.0408931
9.523406 -7.9064841 -1.9604369
11.775349 -9.7830286 -1.8797129
14.345178 -11.922289 -1.6319041
19.078001 -15.867005 -1.300444
5.9903622 -4.9998441 -2.0907402
6.9413581 -5.7977033 -2.0879958
8.0602026 -6.7345958 -2.0416565
9.4881716 -7.9333425 -1.9588726
11.725904 -9.8113317 -1.8772755
14.213332 -11.896841 -1.6216197
18.959723 -15.880922 -1.2961524
5.9684372 -5.0169954 -2.0891874
25.834988 -21.724272 0.58919328
6.9136219 -5.8156252 -2.085746
8.039649 -6.7652178 -2.0424197
9.4634438 -7.9689589 -1.9594984
11.635419 -9.8048754 -1.8682572
14.203709 -11.973349 -1.6252803
18.824789 -15.88004 -1.2907095
5.9567857 -5.0427914 -2.0912578
6.8873315 -5.8346853 -2.0839467
8.0040035 -6.7830868 -2.0393667
9.4265299 -7.9942775 -1.9576212
11.584474 -9.8313017 -1.865576
13.990196 -11.877149 -1.6055831
18.699224 -15.88617 -1.2858946
25.973021 -22.081335 -0.59505725
5.9420867 -5.066061 -2.0922933
6.8787827 -5.8688087 -2.0875459
7.9802775 -6.8109841 -2.0393667
9.3625164 -7.9963446 -1.9501122
11.556121 -9.8768387 -1.866551
13.96531 -11.940152 -1.6075004
18.50404 -15.83189 -1.2762648
25.674011 -21.981981 -0.58996111
5.9170389 -5.0804787 -2.089705
6.8582549 -5.8927846 -2.0875459
7.957943 -6.8400793 -2.0397482
9.2821312 -7.9838929 -1.9391619
11.49299 -9.8925104 -1.86192
13.935625 -11.999228 -1.6088949
18.518263 -15.956357 -1.2810796
25.709196 -22.168102 -0.59254414
5.8992682 -5.1011024 -2.089705
6.8273277 -5.9077621 -2.0843966
7.9384708 -6.8716698 -2.0408931
9.2706289 -8.0304708 -1.9426033
11.474887 -9.9468708 -1.8646011
13.80936 -11.974706 -1.5991336
18.435299 -15.997337 -1.2791955
5.8872538 -5.1267385 -2.0917757
6.7978487 -5.9238763 -2.0816972
7.9114761 -6.8967581 -2.0401299
9.2544508 -8.0731716 -1.9451064
11.365324 -9.9215927 -1.8524141
13.959566 -12.190581 -1.6214453
18.347765 -16.033993 -1.2769974
5.8693223 -5.1472573 -2.0917757
6.7859178 -5.9552822 -2.0843966
7.8844032 -6.9217424 -2.0393667
9.2321491 -8.1106405 -1.9463578
11.263532 -9.9022236 -1.8414459
13.892991 -12.218184 -1.6186564
18.305176 -16.109814 -1.2779396
5.857111 -5.1728292 -2.0938461
6.7665486 -5.9802232 -2.0848465
7.85431 -6.9440198 -2.0378401
9.2378092 -8.172924 -1.9535539
11.34483 -10.044119 -1.8604575
13.899476 -12.310197 -1.6244087
18.00071 -15.953707 -1.260564
5.8332453 -5.188107 -2.0917757
6.7514553 -6.0089879 -2.0866458
7.8446865 -6.9844499 -2.0416565
9.181201 -8.1801519 -1.9476093
11.366004 -10.133859 -1.8697196
13.789511 -12.298964 -1.6165646
18.019417 -16.082943 -1.2657975
26.260971 -23.455288 -0.614604
5.8194165 -5.2123041 -2.0933285
6.7304387 -6.0325189 -2.0866458
7.8144112 -7.0065475 -2.0401299
9.1540623 -8.2134695 -1.9479222
11.386689 -10.223868 -1.8789817
13.742048 -12.343029 -1.6160418
17.945339 -16.129723 -1.2645415
5.8112283 -5.241643 -2.096952
6.7035542 -6.0507531 -2.0848465
7.7957354 -7.0390449 -2.0416565
9.160512 -8.2771578 -1.9554311
11.219886 -10.145061 -1.857289
13.67376 -12.3682 -1.6130785
18.099195 -16.382589 -1.2794049
5.800046 -5.2683911 -2.0995402
6.6809502 -6.0728059 -2.0843966
7.7638545 -7.0596113 -2.0397482
9.1432514 -8.3197184 -1.957934
11.153582 -10.156097 -1.8521705
13.6688 -12.45074 -1.6176106
17.904623 -16.320536 -1.2696704
5.7759185 -5.2833891 -2.0974696
6.6582747 -6.0947733 -2.0839467
7.7319241 -7.080039 -2.0378401
9.1228933 -8.3595905 -1.9598112
10.960048 -10.050074 -1.8258467
13.500456 -12.383899 -1.6027942
17.879915 -16.412651 -1.2719731
5.7403908 -5.2878113 -2.0912578
6.6527195 -6.1325059 -2.0888956
7.7129359 -7.1123095 -2.0393667
9.0878506 -8.3860264 -1.9585598
10.900405 -10.062127 -1.8214594
13.517148 -12.486375 -1.6099408
17.778517 -16.434292 -1.268833
28.841019 -26.669699 -0.68567014
5.7313228 -5.3147006 -2.0943637
6.6223478 -6.1452556 -2.085746
7.6893086 -7.1378469 -2.0393667
9.0368357 -8.3946066 -1.9535539
10.917873 -10.145514 -1.8299903
13.5209 -12.573193 -1.6153444
17.680059 -16.452339 -1.2656929
5.7249656 -5.344223 -2.098505
6.5962372 -6.1618614 -2.0839467
7.6758199 -7.1753702 -2.0424197
9.0118332 -8.4272251 -1.9541795
10.911381 -10.21069 -1.834865
13.536554 -12.676148 -1.6224912
17.51759 -16.415625 -1.2581565
27.252426 -25.547012 -0.65202188
5.7151909 -5.3744345 -2.1021285
6.5792851 -6.1913376 -2.085746
7.6437521 -7.198071 -2.0408931
8.9377489 -8.4195642 -1.9447935
10.873884 -10.250613 -1.834865
13.443625 -12.681928 -1.6169132
17.357094 -16.385118 -1.2509341
27.586052 -26.050375 -0.6622839
5.6786242 -5.3794026 -2.0959167
6.5565486 -6.2154102 -2.085746
7.6086073 -7.2152529 -2.0382218
8.9641466 -8.5066566 -1.9573083
10.818966 -10.273996 -1.8319401
13.423832 -12.752105 -1.6198766
17.357695 -16.500648 -1.255121
27.351297 -26.018993 -0.65893304
5.6570168 -5.3965254 -2.0948815
6.5334024 -6.2369137 -2.0852964
7.5933142 -7.2512589 -2.0408931
8.9315414 -8.5351667 -1.9566824
29.110165 -27.827999 4.9447269
10.761518 -10.291119 -1.828284
13.374918 -12.794755 -1.6193538
17.324518 -16.584618 -1.2569004
28.559933 -27.359299 -0.69034743
5.6381445 -5.4162388 -2.0948815
6.5115924 -6.2596807 -2.0852964
7.567956 -7.2777195 -2.0408931
8.8988466 -8.5635509 -1.9560568
10.729818 -10.332751 -1.8290153
13.308652 -12.82063 -1.616739
17.164429 -16.546574 -1.2494687
27.902971 -26.917366 -0.67673451
5.6317 -5.4479756 -2.0995402
6.4925027 -6.2850838 -2.0861959
7.5410957 -7.3027277 -2.0405114
8.8433666 -8.5698175 -1.9504251
10.685135 -10.361851 -1.8275528
12.500165 -12.126198 -1.5236566
17.096535 -16.596649 -1.248736
27.760075 -26.967224 -0.67554772
5.6029625 -5.4581642 -2.0959167
6.4691286 -6.3063488 -2.085746
7.5141525 -7.3276353 -2.0401299
8.8501558 -8.6365051 -1.9585598
10.616625 -10.363947 -1.8217031
13.250178 -12.943857 -1.6205739
17.164179 -16.779089 -1.2579472
28.208065 -27.584827 -0.68867201
5.5820732 -5.474009 -2.0948815
6.4467893 -6.3264012 -2.0852964
7.4814062 -7.3442607 -2.0378401
8.7495985 -8.5952044 -1.9426033
10.65016 -10.465882 -1.8334025
13.164563 -12.945816 -1.6153444
17.055775 -16.784082 -1.2540743
5.5570159 -5.4857035 -2.0922933
6.4396386 -6.3614402 -2.0897954
7.4598036 -7.3717904 -2.0386035
8.7182388 -8.6213942 -1.9419776
10.602273 -10.491824 -1.8314526
13.135721 -13.003417 -1.6170876
17.017048 -16.857416 -1.2553304
5.5529037 -5.5200491 -2.0979872
6.413249 -6.3797569 -2.0884457
7.4423747 -7.4060931 -2.0408931
8.6838932 -8.6475935 -1.9410391
10.531839 -10.495139 -1.8256029
13.023931 -12.983079 -1.6088949
16.883158 -16.841953 -1.2497828
5.5295057 -5.5352988 -2.0964344
6.3757954 -6.3869328 -2.0834966
7.4123182 -7.4278579 -2.0397482
8.6550493 -8.6792517 -1.941352
30.620625 -30.716972 5.3254471
10.490936 -10.52762 -1.8248718
13.069929 -13.120211 -1.6202252
16.731268 -16.807364 -1.2428744
5.5074291 -5.5518241 -2.0953991
6.354835 -6.4105344 -2.0839467
7.384963 -7.4522924 -2.0393667
8.6650085 -8.7501154 -1.9504251
30.482494 -30.792635 5.320085
10.441557 -10.551477 -1.822678
13.056281 -13.198332 -1.6242344
16.678114 -16.871346 -1.243293
30.554779 -30.930374 -0.7589004
5.4907274 -5.5737672 -2.0964344
6.3460898 -6.4465656 -2.0884457
7.3533959 -7.4724274 -2.0378401
8.6565733 -8.802844 -1.9554311
30.377602 -30.90168 5.3205719
10.396314 -10.579366 -1.8212155
12.976621 -13.209716 -1.6200509
16.623316 -16.933737 -1.2436072
29.746445 -30.323088 -0.74144804
5.461782 -5.5832329 -2.0928109
6.3194623 -6.4644971 -2.087096
7.3272672 -7.4980497 -2.0378401
8.6244116 -8.8315945 -1.9551181
30.288963 -31.027416 5.3239846
10.389823 -10.646848 -1.8265779
12.8873 -13.210719 -1.6146473
16.501369 -16.927303 -1.2388968
29.330645 -30.108751 -0.73369914
5.4543734 -5.6147346 -2.0974696
6.2941432 -6.4837198 -2.0861959
7.3092532 -7.5320349 -2.0401299
8.596283 -8.864481 -1.9557439
30.791185 -31.762943 5.4317174
10.380225 -10.71156 -1.8314526
12.889627 -13.305711 -1.6207482
16.436625 -16.979061 -1.2384782
5.4360824 -5.6351295 -2.0979872
6.271472 -6.5056515 -2.0861959
7.282917 -7.5575032 -2.0401299
8.5584364 -8.8873196 -1.9541795
10.397829 -10.804944 -1.8412023
12.866586 -13.375032 -1.6237115
16.380024 -17.039211 -1.2386875
30.535547 -31.786596 -0.76937193
5.416379 -5.6540709 -2.0979872
6.2473779 -6.5260959 -2.085746
7.2537775 -7.5800419 -2.0393667
8.5369177 -8.9271326 -1.9563696
31.117378 -32.551094 5.5292125
10.328506 -10.808164 -1.8355962
12.828077 -13.428506 -1.6247573
16.30114 -17.076059 -1.2372222
29.80327 -31.241879 -0.75366473
5.3966098 -5.6729431 -2.0979872
6.2339573 -6.5577502 -2.0888956
7.2245693 -7.6024709 -2.0386035
8.5138664 -8.9654732 -1.9582468
31.276901 -32.947453 5.57796
10.324877 -10.88015 -1.8416896
12.796208 -13.489104 -1.6266748
16.284029 -17.17779 -1.240467
5.3688159 -5.683321 -2.0948815
6.2070165 -6.5752201 -2.0875459
7.195292 -7.6247869 -2.0378401
8.4798079 -8.9922628 -1.9576212
31.570204 -33.489769 5.651082
10.295003 -10.924792 -1.843152
12.826917 -13.616354 -1.6366106
16.170576 -17.177811 -1.2363847
30.220192 -32.125008 -0.76986057
5.350266 -5.7034354 -2.0953991
6.1880245 -6.6011109 -2.0888956
7.1766877 -7.6584525 -2.0401299
8.4456673 -9.0189238 -1.9569954
10.282578 -10.988201 -1.8477831
12.701726 -13.57811 -1.6266748
16.15007 -17.276464 -1.2394203
15.411582 -16.498009 -0.39407536
5.3421755 -5.7347989 -2.1000578
6.1636171 -6.6212454 -2.0884457
7.1499114 -7.6834564 -2.0401299
8.4114437 -9.0454569 -1.9563696
10.300913 -11.085101 -1.8580201
12.544415 -13.504124 -1.6125555
16.099178 -17.342979 -1.240153
29.894545 -32.226711 -0.7672776
5.3181891 -5.7491574 -2.098505
6.1391444 -6.6412888 -2.0879958
7.1203828 -7.7054834 -2.0393667
8.3878584 -9.0834713 -1.9582468
10.229846 -11.085979 -1.8521705
12.63364 -13.695741 -1.6301609
15.916709 -17.266903 -1.2307324
29.895676 -32.454414 -0.77020961
5.290247 -5.75915 -2.0953991
6.1211958 -6.6684208 -2.0897954
7.0881324 -7.7245054 -2.0378401
8.3627748 -9.1199741 -1.9598112
10.126715 -11.05137 -1.840471
12.19548 -13.313695 -1.5796106
15.712045 -17.164722 -1.2195326
29.960369 -32.753338 -0.77481705
5.2701125 -5.7775812 -2.0953991
6.104445 -6.6969471 -2.0920448
7.0624475 -7.7506518 -2.0382218
8.3295593 -9.1476507 -1.9594984
10.049332 -11.044072 -1.8334025
12.167703 -13.37682 -1.5820509
15.815927 -17.399771 -1.2323025
29.988371 -33.014622 -0.77851695
5.2525063 -5.7988052 -2.0964344
31.79677 -35.116188 0.826895
6.0744929 -6.7109923 -2.0897954
7.04984 -7.7912707 -2.0424197
8.3002281 -9.1796007 -1.9601241
9.9814415 -11.046679 -1.8280404
12.372006 -13.697176 -1.6148217
15.665433 -17.355536 -1.2252895
30.119858 -33.381126 -0.78479981
5.2322326 -5.8171048 -2.0964344
6.0430841 -6.7209539 -2.0866458
7.0173521 -7.8099899 -2.0408931
8.2776613 -9.2158918 -1.9620013
10.01503 -11.158015 -1.8409585
12.038099 -13.421393 -1.5773447
15.64246 -17.446051 -1.228011
5.2309332 -5.8545918 -2.1036813
6.036459 -6.7609043 -2.0924947
6.9914141 -7.8332176 -2.0408931
8.2454414 -9.2447309 -1.9620013
10.010362 -11.231435 -1.8472956
12.29174 -13.795948 -1.6165646
15.582794 -17.502041 -1.2281157
5.1976447 -5.8583651 -2.098505
6.008944 -6.7775607 -2.091145
6.9614234 -7.8546362 -2.0401299
8.2249079 -9.2867641 -1.964817
9.9921455 -11.290093 -1.8511955
12.275194 -13.874583 -1.6207482
15.41842 -17.439615 -1.2199513
5.1797175 -5.8793716 -2.0995402
5.9826736 -6.7955694 -2.0902452
6.9365582 -7.881835 -2.0408931
8.1937466 -9.3169022 -1.96513
9.9579163 -11.330868 -1.8521705
12.249043 -13.942793 -1.6237115
15.414109 -17.557869 -1.2244521
5.1617064 -5.9003243 -2.1005754
5.9576344 -6.8149443 -2.0897954
6.9141712 -7.9119139 -2.0424197
8.1520786 -9.3350306 -1.9629399
9.9483232 -11.39996 -1.8577764
11.580788 -13.275305 -1.541262
14.314601 -16.4207 -1.1416566
23.177986 -26.606895 -0.61593032
5.1461468 -5.92414 -2.1026461
5.940196 -6.8430562 -2.0920448
6.8865108 -7.9360008 -2.0424197
8.1349735 -9.3813391 -1.9666944
9.8785696 -11.400112 -1.8521705
12.092704 -13.960199 -1.6158675
14.238894 -16.449427 -1.1401913
22.302649 -25.783234 -0.59505725
5.1254368 -5.9420671 -2.1026461
5.9162731 -6.8637495 -2.0920448
6.8613296 -7.962966 -2.0431828
8.1137762 -9.4231501 -1.9695101
9.8697891 -11.470638 -1.8580201
12.093271 -14.059724 -1.6224912
15.273665 -17.769817 -1.228011
22.376686 -26.052063 -0.5994553
5.1059203 -5.9613891 -2.1031637
5.8884768 -6.8799186 -2.0906951
6.8334923 -7.9868674 -2.0431828
8.0834017 -9.4544182 -1.9701359
9.8554792 -11.535206 -1.8628949
12.068705 -14.130637 -1.6258032
15.225808 -17.839737 -1.2291625
22.098749 -25.910915 -0.59442896
5.0825768 -5.976233 -2.1021285
5.87326 -6.9108253 -2.0938444
6.8081141 -8.0136642 -2.043946
8.0503502 -9.4825773 -1.9701359
9.8267117 -11.583161 -1.8650886
11.841471 -13.962984 -1.6017481
15.136326 -17.860777 -1.2269642
21.191425 -25.023464 -0.5723691
5.0616851 -5.993938 -2.1021285
5.8440728 -6.9253278 -2.0920448
6.7826309 -8.0403824 -2.0447092
8.0197477 -9.5136414 -1.9707617
9.8054018 -11.640165 -1.8687446
11.766994 -13.973753 -1.5982621
15.032738 -17.864603 -1.2236148
21.376789 -25.421749 -0.57976896
5.0419726 -6.0130506 -2.1026461
5.8173609 -6.942698 -2.091145
6.7570448 -8.0670185 -2.0454724
7.9928298 -9.5491524 -1.972326
9.808013 -11.726092 -1.8770318
11.825497 -14.143133 -1.6129041
14.887048 -17.817343 -1.2168112
21.416082 -25.649714 -0.58325946
5.0246606 -6.0350666 -2.1041989
5.7955832 -6.9659576 -2.0920448
6.7363772 -8.0996122 -2.0477622
7.9632354 -9.5815516 -1.9732646
9.7758999 -11.770947 -1.8787379
11.755692 -14.1598 -1.6101152
14.65388 -17.663223 -1.202785
21.423414 -25.841312 -0.58591223
4.9937167 -6.0406585 -2.1000578
5.7799201 -6.9966621 -2.0951941
6.7005625 -8.1139956 -2.0454724
7.9398012 -9.6214781 -1.9757676
9.737278 -11.808063 -1.8792255
11.764491 -14.271468 -1.6181334
14.891824 -18.078081 -1.2274876
21.292414 -25.866531 -0.5847953
4.9676971 -6.0520797 -2.0979872
5.7591701 -7.0213161 -2.0965438
6.6771784 -8.1434078 -2.046999
7.8999071 -9.6414948 -1.9742032
9.7437887 -11.900345 -1.8884875
11.761293 -14.369494 -1.624583
14.798283 -18.092848 -1.2249756
21.32095 -26.086241 -0.58807629
4.9489822 -6.0723782 -2.0990226
5.7260118 -7.0307999 -2.0933945
6.6511908 -8.1697102 -2.0477622
7.8612165 -9.6628828 -1.9729517
9.7071991 -11.940447 -1.8894625
11.711064 -14.41046 -1.624583
14.815617 -18.24362 -1.2316744
21.307884 -26.256779 -0.59024042
4.9277558 -6.0896163 -2.0990226
5.705111 -7.0552897 -2.0947442
6.6300368 -8.2020378 -2.0500519
7.8398519 -9.7056313 -1.9760804
9.6716948 -11.981981 -1.8906811
11.584371 -14.356667 -1.61395
14.827065 -18.388512 -1.2379549
20.887383 -25.923027 -0.58109534
4.901629 -6.1007566 -2.096952
5.6828876 -7.0781999 -2.095644
6.6001372 -8.2236004 -2.0496705
7.8133407 -9.7421846 -1.9779577
9.614913 -11.997081 -1.8877563
11.63758 -14.526075 -1.6284178
14.685395 -18.343489 -1.2314651
20.711819 -25.889597 -0.57872176
4.8851228 -6.1238699 -2.0990226
54.944309 -68.901505 1.5382552
5.6569314 -7.0964704 -2.0951941
6.5726147 -8.2481241 -2.0500519
7.7780561 -9.7678528 -1.9776447
9.5803919 -12.03989 -1.8892187
11.588045 -14.568169 -1.6285921
14.680928 -18.469687 -1.2364894
20.623812 -25.964869 -0.57879162
4.8553209 -6.1302843 -2.0953991
57.121487 -72.14695 1.6062497
5.6405911 -7.1268706 -2.0983434
6.5462198 -8.2740955 -2.0508151
7.7426867 -9.793395 -1.9773319
9.5346155 -12.068584 -1.8884875
11.47538 -14.530351 -1.6198766
14.58296 -18.478487 -1.2336632
20.424084 -25.898525 -0.57572001
4.8362803 -6.1502328 -2.0964344
5.6168842 -7.1480489 -2.0987935
6.5221491 -8.303072 -2.0523417
7.7084546 -9.820363 -1.9773319
9.5071325 -12.120538 -1.8914124
11.443031 -14.593838 -1.6224912
14.547935 -18.567011 -1.2361754
20.205347 -25.805916 -0.57208991
4.8147826 -6.1670771 -2.0964344
5.5835071 -7.1568556 -2.095644
6.4955406 -8.3288841 -2.0531049
7.6765566 -9.8503265 -1.9779577
9.4476891 -12.131722 -1.888
11.393241 -14.635263 -1.6226655
14.458508 -18.586153 -1.234082
20.051325 -25.794193 -0.57027483
4.7920432 -6.1823187 -2.0959167
5.5608778 -7.1793842 -2.0965438
6.4712353 -8.3577166 -2.0546315
7.6445427 -9.880187 -1.9785833
9.4064989 -12.166198 -1.8882437
11.307972 -14.630805 -1.6177849
14.408193 -18.655478 -1.2353381
19.606853 -25.404938 -0.56015241
4.7692552 -6.1974773 -2.0953991
5.5393462 -7.2033854 -2.0978935
6.4348435 -8.3709154 -2.0523417
7.618432 -9.9177771 -1.9807734
9.3591394 -12.192659 -1.8872689
11.319901 -14.752381 -1.6268491
14.359999 -18.727848 -1.2368035
19.357512 -25.263697 -0.55554497
4.7429018 -6.2079477 -2.0933285
5.5236287 -7.2350683 -2.1014926
6.4067755 -8.394887 -2.0527232
7.5753808 -9.9333143 -1.9785833
9.3225374 -12.23315 -1.8884875
11.316632 -14.855202 -1.6338215
14.270344 -18.746073 -1.23471
19.249836 -25.305651 -0.55498654
4.7223697 -6.2260046 -2.0938461
5.4971628 -7.2527528 -2.1010427
6.3798037 -8.4203291 -2.0534863
7.5382767 -9.9565477 -1.9779577
9.2905588 -12.279864 -1.8906811
11.253893 -14.880311 -1.6322527
14.22168 -18.818079 -1.2361754
19.315639 -25.576946 -0.55945432
4.7040949 -6.2470808 -2.0953991
18.99884 -25.239796 0.55142623
5.4624391 -7.2594404 -2.0974436
6.3574533 -8.4519615 -2.0557761
7.5117831 -9.9938536 -1.9801477
9.2452526 -12.309046 -1.8901937
11.09063 -14.771331 -1.6160418
14.239809 -18.979441 -1.2435024
18.722435 -24.972233 -0.54479432
4.6787901 -6.2588205 -2.0938461
18.850769 -25.225868 0.54968101
5.4463954 -7.2909532 -2.1010427
6.3232136 -8.4678097 -2.0542498
7.4792156 -10.023181 -1.9807734
9.1903648 -12.325327 -1.8877563
11.124729 -14.924969 -1.6285921
14.147226 -18.993792 -1.2411997
19.888798 -26.721783 -0.58144438
4.6511574 -6.2673578 -2.0912578
18.633923 -25.118067 0.54591125
5.4209118 -7.3099198 -2.1010427
6.2877707 -8.4819441 -2.0523417
7.4465342 -10.052401 -1.9813992
9.152009 -12.363716 -1.8887312
11.067823 -14.957305 -1.627895
14.049965 -19.001307 -1.2384782
19.80253 -26.800694 -0.58165383
4.6246686 -6.2773347 -2.0891874
18.401466 -24.986519 0.54165286
5.3999839 -7.3350759 -2.1028426
18.871084 -25.642935 1.6685752
6.2685981 -8.5180721 -2.0557761
7.4113998 -10.078333 -1.9813992
9.111146 -12.398786 -1.8892187
10.997853 -14.971761 -1.6252803
13.997734 -19.069553 -1.2397343
19.744341 -26.918026 -0.58270091
4.6050096 -6.2965574 -2.0902226
18.333015 -25.076426 0.54221135
5.3708973 -7.3491602 -2.1014926
6.2480912 -8.5525837 -2.0588293
7.376174 -10.104142 -1.9813992
9.0596218 -12.419289 -1.8875126
10.996002 -15.079282 -1.6327757
13.948727 -19.142509 -1.2413043
19.77503 -27.15814 -0.58640087
4.5875421 -6.3188467 -2.0922933
18.243023 -25.137033 0.54214156
5.3452115 -7.3678627 -2.1014926
6.2158933 -8.5711622 -2.0580659
7.3443365 -10.134627 -1.9823378
9.0115576 -12.444405 -1.8865376
10.957319 -15.136942 -1.6348674
13.857241 -19.157099 -1.2391062
19.677767 -27.223759 -0.58633101
4.5620685 -6.3301201 -2.0907402
18.18556 -25.242744 0.5430491
5.3228769 -7.391221 -2.1028426
17.707302 -24.58794 1.5879778
6.1836429 -8.5896215 -2.0573027
7.3054552 -10.155391 -1.9813992
8.9634295 -12.469337 -1.8855627
10.941618 -15.226873 -1.6404454
13.757668 -19.159927 -1.2361754
14.578012 -20.309881 -0.43637997
4.5399446 -6.3460059 -2.0907402
14.711308 -20.563698 0.44133648
5.2983375 -7.4088316 -2.1028426
17.684088 -24.737339 1.59363
6.1513391 -8.6079588 -2.0565395
18.000639 -25.198732 2.7093234
7.2694426 -10.176347 -1.9807734
8.9220304 -12.498994 -1.8855627
10.832865 -15.187116 -1.6320785
13.837837 -19.407095 -1.2491548
17.435818 -24.471209 -0.52447975
4.5188751 -6.3610268 -2.0907402
14.609334 -20.572535 0.44042894
5.2814679 -7.4399939 -2.1064417
17.606876 -24.811949 1.5944674
6.1182156 -8.6219072 -2.0550129
17.887007 -25.216034 2.7047913
7.2338758 -10.20166 -1.9807734
8.8794937 -12.531681 -1.8858064
10.767471 -15.201818 -1.6298124
13.778086 -19.466692 -1.2498875
14.72223 -20.816051 -0.44503638
4.4944172 -6.3736038 -2.089705
14.537433 -20.623405 0.44042894
5.2543426 -7.4567914 -2.1059918
17.543161 -24.90591 1.5965608
6.0926042 -8.6496305 -2.0565395
17.791994 -25.268543 2.7037454
7.1925364 -10.218771 -1.9792091
8.8391218 -12.567471 -1.8865376
10.709759 -15.232792 -1.6291151
13.704309 -19.506496 -1.2493641
17.23468 -24.549784 -0.52357221
4.4776807 -6.3971667 -2.0922933
14.453892 -20.65764 0.4400799
5.2204633 -7.4639082 -2.1028426
17.456118 -24.966997 1.5965608
6.0634999 -8.6724539 -2.056921
17.705963 -25.333761 2.7040939
7.150034 -10.234099 -1.9773319
8.7940636 -12.596621 -1.8862939
10.699849 -15.332172 -1.635739
13.64299 -19.564043 -1.2499921
13.934037 -19.996277 -0.42541987
4.4531183 -6.4095845 -2.0912578
14.201468 -20.44846 0.43456492
5.2043791 -7.4964924 -2.1068916
17.37797 -25.040907 1.5973982
6.0343089 -8.6951799 -2.0573027
17.86727 -25.755562 2.7424426
7.1187696 -10.265489 -1.9785833
17.926321 -25.859955 3.8635023
8.7455158 -12.620713 -1.8853189
10.630383 -15.346498 -1.6332986
13.584847 -19.626328 -1.2509341
13.818652 -19.979008 -0.42402369
4.4318147 -6.4266806 -2.0917757
13.982462 -20.283875 0.43002731
5.1781797 -7.5146136 -2.1068916
14.528243 -21.091373 1.3422081
5.9994659 -8.7097235 -2.0557761
17.806637 -25.860437 2.7469747
7.0873723 -10.296783 -1.9798348
17.896706 -26.010681 3.8766642
8.7036581 -12.654436 -1.8858064
10.615817 -15.44611 -1.6397481
13.561494 -19.739473 -1.255121
13.762408 -20.046906 -0.42444253
4.4016848 -6.4333148 -2.0886698
13.886729 -20.296249 0.42925939
5.1475172 -7.5262094 -2.105092
14.371116 -21.019949 1.3344623
5.9741492 -8.7413778 -2.0580659
14.472618 -21.18428 2.2446089
7.0451293 -10.316166 -1.9785833
17.81028 -26.07955 3.8776391
8.660553 -12.68638 -1.8860501
10.51468 -15.413942 -1.6324271
13.439558 -19.716433 -1.2505155
13.692348 -20.094824 -0.42444253
4.3770308 -6.4454436 -2.0876343
13.859418 -20.416498 0.43072537
5.122086 -7.5482507 -2.1059918
13.76832 -20.289923 1.2850572
5.9413958 -8.7589293 -2.0573027
14.418709 -21.264351 2.2477465
6.9946685 -10.319439 -1.974516
8.6229019 -12.731185 -1.888
10.517778 -15.534692 -1.6413169
13.407585 -19.817816 -1.2539697
14.119507 -20.877962 -0.43994027
4.3609838 -6.4702945 -2.0907402
13.744698 -20.392702 0.42925939
5.0948491 -7.5619621 -2.105092
13.70299 -20.346142 1.2855805
5.9085922 -8.7763586 -2.0565395
14.315473 -21.271576 2.2432144
6.9692326 -10.355687 -1.977019
8.5739899 -12.749826 -1.8865376
10.465711 -15.574619 -1.6416655
13.406384 -19.958328 -1.2600405
14.166905 -21.10644 -0.44371
4.338429 -6.4831147 -2.0902226
13.73347 -20.53031 0.43114424
5.0662556 -7.5764604 -2.104192
13.797262 -20.64126 1.3011767
5.8794565 -8.7959042 -2.0565395
14.273634 -21.362001 2.2477465
6.9341393 -10.381595 -1.9773319
8.521719 -12.76812 -1.8848314
10.484776 -15.715313 -1.6528214
13.329989 -19.995033 -1.2594125
13.487821 -20.247089 -0.42465195
4.3168411 -6.4998288 -2.0907402
13.646236 -20.5548 0.43065557
5.0483985 -7.607089 -2.1077914
13.778124 -20.769184 1.306201
5.8465466 -8.8131018 -2.0557761
14.174756 -21.375166 2.2439117
6.8978581 -10.405735 -1.9773319
8.4770975 -12.797789 -1.8848314
10.400155 -15.706962 -1.6481152
13.252398 -20.029781 -1.2586799
13.33766 -20.173946 -0.42213881
4.2919993 -6.511632 -2.089705
13.71523 -20.816046 0.43512341
5.0218143 -7.6246648 -2.1077914
13.760454 -20.90056 1.3114345
5.8114295 -8.8268976 -2.0542498
14.089103 -21.407873 2.2421687
6.854979 -10.419847 -1.9754546
8.4334641 -12.82896 -1.8850751
10.40763 -15.838078 -1.6580508
13.172534 -20.060894 -1.2577379
13.24412 -20.18527 -0.42140582
4.2681866 -6.5249572 -2.0891874
13.765057 -21.051245 0.43903276
4.9930358 -7.6388841 -2.1068916
13.857837 -21.209297 1.3277633
5.7870245 -8.8569908 -2.0565395
13.975069 -21.396872 2.2358935
6.8131661 -10.435444 -1.9738904
13.998896 -21.449705 3.1449606
8.3973083 -12.871621 -1.8870251
10.238007 -15.69908 -1.6397481
13.113332 -20.123487 -1.2587845
13.198676 -20.269918 -0.42220864
4.2453842 -6.5398164 -2.0891874
13.530388 -20.850901 0.43386683
4.9663405 -7.6562672 -2.1068916
13.85109 -21.361441 1.334253
5.7603455 -8.8837252 -2.0580659
13.839608 -21.351896 2.2261319
6.7766991 -10.459163 -1.9738904
8.3577213 -12.909185 -1.8882437
10.152835 -15.687888 -1.6348674
13.016977 -20.128887 -1.2562724
13.514211 -20.913788 -0.43463475
4.2277608 -6.562716 -2.0917757
13.457522 -20.898003 0.43386683
4.94064 -7.6751952 -2.1073413
13.380883 -20.794931 1.295943
5.7250514 -8.8971748 -2.0565395
13.633495 -21.195642 2.2048659
6.7422843 -10.486076 -1.974516
8.2911482 -12.904879 -1.883369
9.9440479 -15.4835 -1.6099408
12.97576 -20.219587 -1.2590985
13.108658 -20.442369 -0.42388406
4.2048273 -6.5774336 -2.0917757
13.285428 -20.789829 0.43065557
4.9138184 -7.6923947 -2.1073413
13.439347 -21.046881 1.308713
5.6855063 -8.9038677 -2.0534863
13.516548 -21.175926 2.1978934
6.7077646 -10.512877 -1.9751418
8.2428503 -12.92872 -1.8826377
9.9220648 -15.568522 -1.6151702
12.928703 -20.301821 -1.2614013
12.998572 -20.427269 -0.42262748
4.1756325 -6.582284 -2.0886698
13.152805 -20.741507 0.42870092
4.8931975 -7.7193747 -2.1100409
13.295244 -20.982317 1.3018047
5.660696 -8.93361 -2.0557761
13.476663 -21.27684 2.2034714
6.6646867 -10.526215 -1.9732646
8.1966095 -12.955738 -1.8823941
9.9613733 -15.751245 -1.6305095
12.889769 -20.397476 -1.2645415
13.228267 -20.949327 -0.43247062
4.1546893 -6.6000886 -2.089705
13.022816 -20.695896 0.42681605
4.8641472 -7.73311 -2.1091411
13.20491 -21.001547 1.3001299
5.6273875 -8.9499912 -2.0550129
13.501971 -21.482319 2.2198567
6.6236987 -10.542724 -1.9720131
8.1481676 -12.979226 -1.8816628
9.8862076 -15.753858 -1.6271976
12.823795 -20.450808 -1.2650648
13.104095 -20.91404 -0.43079522
4.1357193 -6.6211047 -2.0917757
12.965321 -20.764975 0.42730471
4.8360915 -7.7483883 -2.1086912
13.150554 -21.078011 1.302014
5.6044264 -8.9829044 -2.0580659
13.439554 -21.549604 2.2219484
6.5889492 -10.569133 -1.9726388
8.0975637 -12.999165 -1.880444
9.8448477 -15.810259 -1.6294638
12.781872 -20.542927 -1.2679956
13.009896 -20.925686 -0.4300971
4.1186881 -6.6453538 -2.0948815
12.970692 -20.935898 0.42988768
4.8120928 -7.7701921 -2.1100409
13.16941 -21.27323 1.3112252
5.5668354 -8.9923973 -2.0557761
6.5468192 -10.583669 -1.9710745
8.0500526 -13.023973 -1.8799566
9.8869944 -16.002157 -1.6456746
12.730023 -20.619709 -1.2699844
12.791888 -20.736109 -0.42528024
4.0893946 -6.6498165 -2.0917757
12.767677 -20.769806 0.42555946
4.7900414 -7.7952442 -2.1122904
13.333411 -21.707092 1.3350904
5.5354123 -9.011775 -2.0557761
6.5129352 -10.611508 -1.9720131
8.0035038 -13.050303 -1.8797129
9.8883486 -16.129997 -1.6552618
12.699699 -20.732145 -1.2741712
12.830086 -20.961426 -0.42898017
4.0591145 -6.6525068 -2.0881522
13.249055 -21.722479 0.44412884
4.7699037 -7.8235636 -2.1154397
13.247164 -21.736448 1.3340436
5.503921 -9.0310421 -2.0557761
6.4737988 -10.630803 -1.9713873
7.9671874 -13.093423 -1.8819065
9.8174887 -16.140585 -1.6528214
12.645926 -20.807072 -1.2760555
12.758916 -21.009501 -0.42904997
4.0358682 -6.666635 -2.0881522
13.245619 -21.888351 0.44657218
4.7375221 -7.8318295 -2.1131902
13.181541 -21.799646 1.3350904
5.4804897 -9.0636396 -2.0588293
6.4335885 -10.648264 -1.9704487
7.9214358 -13.121153 -1.8819065
9.8671179 -16.350456 -1.6707755
12.634068 -20.952 -1.2822311
12.640092 -20.978544 -0.42751414
4.0225191 -6.6972432 -2.0933285
13.165016 -21.927599 0.44643256
4.7101545 -7.8483186 -2.1131902
5.4518495 -9.0877657 -2.059974
6.3973942 -10.672351 -1.9707617
7.8755851 -13.148724 -1.8819065
9.8171482 -16.396767 -1.6719956
12.584439 -21.035393 -1.2846385
12.67965 -21.211346 -0.43135369
3.9991164 -6.7112436 -2.0933285
13.282827 -22.299841 0.45306447
4.6827302 -7.8647127 -2.1131902
5.4180856 -9.1033669 -2.0592108
6.3621206 -10.698012 -1.9713873
7.8306546 -13.177843 -1.8821504
9.8249741 -16.540564 -1.6831516
12.55273 -21.149609 -1.2889301
12.685092 -21.389635 -0.43407628
3.9736989 -6.7218366 -2.0922933
4.6631775 -7.8944345 -2.1167896
5.3842788 -9.1188421 -2.0584474
6.3217282 -10.715052 -1.9704487
7.7805743 -13.198256 -1.8811754
9.801569 -16.633121 -1.6890783
12.450451 -21.145109 -1.2859992
12.70335 -21.583237 -0.43714786
3.9463029 -6.7290001 -2.0902226
4.6369739 -7.9098539 -2.1167896
5.3494391 -9.1324987 -2.0573027
6.2851634 -10.734251 -1.9701359
7.7407742 -13.23084 -1.8821504
9.7776356 -16.725716 -1.6950049
12.388325 -21.200077 -1.2868366
12.763049 -21.85885 -0.44182515
3.9278536 -6.7487283 -2.0922933
4.6161928 -7.9377847 -2.1199389
5.3240585 -9.1586752 -2.0592108
6.2496395 -10.759542 -1.9707617
7.69554 -13.259495 -1.8823941
9.7461128 -16.799406 -1.6991882
12.312244 -21.239735 -1.2866273
12.634551 -21.813288 -0.44001007
3.9042721 -6.7623982 -2.0922933
4.5894299 -7.9555378 -2.1203887
5.295979 -9.1840067 -2.0607371
6.2120438 -10.781291 -1.9707617
7.6442561 -13.277675 -1.8811754
9.7112637 -16.874769 -1.7033718
12.283828 -21.362226 -1.2914422
12.572278 -21.881535 -0.44049874
3.8835239 -6.781014 -2.0938461
4.5664721 -7.9799652 -2.1226382
5.2629132 -9.2007322 -2.0603557
6.1753516 -10.804625 -1.9710745
7.5968771 -13.302554 -1.8809316
9.7006998 -16.993351 -1.711913
12.237882 -21.455288 -1.2944777
17.274332 -30.30971 -0.60894936
3.8579218 -6.7911696 -2.0928109
4.5405126 -7.9992471 -2.123538
5.2239828 -9.2070951 -2.0576842
6.1405225 -10.83127 -1.9720131
7.5494175 -13.327264 -1.880688
9.6619377 -17.063517 -1.7155735
12.165864 -21.503092 -1.2947917
17.003099 -30.077366 -0.60308534
