# .PCD v0.7 - Point Cloud Data file format
VERSION 0.7
FIELDS x y z
SIZE 4 4 4
TYPE F F F
COUNT 1 1 1
WIDTH 1556
HEIGHT 1
VIEWPOINT 0 0 0 1 0 0 0
POINTS 1556
DATA ascii
-0.333859 8.1701355 1.5894389
-0.33155778 8.1838408 1.8909385
-0.32900909 8.1561232 -0.14248145
-0.32825992 8.1728706 2.1916797
-0.31639588 8.1617384 -2.1885738
-0.31643024 8.1626244 0.14258616
-0.37318408 9.6702452 -2.2342138
-0.31388909 8.1707516 0.42852688
-0.41960236 10.972462 -2.1343896
-0.31073353 8.1628857 0.7146771
-0.68903005 18.184122 -2.882149
-0.30967933 8.1727161 1.0042036
-0.30084595 7.9763851 -0.98007339
-0.30688125 8.1742773 1.2955904
-0.93757337 25.09058 -2.1966732
-0.3039135 8.1713047 1.5894389
-0.30149034 8.183054 1.8904886
-0.29993942 8.1797581 2.1932325
-0.28756541 8.1531401 -2.1859856
-1.8524762 52.783459 0.92190593
-0.33739588 9.6618118 -2.2319643
-0.38839123 11.177916 -2.174078
-0.2718941 7.9047337 -1.2527274
-0.27134061 7.9694982 -0.97909838
-0.85206938 25.15543 -2.2020769
-0.27611363 8.1938992 1.5936368
-1.2424474 37.06229 -1.9434437
-0.27324691 8.1937952 1.8927382
-1.7060328 51.427872 -0.89817065
-0.2701501 8.1865959 2.1947856
-0.25934717 8.1618176 -2.1880562
-0.30404168 9.6746159 -2.2346637
-1.5879995 50.813427 2.664319
-0.3482025 11.141919 -2.1668272
-1.5992317 51.460495 4.5043831
-0.5648185 18.277338 -2.8962278
-1.6829039 54.76865 6.7279196
-0.24279061 7.9465871 -0.97617352
-0.76669258 25.237909 -2.2090495
-1.1113799 37.010506 -1.9405129
-1.9353825 64.829086 14.973642
-1.5134653 50.993778 -0.8904916
-0.23047103 8.1491556 -2.184433
-1.4420198 51.303925 0.89586693
-0.27010334 9.669775 -2.233314
-1.4210228 51.194 2.6839976
-0.30854219 11.115591 -2.1614842
-1.42136 51.529495 4.5099611
-0.50138932 18.293022 -2.8984182
-1.4901878 54.718636 6.7210946
-0.21451508 7.9275417 -0.97373611
-0.67917347 25.262341 -2.2109668
-0.98017687 36.938286 -1.9365352
-1.3402569 51.182663 -0.89370286
-1.7171839 66.01609 17.694941
-0.20193362 8.1460485 -2.1833978
-1.2618308 51.264664 0.89509904
-0.23658334 9.6803999 -2.2355635
-1.2407018 51.130764 2.6804388
-0.26846144 11.063608 -2.1511807
-0.43856579 18.338106 -2.9053011
-1.3224877 55.703861 6.8415022
-0.18800858 7.9778562 -0.97982955
-1.3286997 56.802223 8.9990501
-0.59149307 25.286469 -2.2128842
-1.4539458 62.622719 12.175904
-0.8524186 36.993401 -1.9392567
-1.1646174 51.318974 -0.89600658
-1.4692332 65.245277 17.486851
-0.1730839 8.1273899 -2.1782212
-1.0792309 51.096821 0.89209718
-0.2027114 9.677269 -2.2346637
-1.0544028 50.759377 2.6607604
-0.22918528 11.033072 -2.1450748
-1.1405801 55.374691 4.845685
-0.37467608 18.345449 -2.9062397
-1.1477139 56.680637 6.9609337
-0.41513434 20.680496 -2.5397573
-0.50457639 25.356108 -2.218811
-1.237262 62.725555 12.194985
-0.7216329 36.912281 -1.9348605
-0.98553675 51.326721 -0.89607638
-1.2426344 65.311821 17.503416
-0.14485224 8.1356707 -2.1802919
-0.90371811 51.260227 0.89488959
-0.1688596 9.6740217 -2.2337639
-0.88971609 51.485649 2.6986516
-0.19393009 11.22225 -2.1817102
-0.95413285 55.776752 4.880547
-0.31109947 18.374296 -2.91062
-0.9493739 56.656509 6.9575214
-0.34391212 20.739378 -2.5468256
-0.41592643 25.349745 -2.2181137
-0.59229285 36.882622 -1.9331858
-0.81119061 51.637768 -0.90145171
-1.0201522 65.667313 17.597626
-0.1164504 8.1361265 -2.1802919
-0.72493702 51.275063 0.89509904
-0.13514638 9.6784487 -2.2346637
-0.71506029 51.208729 2.6839976
-0.15431985 11.191449 -2.1756043
-0.76212734 55.978966 4.8979783
-0.24685703 18.367371 -2.9093685
-0.75998509 57.29068 7.0350304
-0.27486691 20.720554 -2.5443883
-0.32821411 25.41081 -2.2233431
-0.46233037 36.788605 -1.9281615
-0.64712065 52.220039 -0.91157413
-0.80350071 65.763054 17.622473
-0.089534722 8.1422625 -2.1818447
-0.5544951 51.241199 0.89447075
-0.10307344 9.6807938 -2.2351139
-0.11558487 11.036811 -2.1454566
-0.57278186 55.622574 4.8666019
-0.18595095 18.368088 -2.9093685
-0.57032561 57.32465 7.0389304
-0.20667118 20.772963 -2.5507255
-0.24364606 25.379881 -2.2205539
-0.34032223 36.789936 -1.9281615
-0.46828568 51.594021 -0.90061402
-0.57329071 64.40152 17.257019
-0.062442254 8.1309233 -2.1787388
-0.40541074 54.018257 0.94291866
-0.064025052 8.7340193 -2.0164614
-0.36776254 51.392155 2.6934178
-0.079234667 11.072471 -2.1523256
-0.38583502 55.265549 4.8352265
-0.12514162 18.384407 -2.9118714
-0.13423014 20.785469 -2.5521882
-0.1592121 25.338711 -2.2168934
-0.3730768 61.071777 11.871373
-0.21761674 36.671028 -1.9218811
-0.28620666 51.243397 -0.89447075
-0.03406946 8.1330242 -2.1792564
-0.033426832 8.704958 -2.0097127
-0.19280501 52.607452 2.7570586
-0.041027199 11.194401 -2.1759858
-0.060958065 18.380779 -2.9112456
-0.061914489 20.865215 -2.5619376
-0.071196303 25.492525 -2.2303154
-0.089539267 36.63961 -1.9202064
-0.14354055 63.267639 14.606523
-0.1075027 51.332069 -0.89600658
-0.0056842747 8.1427526 -2.1818447
-0.027836336 53.167896 0.92804915
-0.0031133245 8.90769 -2.0565026
-0.0019439603 11.139505 -2.1653006
0.0032007052 18.388783 -2.912497
0.018164631 52.039196 6.3896103
0.010955818 20.924856 -2.5692496
0.043727137 62.637207 9.9207621
0.01781591 25.520512 -2.2327559
0.038325313 36.599754 -1.918113
0.077273227 63.252159 14.602922
0.072473601 51.908047 -0.90605915
0.10318121 65.690605 17.601767
0.022780715 8.1581783 -2.1859856
0.15803988 53.267651 0.92979437
0.028190851 8.9739037 -2.071799
0.17086758 51.529003 2.7005355
0.036820658 11.104106 -2.1584315
0.067828797 18.507181 -2.9312694
0.19914302 51.860157 6.3676739
0.084008656 20.928661 -2.5697372
0.10691867 25.526272 -2.2332788
0.2649518 60.718952 11.802682
0.16598372 36.579422 -1.9170662
0.33156234 65.504387 17.552073
0.051183384 8.1464567 -2.1828799
0.3326796 51.515079 0.89921778
0.35094297 51.560047 2.7022104
0.076340333 11.215813 -2.1801836
0.062436473 8.7250166 -1.3819423
0.37998638 51.839294 6.3652363
0.1576345 21.003672 -2.5789993
0.19659425 25.599459 -2.2397282
0.48117429 61.267357 11.909535
0.29355019 36.562645 -1.9162289
0.5272311 64.271194 14.838672
0.56029862 65.51442 17.55518
0.079546168 8.1385031 -2.1808095
0.51390511 51.653576 0.9016611
0.097724326 9.6535645 -2.2288151
0.11508901 11.176215 -2.1725514
0.19663204 18.468725 -2.9253249
0.56095076 51.837654 6.3652363
0.095145606 8.6524954 -1.0624571
0.67408782 60.34597 9.5584593
0.28639153 25.63846 -2.2432144
0.69950497 61.657925 11.985858
0.42123157 36.565388 -1.9164381
0.74700522 63.879234 14.748691
0.79016393 65.60865 17.58106
0.10790139 8.1343117 -2.179774
0.69363362 51.611477 0.90096301
0.11829178 8.6886263 -2.0061135
0.70243436 50.941242 2.6699715
0.15434718 11.193412 -2.1759858
0.714935 51.201416 4.4799795
0.26157838 18.501505 -2.9306436
0.72696507 50.791325 6.2370296
0.30511653 21.061604 -2.5863113
0.1265337 8.6301041 -0.75511736
0.91759771 61.847492 12.023257
0.54860115 36.547722 -1.9156008
0.97443628 64.168518 14.816177
0.80840093 52.629772 -0.91876447
0.13619986 8.1280909 -2.1782212
0.14848076 8.6803675 -2.0043139
0.87871909 50.850613 2.6653657
0.19501045 11.285065 -2.1939218
0.88894153 50.927681 4.4562731
0.32715616 18.557758 -2.9397171
0.92558849 51.987289 6.3842478
0.37756854 21.00087 -2.5789993
1.0330791 56.907158 9.0146933
0.46607405 25.673685 -2.2465265
1.1025276 60.155796 11.695065
0.15861718 8.5727654 -0.44935656
1.1984375 64.164726 14.816177
0.16492549 8.144948 -2.1828799
1.1208142 54.880196 0.95813709
1.0488116 50.919308 2.6691341
0.23269205 11.201877 -2.1778939
1.0648602 50.836624 4.4486036
0.39214629 18.566376 -2.9412811
1.1037694 51.828938 6.3652363
0.45031455 20.973623 -2.5758307
0.55549902 25.663935 -2.2458291
1.3123484 60.143726 11.69354
0.80373895 36.542999 -1.9156008
0.18933609 8.5406017 -0.14911337
0.2348472 10.510514 2.8169866
0.19325837 8.140461 -2.1818447
0.20208614 8.5123053 0.1486247
0.23072314 9.6474028 -2.2279153
0.27240387 11.226511 -2.1828551
1.2413467 50.792759 4.445117
0.45309019 18.539303 -2.9372139
1.2808993 52.039314 6.3915601
0.52103955 21.019644 -2.5816805
1.3256354 53.103313 8.4133596
0.64713913 25.743502 -2.2529759
1.5137464 60.217552 11.708804
0.92239863 36.440304 -1.9103674
1.6473546 63.760738 17.09034
0.2201498 8.1359129 -2.1808095
0.26536107 9.6816034 -2.2360134
0.23360439 8.4691515 0.44401827
0.31169096 11.300121 -2.1973565
0.23384589 8.4245625 0.73733753
0.5196268 18.60277 -2.9475386
0.2363096 8.4075155 1.0327208
0.59469479 21.027617 -2.5828991
0.73115104 25.693417 -2.2487924
1.0490106 36.416897 -1.9093206
0.3165842 10.923949 2.523051
0.2482553 8.1254406 -2.1782212
0.29836544 9.6552963 -2.2301648
1.5921608 51.232925 2.6863003
0.35174665 11.318586 -2.2011726
1.6017414 51.253105 4.4862547
0.58132893 18.498173 -2.9312694
0.2659089 8.4145756 1.0336958
0.6389066 20.106777 -2.4700482
0.26835021 8.3989668 1.3309445
0.82082802 25.690708 -2.2487924
0.27005139 8.4062462 1.6348516
1.1770353 36.44096 -1.9107859
2.1028421 64.064339 17.175232
0.27628648 8.1148701 -2.175633
1.8798461 54.931477 0.95939374
0.33227044 9.6600389 -2.2315145
0.39471078 11.417356 -2.2206352
0.6427899 18.407194 -2.9171903
1.7965233 51.189823 6.2891898
0.74392974 21.092388 -2.5914299
0.91635263 25.852949 -2.2632601
0.29715887 8.3424673 1.6226398
1.3030801 36.404697 -1.9091111
0.29973969 8.333271 1.9251312
0.300937 8.2860451 2.2217028
0.30475423 8.1177187 -2.1766684
2.0149183 53.421871 0.93314528
0.36591241 9.6568718 -2.2310646
0.42888975 11.266811 -2.1916323
1.9283007 50.424393 4.4147868
0.70407796 18.327856 -2.9049885
1.9686285 51.01265 6.2682281
0.81724936 21.081726 -2.5904548
0.45326155 11.639976 1.8449883
1.0051123 25.811768 -2.2599483
1.4295306 36.383957 -1.9082738
0.33293223 8.1127443 -2.175633
0.40010503 9.6672192 -2.2337639
0.47090366 11.329976 -2.2042258
2.0986426 50.28199 4.4029336
0.77475494 18.485151 -2.9303308
2.1548533 51.199833 6.2921147
0.89040977 21.068829 -2.5892363
2.1914041 51.639256 8.1862164
1.1007038 25.93749 -2.2712786
1.5575426 36.402691 -1.9095298
2.6650422 62.033539 14.334781
2.7623837 63.780178 17.105869
0.36090347 8.1038132 -2.1735625
0.43367529 9.661869 -2.2328641
0.51451266 11.418482 -2.2217801
2.2892859 50.608738 4.4322181
0.8385635 18.466547 -2.9278278
0.54987359 12.06279 1.4826626
0.96803737 21.154829 -2.6002045
2.3785479 51.781261 8.2099943
1.1914256 25.937471 -2.2716272
1.542219 33.320553 -1.7481257
2.860055 61.560555 14.227704
2.9830308 63.727695 17.094481
0.38993248 8.1179409 -2.1777036
0.4672085 9.6564045 -2.2319643
0.55532259 11.436224 -2.2255962
0.89683896 18.337233 -2.9078043
2.5167198 51.27475 6.3033271
1.0333138 21.052364 -2.5880175
1.2819515 25.933155 -2.2716272
1.6642729 33.430664 -1.7541968
3.0794785 61.858257 14.298789
3.2047768 63.925831 17.150385
0.41695175 8.1185322 -2.1782212
0.49832013 9.6372871 -2.2279153
2.6563582 51.372776 2.69593
0.59334832 11.436281 -2.2259779
0.65202701 12.525131 1.0972908
0.965882 18.491976 -2.9328337
2.6751175 51.04409 6.2760277
1.1130998 21.239132 -2.6114166
2.7198243 51.724899 8.2037373
1.3742348 26.048138 -2.2820859
3.095835 58.485928 11.384428
1.77132 33.353161 -1.7504287
3.4268692 64.103905 17.201115
0.44429177 8.1248217 -2.1802919
0.53081387 9.6453104 -2.2301648
0.71453506 12.942502 0.67932075
0.62693793 11.35584 -2.2107131
2.8027587 50.606846 4.43431
1.0298333 18.536007 -2.9403427
2.8613725 51.340176 6.3135638
1.1895438 21.276741 -2.6165349
2.9494872 52.590782 8.3426514
1.4637034 26.017321 -2.27982
3.2782838 58.271481 11.34474
1.8994459 33.658184 -1.7667575
3.7976213 67.085167 15.512626
3.5903666 63.034611 16.91745
0.47316548 8.1077089 -2.1761506
3.1325567 53.676479 0.93852061
0.56448162 9.6433983 -2.2301648
3.0317996 51.640091 2.7110028
0.66601354 11.310349 -2.2023175
1.0978769 18.534079 -2.9406552
1.2608687 21.222916 -2.6104414
3.1307092 52.540722 8.3363934
1.5644903 26.179117 -2.2944622
3.4894757 58.219883 11.337109
2.0254576 33.694855 -1.7690601
4.1607299 69.015999 15.962527
3.811326 63.037117 16.921591
0.50122738 8.1021519 -2.1751153
0.83875316 13.519945 0.2364452
0.5996995 9.6393204 -2.2297149
3.2272811 51.728294 2.7162364
0.71441704 11.450994 -2.2301757
1.1635607 18.545906 -2.9431584
3.330142 52.931061 6.5119672
1.3381416 21.21023 -2.6094666
3.3382149 52.765469 8.3739376
1.6522218 26.115833 -2.289407
2.1427855 33.683594 -1.7688508
2.8994815 45.328442 -0.7928279
0.5288744 8.0907145 -2.1725271
2.9714601 45.335808 0.79303735
0.6334691 9.6391125 -2.2301648
3.405452 51.680847 2.7143524
0.76096511 11.548341 -2.2496383
1.2275122 18.529903 -2.9412811
3.6940582 55.616863 6.8439388
1.4160019 21.262871 -2.6165349
3.5487151 53.147694 8.436512
1.7505476 26.217255 -2.2988198
2.2667794 33.771561 -1.773875
0.94473892 14.002028 -0.24496198
4.2643976 63.03907 16.929873
0.55658418 8.08111 -2.1704566
3.6732464 53.197212 0.93077171
0.6663025 9.6251774 -2.2274654
3.5792077 51.573006 2.7093279
0.79543006 11.461396 -2.2332287
3.6398671 52.315212 4.5880523
1.2936856 18.547184 -2.9447229
3.8009517 54.356068 6.6903839
1.492431 21.28948 -2.6204348
3.7153432 52.866989 8.393961
1.8483198 26.300423 -2.3066638
2.3767793 33.651871 -1.7680135
0.58464807 8.0771914 -2.169939
3.8621149 53.227943 0.93153965
0.69989914 9.6227932 -2.2274654
3.9790804 54.576042 2.8678012
0.82900631 11.370438 -2.2160556
3.8268297 52.361801 4.5932817
1.3559706 18.509062 -2.939404
3.9842582 54.25536 6.6796594
1.5714053 21.347494 -2.6282346
1.9254599 26.095112 -2.2892327
2.5131261 33.898323 -1.7814115
4.5508952 61.239838 14.177315
4.7993226 64.279243 17.271513
0.61239874 8.0693216 -2.168386
4.0521526 53.26997 0.93251699
0.73348266 9.6202908 -2.2274654
4.1847687 54.760963 2.8782685
0.8667444 11.342027 -2.2110946
4.0223784 52.514996 4.607924
1.4234402 18.541639 -2.9453485
4.3980904 57.158527 7.0389304
1.652634 21.428963 -2.6389589
1.1770906 15.228233 -1.3362719
2.6450534 34.064575 -1.7906226
4.7576671 61.134212 14.15662
0.63964689 8.0555801 -2.1652801
4.2406015 53.287392 0.93307543
0.76752669 9.6235008 -2.2288151
0.91180813 11.407428 -2.2244515
1.4916366 18.579876 -2.9522316
4.597599 57.142826 7.0389304
1.7283778 21.434937 -2.6404214
4.8148351 59.582653 9.4677277
2.1140103 26.160469 -2.296205
5.0087709 61.848133 12.061419
2.75489 33.943653 -1.784761
4.9950657 61.412464 14.225005
5.0434899 61.741104 16.598583
0.66823947 8.0590744 -2.1668332
4.4096823 53.069 0.92951518
0.80062711 9.6149359 -2.2274654
4.5716214 54.786148 2.8811994
0.94231397 11.292657 -2.2026992
4.540792 54.30233 4.7674189
1.5559934 18.568649 -2.951293
4.7883873 57.023563 7.0262556
1.346279 15.998883 -1.9713587
4.9896069 59.171803 9.4051542
2.2126877 26.240288 -2.303875
2.8720195 33.917912 -1.7839236
5.1214385 60.35775 13.984757
5.2061825 61.10331 16.431904
0.69886434 8.0855627 -2.1745977
4.6000657 53.113052 0.93056232
0.8335132 9.6043167 -2.2256656
4.7545414 54.674343 2.8761749
0.97407609 11.201284 -2.1855264
1.6218276 18.574911 -2.9531701
4.9870763 57.002548 7.0257683
1.4021064 15.994088 -1.9713587
2.3060079 26.252251 -2.3056178
3.0160079 34.198151 -1.7992057
5.3348274 60.370567 13.991956
0.72777456 8.0907707 -2.1766684
4.7969389 53.224129 0.93279624
0.86668098 9.5974674 -2.224766
4.9699407 55.036221 2.8960629
1.016529 11.234966 -2.1927772
4.8748126 53.773247 4.7238412
1.525125 16.79072 -2.6703367
4.9755111 54.671791 6.7405939
1.9581496 21.474968 -2.6477337
5.2935772 58.054501 9.2330761
2.4027138 26.299599 -2.3104987
3.1353562 34.187412 -1.7992057
5.5516057 60.417553 14.007252
5.6612673 61.493526 16.54682
0.75601441 8.0881805 -2.1766684
0.89959538 9.6061821 -2.2274654
5.1676083 55.078194 2.8992031
1.0553756 11.22744 -2.192014
5.1861682 55.06905 4.8392353
1.5828307 16.807203 -2.6737783
5.50845 58.382328 7.2002854
2.0332813 21.509857 -2.6528521
5.5241446 58.330654 9.2800064
2.4950483 26.297001 -2.3110216
5.8795586 61.968647 12.099581
3.247206 34.160923 -1.7983685
0.78264368 8.0837059 -2.1761506
5.5645499 57.369995 1.0060964
0.93311971 9.6029835 -2.2274654
1.0922186 11.21997 -2.1912506
1.8070554 18.496283 -2.9434712
5.7033286 58.271858 7.1890731
2.1068084 21.486824 -2.6509023
5.6972003 58.000404 9.2305737
2.5838041 26.304445 -2.3124161
6.09585 61.947742 12.099581
3.3727093 34.212982 -1.8017179
5.973423 60.486965 14.032446
6.0809379 61.35638 16.520939
0.81104755 8.0828476 -2.1766684
5.7771349 57.473583 1.0082605
0.96585619 9.5919113 -2.2256656
5.5079012 54.603596 2.8761749
1.1335419 11.237576 -2.1954484
5.5360274 54.786671 4.8176208
1.8604729 18.379803 -2.9259505
5.9231377 58.413544 7.2090597
2.1906104 21.566236 -2.6616266
5.9212365 58.19241 9.2643633
2.6865063 26.402302 -2.3218288
3.5168414 34.443409 -1.8144878
6.1932669 60.551048 14.052242
6.2713637 61.104172 16.458822
0.83866036 8.0742016 -2.1751153
0.99811393 9.5768547 -2.2229664
1.1715415 11.221835 -2.1931586
5.7102575 54.604527 4.8033271
1.927899 18.404631 -2.9309564
1.6730601 15.918119 -1.9652653
6.1627593 58.536785 9.3225565
2.7830138 26.434374 -2.3254895
3.6383181 34.442841 -1.8151159
6.4870825 61.104958 16.465033
0.8672542 8.0750666 -2.1761506
6.046483 56.2071 0.98675907
1.0323749 9.5810614 -2.224766
1.2126048 11.235245 -2.1965933
5.9312243 54.86554 4.8280797
1.9800153 18.285847 -2.9131231
6.2995472 58.082634 7.1734738
1.7275391 15.902314 -1.9640466
2.8970447 26.62455 -2.3430948
3.7684867 34.521263 -1.8199308
6.6475849 60.796913 14.119727
6.6965346 61.047382 16.455715
0.89479166 8.0662308 -2.1745977
1.0658152 9.5773983 -2.224766
5.9665532 53.53059 2.8227923
1.2592024 11.297284 -2.2095683
6.1381931 54.983105 4.8402815
2.0412035 18.255266 -2.9093685
6.7854476 60.589375 7.4859467
2.4194322 21.569735 -2.6650391
6.4866152 57.738533 9.2024155
2.9866347 26.584576 -2.3404803
3.8943429 34.555531 -1.8224429
6.8720222 60.881786 14.144922
6.9035196 60.969883 16.441221
0.92228574 8.0573006 -2.1730449
6.4879584 56.592644 0.99429852
1.099905 9.5794287 -2.2261157
1.2923524 11.238208 -2.1988828
6.3205228 54.878212 4.8329601
2.1101162 18.293165 -2.9165645
2.486958 21.494108 -2.6567519
6.6767387 57.617424 9.1867714
3.087894 26.647217 -2.3469298
4.0191002 34.577435 -1.824327
7.2068343 61.720608 16.650347
0.95040369 8.0540323 -2.1730449
1.1319649 9.5639191 -2.2234163
1.3361927 11.27262 -2.2065153
6.4894857 54.665882 4.816226
2.177228 18.313148 -2.9209447
2.5575011 21.447847 -2.6521208
1.81418 15.191619 -1.3385379
4.1492672 34.642517 -1.8285139
7.3737664 61.292297 16.541643
0.97991222 8.062171 -2.1761506
1.1643971 9.5521717 -2.2216165
1.3760123 11.271786 -2.2072787
6.6420541 54.330429 4.7886853
2.2416158 18.309357 -2.9215703
2.6364605 21.472284 -2.6562645
1.868167 15.193105 -1.3392352
4.276515 34.679363 -1.8312353
7.4241776 60.117958 13.984757
7.6360965 61.657291 16.647242
1.0076022 8.0665455 -2.1782212
6.9541955 55.594212 0.97796309
1.1958228 9.5463247 -2.2211666
6.6712646 53.181644 2.8089757
1.4128976 11.263264 -2.2065153
6.7859421 54.019478 4.7632356
2.2988641 18.274385 -2.9171903
6.9081469 54.837509 6.7864165
2.7103896 21.485086 -2.6589456
3.3466372 26.491453 -2.3361225
4.4060612 34.779915 -1.8373064
7.6234546 60.093014 13.984757
7.8941698 62.053238 16.761122
1.0357517 8.0629797 -2.1782212
1.2296388 9.5459566 -2.2220664
6.8440766 53.058994 2.8037422
1.4471797 11.219321 -2.1988828
6.9611802 53.892715 4.7541714
2.3611245 18.254498 -2.9153132
7.0153675 54.16341 6.7059827
2.7978766 21.571957 -2.6708887
7.5208955 57.907761 9.2487192
3.4432023 26.511221 -2.3389113
4.5413594 34.871269 -1.8429585
7.8382282 60.104683 13.993755
8.1447811 62.285828 16.831522
1.0626247 8.0497389 -2.175633
1.2632111 9.5435381 -2.2225163
7.0855227 53.531002 2.82991
1.4894265 11.237556 -2.2034624
7.1230597 53.670578 4.7367401
2.4313405 18.295095 -2.9231348
7.264082 54.587242 6.7615557
2.875263 21.577799 -2.6728387
3.5357299 26.499041 -2.3389113
4.6725993 34.926472 -1.8467268
8.1204491 60.617764 14.119727
8.4062347 62.668224 16.942297
1.0891621 8.0344944 -2.1725271
1.2943211 9.5354357 -2.2216165
1.5217634 11.181709 -2.1935403
7.3087106 53.633545 4.7356944
2.4959843 18.316294 -2.9278278
7.4069653 54.283558 6.7269444
2.9535155 21.617317 -2.678932
3.6525376 26.664192 -2.3545995
4.7965279 34.970142 -1.8498669
8.2991638 60.428329 14.081936
8.7066431 63.23177 17.102762
1.1184603 8.0499725 -2.1777036
1.3254498 9.515419 -2.2180173
7.3939562 53.013397 2.8052075
1.5618212 11.19799 -2.1977382
2.5607302 18.313335 -2.9287663
7.6564221 54.68594 6.7800798
3.0355654 21.654057 -2.6847818
3.7497959 26.715073 -2.3601775
4.9102116 34.89386 -1.8467268
8.513813 60.426014 14.088235
8.880312 62.868149 17.012693
1.1470926 8.0498447 -2.1787388
1.3597615 9.5184498 -2.2198169
1.5961666 11.159431 -2.1912506
7.7747569 54.28862 4.7980976
2.6235237 18.296465 -2.9275148
7.8506126 54.682461 6.7830043
3.110857 21.641365 -2.6845381
3.8237331 26.567719 -2.3483243
8.5987282 59.671253 11.718726
5.043972 34.95953 -1.851123
2.0197775 13.96454 -0.24628836
9.2486534 63.865379 17.291183
1.1763037 8.0534372 -2.1808095
1.3929769 9.5136452 -2.2198169
7.8269491 53.455891 2.8313756
1.6100544 10.982853 -2.1576684
2.677031 18.216837 -2.9162514
8.4748955 57.600647 7.1486125
3.1901474 21.655905 -2.6877067
3.9338853 26.672476 -2.358783
5.1811719 35.044449 -1.856566
1.2049785 8.0531034 -2.1818447
1.4256705 9.5166836 -2.2216165
8.0312862 53.546753 2.8376558
1.6749153 11.153841 -2.1923954
2.7344851 18.188328 -2.9131231
3.2548394 21.598095 -2.6818569
4.025485 26.648729 -2.3579113
9.0047274 59.61134 11.718726
5.3122802 35.125813 -1.8617995
1.2322634 8.0528822 -2.1828799
8.4444485 55.120415 0.97335565
1.4574066 9.502018 -2.219367
8.2375402 53.644741 2.8443549
1.6969922 11.0512 -2.1733146
2.7697151 17.995144 -2.8837132
3.3383784 21.639574 -2.6884379
4.1186934 26.666739 -2.3607004
9.1935692 59.455368 11.694303
5.4476857 35.189957 -1.8661957
9.5956059 61.769989 16.749735
1.2627553 8.0638018 -2.187021
1.4887509 9.485321 -2.2166677
8.4706173 53.907669 2.8598461
1.7364697 11.051028 -2.1744595
8.5757933 54.514797 4.8280797
2.8577094 18.145378 -2.9093685
3.4145191 21.63171 -2.6889255
4.2185888 26.695496 -2.3645353
9.3899679 59.353111 11.680564
5.5892444 35.289082 -1.872476
9.8020859 61.678879 16.734205
1.2893698 8.0498066 -2.184433
2.1668961 13.513284 0.23888855
1.52309 9.4877634 -2.2184672
1.7744145 11.041022 -2.173696
8.7710848 54.515999 4.8308682
2.8952773 17.97537 -2.8837132
3.4941149 21.645136 -2.6920938
9.1697655 56.741367 9.103549
4.3171587 26.714043 -2.3674986
9.5469389 59.009884 11.619505
5.7098303 35.25359 -1.8716387
9.9931431 61.495552 16.693829
1.316835 8.0414448 -2.1833978
1.5555706 9.4785433 -2.2175674
1.8135782 11.038635 -2.1744595
8.9399757 54.355301 4.8193636
2.9576895 17.963205 -2.8834004
9.5921726 58.193832 7.2417212
3.5958233 21.791456 -2.7118368
4.4136362 26.718466 -2.3692417
9.7816792 59.150524 11.653852
5.8426495 35.292553 -1.8747789
10.954006 66.096138 15.467634
10.560993 63.587105 17.271513
1.3420293 8.0196495 -2.1787388
1.5731746 9.3808031 -2.1959722
1.8491766 11.014812 -2.1710248
9.0662708 53.94651 4.7858958
3.0115223 17.900175 -2.8749528
9.6858091 57.510094 7.1607995
3.6857347 21.860983 -2.7220738
4.5201321 26.781483 -2.3762143
5.9737945 35.31921 -1.877291
1.3706642 8.0187244 -2.179774
1.6217009 9.467453 -2.2175674
2.21296 12.905675 0.68622911
1.8899347 11.021835 -2.173696
9.3293409 54.350475 4.8245931
3.0783324 17.914865 -2.8790202
9.4321899 54.834846 6.8317523
3.7485423 21.769733 -2.7123244
4.610889 26.749832 -2.3748195
6.0854793 35.231228 -1.8737321
10.569165 61.125267 14.321283
1.4558061 8.4020033 2.2848547
1.4006413 8.0253096 -2.1828799
9.5061054 54.411438 0.96414077
1.6527221 9.4502163 -2.2148681
1.9341549 11.048047 -2.1801836
3.1374311 17.884554 -2.8758914
9.606389 54.703831 6.8195653
3.8210621 21.759136 -2.712568
9.7467136 55.446106 8.9164524
4.7100863 26.766937 -2.3777831
6.2209167 35.280575 -1.8775002
1.4789566 8.3704948 2.2776077
1.4279221 8.0244265 -2.1839154
9.7089205 54.505611 0.96637464
1.6854221 9.4523563 -2.2166677
9.6652231 54.205494 2.8855956
1.9614648 10.989389 -2.1698802
3.2155058 17.979055 -2.8927865
9.72616 54.327766 6.7766671
3.8872457 21.713127 -2.7084246
4.8153648 26.843338 -2.3859756
6.3534341 35.346245 -1.8821058
1.5096948 8.3989286 1.9701214
11.313981 62.817638 17.102762
1.4528025 8.0101414 -2.1813271
9.9925051 55.039761 0.97642726
1.716756 9.4467163 -2.2166677
9.8593941 54.198929 2.8870609
2.0014129 11.002139 -2.173696
3.2673123 17.925539 -2.8859031
9.949748 54.533459 6.8064032
3.9776433 21.779491 -2.7184179
10.004513 54.725582 8.8113289
4.908648 26.850744 -2.3880672
1.5404446 8.4180412 1.6634729
6.472764 35.336773 -1.8827339
11.530411 62.762562 17.098621
1.4793432 7.9974241 -2.1792564
10.00689 54.04501 0.95939374
1.7504337 9.444499 -2.2175674
10.028086 54.054226 2.8811994
2.0491085 11.045276 -2.1836183
2.3062875 12.419425 1.1051347
3.3284252 17.906256 -2.8846519
10.100116 54.283714 6.779592
4.0529122 21.761572 -2.7179306
1.5776716 8.4628916 1.363483
5.0176878 26.915709 -2.3953884
6.6195345 35.439613 -1.8894329
11.944331 63.762489 17.382288
1.5090426 8.0017023 -2.1818447
10.325322 54.697491 0.97161037
1.7812175 9.4268417 -2.2148681
10.230085 54.089539 2.8849676
2.0843706 11.020694 -2.1801836
10.740101 56.731773 5.0515466
3.3486111 17.671333 -2.8486719
4.1251526 21.727789 -2.715493
5.1162992 26.897137 -2.3953884
6.7469468 35.435909 -1.8904796
12.26685 64.244141 17.525156
1.5409132 8.0093975 -2.185468
1.8122724 9.4109983 -2.2126186
10.839198 56.234306 3.0013628
2.1217716 10.99756 -2.1771307
1.6467258 8.5272789 0.75982374
3.410363 17.643425 -2.846169
4.1885138 21.648945 -2.7074497
10.809907 55.820202 9.0053072
5.2056141 26.85564 -2.3932967
6.8668733 35.35997 -1.8877583
1.57258 8.0229282 -2.1906445
1.8426205 9.3832588 -2.2076695
2.158257 10.980453 -2.1752226
1.6795604 8.537118 0.76121825
3.4753604 17.648857 -2.848985
2.359668 11.972035 1.4982618
4.2670798 21.629549 -2.7069621
11.130875 56.421673 9.1085539
5.2811794 26.74544 -2.3851039
6.9949212 35.359295 -1.8890142
1.6024687 8.0268602 -2.1932325
1.8798342 9.4076729 -2.2148681
1.7109329 8.5546112 0.45720693
2.1988878 10.984402 -2.1775124
10.920312 54.502426 4.8631163
3.5276539 17.606245 -2.8439789
11.194276 55.819046 6.9901824
4.3520613 21.681452 -2.7152491
11.063937 55.069412 8.8964291
5.394546 26.826456 -2.3939939
7.1168604 35.359398 -1.8902701
13.231118 65.678215 15.467634
12.575852 62.313168 17.0334
1.6252316 8.0025721 -2.1880562
1.7486812 8.6027355 0.15323213
1.9134412 9.4048719 -2.2157679
11.318126 55.630417 2.9751947
2.2356911 10.978974 -2.1778939
11.105779 54.489338 4.8652077
3.5847514 17.572535 -2.8405373
11.366829 55.670708 6.9765329
4.4579196 21.813942 -2.7337732
11.286824 55.229828 8.9283419
5.4906573 26.843559 -2.3971314
12.091599 59.062595 11.718726
7.260283 35.432175 -1.8955039
1.7709236 8.6349297 -0.15386041
12.786322 62.290043 17.038576
1.6539363 8.0006332 -2.1890914
11.531948 55.783821 0.99429852
1.9414622 9.3832083 -2.2121687
11.440949 55.246361 2.9567726
2.2732072 10.967257 -2.1771307
3.644213 17.566351 -2.841476
11.495647 55.364494 6.9428968
4.5415483 21.853458 -2.740598
5.5786347 26.796921 -2.3946912
1.8052247 8.6637812 -0.46380129
1.6816527 8.0007772 -2.1906445
11.721674 55.719746 0.99387962
1.9717929 9.364933 -2.2094693
11.654332 55.303802 2.9620061
2.3123951 10.973107 -2.1798022
11.742864 55.675755 4.9781618
3.690001 17.480078 -2.829587
12.177989 57.639149 7.2334337
4.594389 21.72677 -2.7267048
2.4430602 11.543227 1.8687663
5.6678858 26.780222 -2.3948655
7.4789257 35.276424 -1.8898515
1.7103803 7.9986358 -2.1916797
11.485044 53.664413 0.9579277
2.0020242 9.3465595 -2.2067699
11.972921 55.848644 2.9934077
2.3531566 10.976486 -2.182092
11.744853 54.738323 4.8979783
3.7555621 17.488335 -2.8330286
11.858551 55.174198 6.9292474
4.6722846 21.720306 -2.7279236
11.916965 55.351929 8.9677629
5.7575645 26.742743 -2.3932967
7.5784316 35.140774 -1.8839899
1.7354149 7.979403 -2.1880562
2.0338058 9.3357058 -2.2058702
2.3872724 10.949023 -2.1782756
11.947762 54.751492 4.9028587
3.8216393 17.498278 -2.8367829
12.09911 55.259827 8.9596281
5.8380513 26.641666 -2.3861499
7.7472687 35.324802 -1.8952944
1.7633947 7.9673295 -2.1865032
11.760021 53.133858 0.94989955
2.0638506 9.3171349 -2.2031708
2.4333377 10.967033 -2.1836183
12.190672 54.897949 4.9199419
1.948233 8.76618 -1.4223022
4.7600288 21.40037 -2.6918504
5.957016 26.737808 -2.3966086
1.7937416 7.9724331 -2.1896091
11.818523 52.485634 0.93907911
2.0975554 9.3076086 -2.2027209
1.9774592 8.7675438 -1.7470472
12.414705 54.998875 4.9328408
3.9014776 17.270094 -2.8042445
12.482043 55.20747 6.9497213
6.0423727 26.681877 -2.393471
2.5169299 11.105224 2.2133844
1.8198394 7.9585905 -2.1875386
12.072132 52.752052 0.94459409
2.0256212 8.8443346 -2.0947442
12.426574 54.213726 2.9149036
2.4962506 10.890454 -2.1717882
12.756281 55.607704 4.9914093
3.9405258 17.163956 -2.7892268
12.958299 56.397884 7.105227
4.8903461 21.267097 -2.6794198
6.1815042 26.860611 -2.4114251
8.0888071 35.092407 -1.8873394
14.140781 61.299347 14.52374
1.8511013 7.9672451 -2.1916797
2.0480914 8.8011475 -2.0861959
12.556479 53.958241 2.9033897
2.5217738 10.828137 -2.1611028
12.899673 55.345509 4.9718862
4.0120864 17.200111 -2.7973614
5.0074611 21.433537 -2.7025747
6.2856674 26.883488 -2.4154341
14.629689 62.52137 12.481198
8.2130852 35.071735 -1.8877583
15.247529 65.008331 17.891644
1.8775716 7.9550943 -2.1901269
12.458486 52.785431 0.94668835
2.0839882 8.8227549 -2.0929446
12.419436 52.537952 2.829282
2.5563948 10.805895 -2.1584315
12.989979 54.865852 4.9328408
4.0472622 17.094446 -2.7823439
12.972054 54.747639 6.9082861
5.0780478 21.414883 -2.7023311
6.3665738 26.807108 -2.4105535
8.3256397 35.028759 -1.8869207
2.564131 10.779774 2.5581434
14.815358 62.188438 17.129681
1.9021436 7.9413085 -2.1880562
12.998785 54.227303 0.97335565
2.1074929 8.7851086 -2.085746
12.434238 51.832268 2.7934842
2.5972588 10.818357 -2.1626294
13.177397 54.84573 4.9349322
4.083344 16.982265 -2.7663872
13.184459 54.790806 6.9194984
5.1448736 21.364218 -2.6981876
6.4642982 26.822651 -2.4138653
8.4441233 34.983955 -1.8860834
1.9335029 7.9496374 -2.1921973
13.169102 54.145035 0.9726575
2.1485991 8.827301 -2.0974436
13.005546 53.391411 2.8799434
2.6456983 10.853095 -2.1714065
13.345169 54.702614 4.9262171
4.1368327 16.957115 -2.7645102
13.690932 56.077412 7.0876775
5.1087346 20.909298 -2.6428587
6.5659451 26.832821 -2.4168286
8.5420284 34.882042 -1.8821058
15.36452 62.600208 17.271513
1.95939 7.9413075 -2.1916797
13.463471 54.525845 0.98033655
2.2317593 9.0316315 -2.1478326
13.044152 52.74852 2.8477044
2.6779013 10.829016 -2.1683536
13.544673 54.731556 4.9328408
4.1732092 16.850533 -2.7494924
13.576179 54.776867 6.9292474
5.2567143 21.193834 -2.6811259
6.6668968 26.859241 -2.4211864
8.6463852 34.782238 -1.8783377
1.9889779 7.9419155 -2.1937504
13.721795 54.750072 0.98522329
2.2300842 8.8914738 -2.1163394
13.285588 52.931252 2.8600557
2.7204678 10.838645 -2.1721697
13.792928 54.911953 4.9534097
4.187695 16.659611 -2.7207084
5.378644 21.365932 -2.705256
6.7693677 26.870583 -2.424324
8.7824106 34.809937 -1.8814777
2.624527 10.379654 2.8687503
2.0171623 7.9367962 -2.194268
2.3000407 9.0366068 -2.1527817
13.70396 53.801956 2.9096701
2.7544115 10.813861 -2.169117
13.975652 54.828724 4.9502721
4.2453308 16.642979 -2.7203958
14.179234 55.546284 7.0389304
5.4615397 21.379723 -2.7093995
6.8969498 26.959475 -2.4346085
8.904851 34.782944 -1.8816872
2.0472059 7.9330897 -2.1953032
13.603018 52.712803 0.9502486
2.3052561 8.9266338 -2.1284869
13.951638 53.985844 2.9222307
2.8023815 10.836005 -2.1756043
14.226422 54.970024 4.9677029
4.2131968 16.267796 -2.6615763
14.508402 56.019154 7.105227
5.5286708 21.331703 -2.7057436
6.9764919 26.879311 -2.4295535
9.0413294 34.784863 -1.8835713
2.0783081 7.9389782 -2.1989267
13.796117 52.662598 0.9502486
2.3493268 8.9614801 -2.1388347
2.8456671 10.847047 -2.1798022
14.484 55.170544 4.9903636
4.3005795 16.369534 -2.6806614
14.705537 55.934887 7.1013274
5.6022682 21.294022 -2.7035499
7.080936 26.895254 -2.4332139
9.1555605 34.726055 -1.8821058
17.341396 65.680916 18.202227
2.1035309 7.922339 -2.1963384
2.3655219 8.9027872 -2.1266873
14.189593 53.365982 2.8939693
2.8825061 10.833252 -2.1790388
14.699066 55.204365 4.998033
4.0956192 15.38166 -2.5210981
5.6861544 21.325193 -2.709887
7.1773262 26.880001 -2.4340856
9.2696447 34.691643 -1.8818964
17.770416 66.366432 18.409283
2.134809 7.9339757 -2.201515
2.3686976 8.790988 -2.1019428
14.20126 52.705376 2.8606837
2.9168794 10.817948 -2.1778939
4.2569027 15.765852 -2.5864878
15.003086 55.526878 7.0623293
5.7424293 21.238144 -2.7013559
7.2294846 26.719501 -2.4217093
9.3823366 34.628227 -1.8802218
17.889214 65.934258 18.305754
2.1640143 7.9320669 -2.2030678
2.4204168 8.8658018 -2.1217382
14.408322 52.74025 2.8652892
2.9587679 10.822849 -2.1809468
15.447737 56.467495 5.1217942
4.3029027 15.728785 -2.5827332
5.7986612 21.167294 -2.6947751
7.2884569 26.569212 -2.4103792
9.4981661 34.600777 -1.8804311
2.186702 7.9118133 -2.1994443
14.296399 51.691265 0.93614709
2.4560304 8.8742018 -2.1257875
14.50807 52.385525 2.8487511
2.9998741 10.831901 -2.1847632
15.743471 56.807636 5.1573539
4.4169087 15.926865 -2.6177747
5.8618855 21.108669 -2.6899004
7.3727837 26.531458 -2.4091592
9.5792599 34.425026 -1.8726853
18.24531 65.435585 18.202227
2.2153504 7.9078522 -2.2004797
14.502671 51.733463 0.93782252
2.4764633 8.8280487 -2.1167896
14.837678 52.857594 2.8772218
3.0493422 10.862946 -2.1931586
4.4820952 15.945579 -2.6234062
5.9070334 20.986805 -2.6769822
7.4772286 26.547754 -2.4129939
9.7145557 34.445202 -1.8756162
17.895739 63.326546 17.632826
2.2408323 7.8926368 -2.1984091
14.711547 51.782562 0.9396376
2.513128 8.8399687 -2.1217382
15.246172 53.593102 2.9201372
3.0893939 10.859789 -2.1946852
4.3558989 15.291503 -2.5182824
5.9867749 20.98897 -2.6799071
7.5851698 26.575132 -2.4178746
9.8544836 34.480213 -1.8793843
18.063484 63.077969 17.58106
2.2699695 7.8903356 -2.1999619
14.992908 52.080627 0.94599026
2.5434327 8.8292685 -2.1212883
3.1207557 10.826303 -2.1901057
20.701941 71.77063 6.5351119
4.4492431 15.414751 -2.541122
5.9905629 20.727654 -2.6491959
7.6983762 26.619308 -2.424324
9.9814415 34.468632 -1.8806405
18.387976 63.37447 17.681482
2.305609 7.9101839 -2.2077267
15.110773 51.809132 0.94201106
2.5753229 8.8240795 -2.1221881
3.1546774 10.80215 -2.1874344
6.036109 20.61517 -2.6374965
7.7458658 26.437405 -2.4102049
10.10733 34.452744 -1.8816872
18.626532 63.369205 17.698048
2.3337524 7.9039416 -2.2082443
2.6039016 8.8075609 -2.1203887
15.933458 53.85952 2.943584
3.1918056 10.78919 -2.187053
4.3816991 14.792378 -2.4435067
6.0848861 20.515945 -2.6275034
7.7808437 26.217293 -2.3925993
10.220696 34.394279 -1.8804311
2.3618834 7.8975964 -2.2087619
15.550093 51.96291 0.94675815
2.6290376 8.7797499 -2.1158895
16.174988 54.016857 2.9550979
3.2384663 10.808072 -2.1931586
4.455442 14.850784 -2.4557085
18.307419 60.983124 7.8179188
6.13691 20.442419 -2.6206787
7.9158945 26.334984 -2.4058471
10.343005 34.366039 -1.8808498
2.386939 7.8860235 -2.2077267
2.6575751 8.7691183 -2.1154397
16.238186 53.580635 2.9341633
3.2737176 10.795396 -2.1927772
4.5741124 15.064636 -2.4935656
6.1758084 20.326988 -2.6084917
7.967237 26.190407 -2.3950398
10.463886 34.354481 -1.8821058
18.988512 62.342083 15.045627
15.994777 52.480347 -0.95764846
2.4159076 7.8872995 -2.2103145
16.305748 53.200798 0.97126138
2.6849241 8.7546682 -2.11409
16.372396 53.351776 2.9247429
3.3095012 10.784479 -2.1927772
4.6443467 15.115474 -2.5045159
6.2473135 20.307201 -2.6087353
8.0423145 26.125757 -2.3915534
10.565994 34.281414 -1.8800124
2.449142 7.8972726 -2.2154911
16.823235 54.213078 0.99080801
2.718359 8.7545471 -2.1163394
16.748125 53.904655 2.9582379
3.3477008 10.774738 -2.1931586
4.6548386 14.963363 -2.4819896
6.2691612 20.127964 -2.5885053
8.1133127 26.032854 -2.385627
10.684399 34.240513 -1.8798032
2.4761171 7.8868313 -2.2149734
17.192181 54.726349 1.0012795
2.7518215 8.7543011 -2.1185889
3.3929524 10.787333 -2.1981196
4.5812488 14.547583 -2.4156613
21.300333 67.597229 8.7022038
6.3047652 19.996147 -2.5743682
8.144784 25.816269 -2.3683701
10.826726 34.275379 -1.8837807
2.5018787 7.8726153 -2.2134204
2.7823653 8.7446413 -2.1185889
3.4288025 10.769811 -2.196975
4.812582 15.098005 -2.5098348
6.3847733 20.006172 -2.5785117
8.1748543 25.599779 -2.3511133
10.971825 34.317284 -1.8881769
2.5393987 7.8950996 -2.2222204
2.8116806 8.7311649 -2.1176891
18.180264 56.455521 3.1083374
3.4651687 10.754039 -2.1962116
4.8155265 14.926956 -2.4841797
6.439321 19.936539 -2.5724185
8.2231197 25.444065 -2.3394344
11.107543 34.328182 -1.8908982
2.5705318 7.8972082 -2.2253263
18.148436 55.755768 1.0234789
2.8484623 8.745883 -2.123538
18.315296 56.201832 3.0978701
3.5099928 10.764276 -2.2007911
18.352654 56.249722 5.176528
4.8080134 14.736256 -2.4550829
6.4758162 19.824497 -2.5607188
8.2443628 25.208797 -2.3204343
11.244931 34.363285 -1.8948758
2.5979121 7.8923111 -2.2263615
18.320391 55.623718 1.0222224
2.8881209 8.763649 -2.1302865
18.351261 55.651974 3.0710742
3.5438225 10.746984 -2.1996462
4.6507254 14.087239 -2.3496459
6.5181942 19.720724 -2.5502381
8.2572279 24.967564 -2.3007371
11.289489 34.096302 -1.8823153
24.559671 74.131409 18.029377
25.882034 78.031494 22.028608
2.6278858 7.8905268 -2.2284322
18.538481 55.631516 1.0235487
2.9304085 8.7886381 -2.1388347
18.607344 55.773254 3.0813322
3.584419 10.74386 -2.2015543
18.955889 56.784958 5.2375369
4.5478015 13.615628 -2.2736187
6.5649452 19.631964 -2.5417073
8.2918644 24.781765 -2.2862694
11.428716 34.117294 -1.8856647
2.662817 7.9032745 -2.2346439
18.718519 55.524769 1.0227809
2.9697871 8.8042078 -2.1451333
18.7981 55.696602 3.080704
3.6275539 10.748024 -2.204989
18.794474 55.653805 5.1392255
4.7932243 14.185429 -2.3715467
6.5857301 19.467897 -2.5234268
8.3176298 24.573387 -2.2697098
11.533643 34.035572 -1.8833618
2.7059703 7.9396439 -2.2475846
18.988369 55.682434 1.0268996
4.7628489 13.934961 -2.3324382
2.7860074 8.1419067 -1.0566072
8.397542 24.527239 -2.268141
11.621288 33.904419 -1.8783377
2.7676644 8.0287752 -2.2755373
2.7832432 8.0648308 -1.9696715
2.7925751 8.0872936 -1.6630913
2.8042679 8.1119776 -1.3594157
2.8268356 8.163415 -0.75581461
2.8267875 8.1540709 -0.45228738
2.8429203 8.1913671 -0.15134728
2.7963076 8.0208902 -2.2760549
2.8610518 8.2019968 0.15162651
2.8075235 8.0440283 -1.966972
2.8709607 8.2211752 0.45636958
2.8091352 8.0441341 -1.6562221
2.8699925 8.2137966 0.76121825
2.8675811 8.1977053 1.0663568
2.7640917 7.8974199 -1.0273587
2.8838151 8.23489 1.3819423
2.8237033 8.0632381 -0.74744761
2.8954656 8.2635231 1.7020162
2.8288043 8.0687618 -0.44810051
2.8363988 8.0813885 -0.1494973
2.8210752 8.0019712 -2.2734666
2.8517499 8.0844679 0.14963694
2.8401272 8.0470409 -1.9701214
2.8677161 8.1207066 0.45134532
2.8443868 8.0546436 -1.6604201
2.8681154 8.1173134 0.75319988
2.8529308 8.0698538 -1.3556613
2.8749938 8.1277599 1.0585573
2.7843549 7.8671389 -1.0246775
2.8742995 8.1167727 1.3637959
2.85782 8.0702353 -0.74901646
2.8895371 8.1552906 1.6817905
2.8642914 8.079546 -0.44925189
2.8925025 8.1546049 1.9975653
2.8652585 8.0733252 -0.14953223
2.903872 8.1775961 2.3252304
2.8476951 7.9884353 -2.2724314
2.8765917 8.0650463 0.1494624
2.8727825 8.0499258 -1.9732707
2.8846297 8.0786695 0.44956589
2.8764486 8.0557585 -1.6627097
2.8836989 8.0716028 0.74988794
2.8750968 8.0431061 -1.3528454
2.8846309 8.0653362 1.0517325
2.8077884 7.8461571 -1.0232152
2.8979521 8.0936718 1.3616058
2.8940306 8.0827188 -0.75110817
2.896801 8.08601 1.6695787
2.893827 8.0732584 -0.44946122
2.9045012 8.0986004 1.9863179
2.896122 8.0708036 -0.14967184
2.9141231 8.1164999 2.3107367
2.8631191 7.9439144 -2.2625961
2.9121869 8.0756502 0.14984636
2.9028511 8.0453482 -1.9746205
2.9181848 8.0878458 0.45061263
2.9098864 8.060441 -1.6657627
2.917943 8.0783548 0.7514568
2.9112136 8.0553131 -1.3565999
2.9235697 8.0850868 1.0556324
2.8405569 7.8512435 -1.0251651
2.925446 8.0858755 1.3619186
2.9235854 8.0763149 -0.7514568
2.9290221 8.0869226 1.6718684
2.9219847 8.0631104 -0.44946122
2.9340837 8.0920753 1.9872177
2.9296882 8.0799532 -0.1500209
2.944315 8.1158724 2.3133247
2.8994274 7.9574695 -2.2693255
2.9423759 8.0753422 0.1500209
2.9409256 8.0625992 0.44977528
3.9106069 10.715203 -2.2172008
2.9529598 8.086834 0.75319988
2.9426515 8.0586042 -1.35879
2.9530916 8.0828047 1.0566072
2.8631711 7.8324575 -1.0239463
2.9556913 8.0811806 1.3628573
2.9510767 8.064188 -0.75128251
2.9618981 8.0937586 1.6753031
2.9542027 8.0683794 -0.45029861
2.9669333 8.0987701 1.9912667
2.9448011 8.0340033 -0.14935769
2.9706292 8.1001043 2.3117716
2.9318039 7.9641271 -2.2739842
2.9664013 8.0537624 0.14981146
2.9718094 8.0597811 0.45019394
3.9467952 10.704021 -2.2175822
2.9728668 8.0583048 0.7514568
5.0741673 13.746758 -2.3208621
2.9654648 8.0296202 1.0510013
2.899441 7.846621 -1.0271149
2.972924 8.0411673 1.3578513
8.6943493 23.516483 -2.1935358
2.9901271 8.0833731 1.6753031
2.9972177 8.0938463 1.9926165
2.9867165 8.0611801 -0.1500558
3.0042601 8.1041765 2.3159127
2.9609356 7.9574652 -2.2750194
3.3113723 8.8897619 -2.1901233
3.01318 8.0849171 0.45218271
3.9896228 10.704893 -2.2206352
3.0155907 8.0870838 0.75511736
5.0882912 13.638273 -2.3055315
3.0184693 8.0861692 1.0597758
2.9226406 7.8252969 -1.0256525
3.0237913 8.0918045 1.368176
8.7512712 23.418804 -2.1872604
3.0217645 8.0820789 1.677211
12.385411 33.10873 -1.8525884
3.0288656 8.0924597 1.9948659
3.0135539 8.0429859 2.301419
2.9975328 7.9705882 -2.2817488
3.3485649 8.8945627 -2.1941726
21.892313 58.120373 3.254878
4.0331917 10.707438 -2.2240696
5.0145998 13.298816 -2.2510922
2.9485381 7.8113317 -1.0251651
8.8111486 23.330332 -2.1818569
12.328575 32.609447 -1.8270483
3.0342615 7.983551 -2.2884779
3.3788936 8.8810015 -2.1937227
4.0691495 10.689624 -2.2233064
22.900854 60.128807 5.6292152
5.045507 13.240625 -2.2442091
2.9729588 7.7935724 -1.0241901
8.8733463 23.249176 -2.1771505
12.382461 32.409492 -1.8182559
3.0711133 7.996356 -2.2952073
3.4147708 8.8818836 -2.196872
4.1043262 10.669856 -2.2221618
5.1243505 13.307728 -2.2586012
27.346642 70.981064 9.3398228
3.0172796 7.8276024 -1.0300398
8.9193144 23.126976 -2.1686091
12.448033 32.243103 -1.8113476
29.649532 76.679192 22.028608
3.1087904 8.0108023 -2.3024545
3.4542196 8.8917084 -2.202271
22.210333 57.143288 3.2130094
4.1408329 10.653636 -2.2217801
5.2180433 13.411263 -2.2792504
3.0647588 7.868814 -1.0368644
8.9536953 22.976887 -2.1574533
12.434221 31.875689 -1.7931347
3.1402624 8.008893 -2.3050425
3.4973428 8.9104347 -2.2099192
22.363207 56.976368 3.2077758
4.1751227 10.631807 -2.2202537
5.2156858 13.267953 -2.2579753
3.0980208 7.8728461 -1.0388143
8.9863968 22.824993 -2.1461229
12.417981 31.508774 -1.7749218
3.1767356 8.0194368 -2.311254
3.5376439 8.9259605 -2.2166677
4.2129312 10.618995 -2.2206352
5.2654896 13.26527 -2.2604783
3.1417022 7.906806 -1.0446641
8.9975414 22.621311 -2.1299121
12.577041 31.604746 -1.7826674
3.205466 8.0142384 -2.3128071
3.5709512 8.9189863 -2.2180173
23.137718 57.760704 3.2609491
4.2495842 10.608608 -2.2213984
5.2691178 13.14047 -2.242332
7.081718 17.643019 -2.3342857
9.0272102 22.478569 -2.1192791
12.60535 31.356806 -1.7711537
3.2399366 8.0191193 -2.3174658
3.6115589 8.9299536 -2.2238662
4.2821736 10.582789 -2.2191086
5.2066798 12.854688 -2.1966531
7.1044788 17.52253 -2.3216112
9.114603 22.469078 -2.1213708
12.636589 31.120155 -1.7602677
3.2708235 8.0149183 -2.3195364
3.6478691 8.9299192 -2.2270155
4.317596 10.564146 -2.2183454
5.2709703 12.883968 -2.2047877
7.1543121 17.470068 -2.317955
9.1529493 22.339411 -2.1121323
12.617812 30.765413 -1.7426828
21.759565 53.002544 -1.0000926
3.3031998 8.0141678 -2.3226421
23.648033 57.345974 1.0827473
3.6827326 8.9261389 -2.229265
4.3544483 10.549009 -2.2183454
5.2170887 12.626329 -2.1638019
7.2091861 17.430313 -2.3160052
9.2148695 22.268663 -2.1084716
12.602844 30.425941 -1.7259353
21.958199 52.959534 -1.000721
3.3356106 8.0132885 -2.325748
3.7146204 8.9150286 -2.2297149
4.3957801 10.544617 -2.2206352
5.2839561 12.662731 -2.1731877
7.2508454 17.359253 -2.3099117
9.2349348 22.098488 -2.0953984
12.610295 30.145926 -1.7125373
22.193916 53.004295 -1.0030247
3.3695495 8.0158443 -2.3298893
3.7457194 8.9020071 -2.2297149
25.180662 59.81477 3.4012096
4.4295111 10.521971 -2.2191086
5.2621593 12.487657 -2.146281
7.2782264 17.255186 -2.2994308
9.2283602 21.867867 -2.0765727
12.668825 29.991331 -1.706257
3.3997762 8.0093679 -2.3314421
3.7782879 8.8924665 -2.2306147
25.280451 59.499321 3.3880208
4.4600716 10.491991 -2.2160556
5.1889219 12.194748 -2.0990379
7.3189726 17.184015 -2.2933376
9.270256 21.754877 -2.068903
12.732699 29.851395 -1.700814
3.4246674 7.9903498 -2.3293715
25.933182 60.506664 1.1490664
3.8092945 8.8834696 -2.2315145
4.4951177 10.472751 -2.2152925
5.1459341 11.983256 -2.0655608
7.3547473 17.110409 -2.2867565
9.3784304 21.797422 -2.0760498
12.740025 29.596199 -1.6886722
3.4534445 7.9842687 -2.3309245
3.8426054 8.8754816 -2.2328641
4.5313802 10.46139 -2.2160556
5.3983254 12.450933 -2.1494098
7.3875566 17.022722 -2.2784696
9.4086103 21.669338 -2.0668113
12.679243 29.174217 -1.6671097
23.072897 53.064018 -1.0100057
3.4836154 7.9774761 -2.3324773
26.285219 60.193127 1.1464834
3.8735747 8.8662634 -2.2337639
27.230879 62.299385 3.5632415
4.5710192 10.452703 -2.2175822
5.3604035 12.25199 -2.1181231
7.4375982 16.98358 -2.2765195
9.4793901 21.625418 -2.0657654
12.695711 28.949099 -1.6566426
23.267618 53.005135 -1.0104245
3.5123856 7.9711843 -2.3340304
3.9060709 8.8562546 -2.2346637
4.6032763 10.4321 -2.2164373
5.3975492 12.220557 -2.1159329
7.4839988 16.928463 -2.2726197
9.512084 21.495634 -2.0565269
12.741712 28.780415 -1.6495248
3.5470781 7.9706111 -2.3376536
26.571468 59.708534 1.1407591
3.9361711 8.8407841 -2.2342138
4.642283 10.416951 -2.216819
5.3747096 12.04915 -2.0896518
7.5576034 16.934868 -2.2770069
9.5700006 21.424093 -2.0528662
12.729712 28.470966 -1.6344521
3.570128 7.9476085 -2.334548
26.74913 59.519543 1.1390138
3.9717426 8.8334093 -2.2360134
4.6737823 10.389941 -2.2145293
5.5075674 12.232054 -2.1246932
7.5592618 16.773132 -2.2589705
9.566102 21.216194 -2.0361323
12.74851 28.24795 -1.6241943
3.5986447 7.9368587 -2.3350656
26.926529 59.386814 1.1381762
4.0050411 8.8290615 -2.2382631
4.7059603 10.364625 -2.2126212
5.477026 12.05725 -2.0974736
7.6222334 16.764238 -2.2611639
9.613699 21.124641 -2.0305543
12.794093 28.1001 -1.6181233
3.6265538 7.9283934 -2.3361006
27.248514 59.543388 1.1429931
4.0334005 8.8097134 -2.2369132
4.7476664 10.365026 -2.2160556
5.560246 12.127839 -2.113117
7.5093274 16.364058 -2.21071
9.5817614 20.861019 -2.0084169
12.810383 27.877415 -1.6078655
3.6653104 7.9360929 -2.3423123
27.503159 59.549561 1.1449476
4.0641255 8.7955809 -2.2369132
4.7897472 10.356464 -2.2179639
5.3980298 11.661016 -2.0352125
7.6381502 16.492653 -2.2316716
9.6000624 20.709948 -1.9970866
12.82168 27.634605 -1.5965608
3.6929886 7.9232507 -2.3423123
27.84292 59.709347 1.149974
4.0955095 8.778861 -2.2364633
4.8175631 10.321891 -2.2141476
5.1569452 11.038967 -1.9297757
5.1744037 11.066278 -1.4999681
5.1860819 11.086196 -1.0707954
5.1958551 11.097009 -0.64216226
5.1967368 11.088812 -0.21375707
3.718981 7.9068151 -2.3412771
16.633507 35.348026 0.68190044
4.1302814 8.7733269 -2.238713
4.8527303 10.303235 -2.2137661
5.6351314 11.953606 -2.0930934
35.02869 74.271423 10.082739
7.6382203 16.188036 -2.1977918
9.6619005 20.467659 -1.9801785
11.649993 24.656883 -1.4291904
3.7432396 7.8868065 -2.3392065
28.204191 59.397892 1.14774
4.1625552 8.7623739 -2.2396126
4.8861303 10.280917 -2.2126212
5.6980395 11.978456 -2.100915
7.6841793 16.146486 -2.1955984
9.6476116 20.253929 -1.9627472
11.735986 24.616068 -1.4291904
3.7718775 7.8795772 -2.3407595
4.1915917 8.7485218 -2.2396126
4.9193506 10.262886 -2.2122397
5.7317529 11.947027 -2.0987251
7.7316723 16.108387 -2.193892
9.6741791 20.137415 -1.9545546
11.603768 24.132423 -1.4033364
3.8055432 7.8826833 -2.3454182
28.188759 58.36322 1.1313348
4.2171869 8.7275562 -2.2378132
4.9550633 10.250052 -2.2130029
5.781661 11.949293 -2.1024795
7.7305546 15.970095 -2.1785367
9.7435064 20.110607 -1.9550776
11.598333 23.91769 -1.3930787
3.8333557 7.8734927 -2.3464534
28.268293 58.035717 1.1267972
4.2495184 8.7205315 -2.2396126
4.9847279 10.224739 -2.2110946
5.8056593 11.8981 -2.0968478
9.6876955 19.82756 -1.930674
11.693373 23.911396 -1.3949627
3.8589647 7.8459063 -2.3428299
4.2896566 8.713892 -2.2423122
5.0248671 10.202885 -2.2107131
