# .PCD v0.7 - Point Cloud Data file format
VERSION 0.7
FIELDS x y z
SIZE 4 4 4
TYPE F F F
COUNT 1 1 1
WIDTH 1488
HEIGHT 1
VIEWPOINT 0 0 0 1 0 0 0
POINTS 1488
DATA ascii
-0.85253507 0.46250343 0.15361866
-0.83535957 0.45318565 -0.08314658
-0.8126694 0.44124338 -0.048463102
-15.980342 8.6802263 4.1984868
-0.78539401 0.42678908 -0.015602452
-0.84297812 0.45960635 -0.25726613
-0.80930001 0.44142795 0.016091119
-0.81084102 0.44245213 -0.2132536
-0.82043159 0.447871 0.048986461
-0.80990964 0.44212708 -0.17936046
-0.79387248 0.43355256 0.079137415
-0.80955446 0.44230032 -0.1461098
-0.73507404 0.40177426 0.10285773
-0.81512272 0.445712 -0.11406972
-0.82318705 0.45030826 0.14861277
-0.83552045 0.45705503 -0.083320886
-16.009809 8.7614822 3.5475211
-0.8198837 0.44887313 -0.048986461
-15.755099 8.6292372 4.1471977
-0.80318993 0.44009829 -0.015986405
-0.81936103 0.45044732 -0.25053686
-0.81651509 0.44906864 0.016265644
-0.78709596 0.43306729 -0.20740487
-0.80836481 0.44495365 0.048358425
-0.79460186 0.43737805 -0.17630751
-0.78711849 0.43343794 0.078614481
-0.82184738 0.4527486 -0.14861277
-0.74583685 0.41104493 0.10456391
-0.8170386 0.45047152 -0.11455719
-0.80085373 0.44173008 0.14485833
-0.81124026 0.44745898 -0.081054844
-0.82355744 0.45462805 -0.049300473
-15.554294 8.5899677 4.1022072
-0.79114693 0.43709689 -0.015776975
-0.81947321 0.45424151 -0.25105447
-0.78871059 0.43736923 0.015742071
-0.78557944 0.43581215 -0.20740487
-0.80156773 0.44486511 0.048044413
-0.78277075 0.43443289 -0.17401782
-0.77689117 0.43134692 0.077742919
-0.80472016 0.44698194 -0.14579694
-0.74266225 0.4126817 0.10432017
-0.80331612 0.44656903 -0.11285102
-0.7440632 0.41380012 0.13484652
-0.80793202 0.44931987 -0.08088053
-0.80800432 0.44972917 -0.048463102
-15.432273 8.5930204 4.0779128
-0.78437561 0.4369365 -0.015672261
-0.80101913 0.44767433 -0.2458781
-0.78717911 0.44011971 0.015742071
-0.80106097 0.44806495 -0.21190389
-0.79660183 0.4455708 0.047835067
-0.78810263 0.44099718 -0.17554428
-0.77190375 0.43210974 0.077394299
-0.79798442 0.44689277 -0.14485833
-0.75680363 0.42400372 0.10651381
-0.79655743 0.44645873 -0.1121198
-0.77370405 0.43364975 0.14047816
-0.77855319 0.43654642 -0.078091539
-0.78727031 0.44179526 -0.047311708
-15.29003 8.5838737 4.0482192
-0.78989702 0.44345084 -0.015811879
-0.8145991 0.45900288 -0.25053686
-0.78745741 0.44370934 0.015776975
-0.7910828 0.44593403 -0.20965438
-0.8037402 0.4532539 0.048358425
-0.78826833 0.4447102 -0.17592591
-0.76692039 0.43284321 0.077045679
-0.78445596 0.44274011 -0.14266825
-0.75539339 0.42651108 0.10651381
-0.79852939 0.4510504 -0.11260728
-0.79970217 0.45189717 0.14548407
-0.7856968 0.44416368 -0.078963101
-0.79449344 0.44931951 -0.047835067
-15.176676 8.5865507 4.0257239
-0.77964294 0.44128042 -0.015637357
-0.79963326 0.45407027 -0.24639574
-0.78068763 0.44349223 0.015672261
-0.77257884 0.43906415 -0.20515537
-0.80215311 0.45605674 0.048358425
-0.78508258 0.44635144 -0.17554428
-0.77414018 0.44030902 0.077917233
-0.78462267 0.44645244 -0.14298111
-0.74699926 0.42521721 0.10553886
-0.77797508 0.44302946 -0.10992616
-0.84274596 0.48010904 0.15361866
-0.81191826 0.46254662 -0.081752084
-0.78077465 0.44516549 -0.047102366
-15.075517 8.5989237 4.0068278
-0.78330845 0.44697225 -0.015742071
-0.80642623 0.4616577 -0.24898393
-0.77045858 0.4412455 0.015497738
-0.77611411 0.4446646 -0.20650508
-0.77840984 0.44616035 -0.17439944
-0.77432686 0.44399968 0.078091539
-0.78134602 0.44820568 -0.14266825
-0.75411916 0.43276235 0.10675755
-0.77986693 0.44771907 -0.11041363
-0.81023163 0.46533936 0.14798702
-0.79647708 0.45743975 -0.080357596
-0.77228963 0.44390696 -0.046683677
-14.957563 8.6009779 3.983433
-0.77481002 0.44571531 -0.015602452
-0.79979026 0.46157277 -0.24743101
-0.78276777 0.45193115 0.015776975
-0.77455723 0.44737104 -0.20650508
-0.78338587 0.45265242 0.047416382
-0.77344799 0.44691017 -0.1736362
-0.7675975 0.44370863 0.077568613
-0.77806664 0.44994149 -0.14235538
-0.7577588 0.43837407 0.10748877
-0.790326 0.45739901 -0.1121198
-0.76757395 0.44441018 0.14047816
-0.77246028 0.44723928 -0.078091539
-0.77073544 0.4465999 -0.046683677
-14.880243 8.6257725 3.9708359
-0.77670908 0.45042378 -0.015672261
-0.79316467 0.46144757 -0.2458781
-0.78809863 0.45868436 0.015916595
-0.78309548 0.45595515 -0.20920448
-0.79388171 0.46242124 0.048149083
-0.78036535 0.45454824 -0.17554428
-0.77637267 0.45240405 0.078614481
-0.78331774 0.45663393 -0.14360686
-0.74764985 0.43601647 0.10627007
-0.7887246 0.46015501 -0.1121198
-0.78990275 0.46102694 0.14485833
-0.7640115 0.44591552 -0.077394299
-0.79849005 0.46641287 -0.048463102
-14.772646 8.6324358 3.9501407
-0.77513218 0.45313203 -0.015672261
-0.80821323 0.47398636 -0.25105447
-0.77441949 0.45434901 0.015672261
-0.78990227 0.46361804 -0.21145399
-0.79406655 0.46606213 0.048253756
-0.78893191 0.46323389 -0.17783399
-0.77822465 0.45712936 0.078963101
-0.78171891 0.45936564 -0.14360686
-0.73414433 0.4315815 0.10456391
-0.79566932 0.46793684 -0.1133385
-0.83604634 0.4916828 0.15361866
-0.77790523 0.45767272 -0.078963101
-0.79857814 0.4702107 -0.048567772
-14.742423 8.6839504 3.9501407
-0.78740919 0.46381941 -0.015951499
-0.8032279 0.47483829 -0.25001919
-0.78495836 0.46403798 0.015916595
-0.78332835 0.46325892 -0.21010427
-0.79415363 0.4698483 0.048358425
-0.78731024 0.46598476 -0.17783399
-0.77833867 0.46085823 0.079137415
-0.78359085 0.4639681 -0.1442326
-0.72416931 0.42895526 0.10334522
-0.780451 0.46247694 -0.11138859
-0.8105768 0.4807114 -0.082449332
-0.79701442 0.47285628 -0.048567772
-14.757115 8.7586498 3.961838
-0.78062707 0.46350235 -0.015846785
-0.80994755 0.48244238 -0.25260741
-0.78848726 0.4698461 0.016021309
-0.78672826 0.46898401 -0.21145399
-0.78050107 0.46545655 0.047625724
-0.78576058 0.46859306 -0.17783399
-0.77338409 0.4613952 0.078788787
-0.77857399 0.46467599 -0.14360686
-0.74141604 0.44267455 0.10602634
-0.77883184 0.46519846 -0.11138859
-14.683146 8.7737665 2.7091324
-0.79350263 0.47433746 -0.08088053
-14.559501 8.703331 3.2971797
-0.77821779 0.46538463 -0.047521055
-14.412056 8.6220217 3.8772562
-0.78072017 0.46725136 -0.015881689
-0.78995681 0.47446615 -0.24691339
-0.79541361 0.47774363 0.016195834
-0.77506399 0.46570528 -0.20875457
-0.7788716 0.46817818 0.047625724
-0.76721299 0.4613525 -0.17401782
-0.77168769 0.46422693 0.078788787
-0.77348065 0.46548915 -0.14298111
-0.74496889 0.44833046 0.10675755
-0.78570652 0.47303364 -0.11260728
-0.76624382 0.46168059 -0.078265861
-0.76795489 0.46307725 -0.046997696
-14.387034 8.6788092 3.8790562
-0.75511265 0.45551285 -0.015393022
-0.78664297 0.47622049 -0.24639574
-0.77997351 0.47236866 0.015916595
-0.76835179 0.46551356 -0.20740487
-0.77381617 0.46882424 0.047416382
-0.77902931 0.4721688 -0.17707075
-0.77176619 0.46795058 0.078963101
-0.77185106 0.46818632 -0.14298111
-0.74162346 0.45002824 0.10651381
-0.78566444 0.47694036 -0.11285102
-0.76122171 0.46228412 -0.077917233
-0.78340143 0.4761281 -0.048044413
-0.75351799 0.45814595 -0.015393022
-0.77837956 0.47493842 -0.24432519
-0.77328163 0.47182786 0.015811879
-0.77013052 0.47008961 -0.20830467
-0.79603922 0.4860948 0.048881788
-0.7790519 0.47590855 -0.17745239
-0.76842803 0.46960282 0.078788787
-0.77029425 0.47074333 -0.14298111
-0.73504609 0.44937882 0.1057826
-0.78577203 0.48057884 -0.11309476
-0.76470119 0.46805906 -0.078440167
-0.76478517 0.46829364 -0.046997696
-0.76555431 0.46913233 -0.015672261
-0.77186304 0.47448197 -0.24277227
-0.77333337 0.47557178 0.015846785
-0.74690765 0.4595004 -0.20245595
-0.7756272 0.4773556 0.047730397
-0.76743752 0.47231531 -0.17516267
-0.77534956 0.47737131 0.079660349
-0.76528245 0.47135741 -0.14235538
-0.73347306 0.45194176 0.1057826
-0.78070992 0.4812355 -0.11260728
-0.76645428 0.47281748 -0.078788787
-0.75974649 0.46886262 -0.04678835
-0.78262711 0.48336017 -0.016056214
-6.9442062 4.3039103 -2.1890914
-0.77336836 0.4793216 0.015881689
-8.1535721 5.0554266 -2.2148681
-0.76377249 0.47374353 0.047102366
-9.9174156 6.1538515 -2.268719
-0.78713685 0.48861623 0.081054844
-12.480262 7.7501569 -2.3268065
-0.72008634 0.44716868 0.10407643
-0.80809802 0.50299662 -0.01661469
-13.955628 8.689991 4.4051003
-6.9258637 4.3260775 -2.1880562
-8.1498594 5.0945754 -2.2189171
-0.82985765 0.51875401 0.051289242
-9.8975401 6.1894712 -2.2691007
-0.76684642 0.47973728 0.079137415
-12.406247 7.7643313 -2.3180461
-0.7386331 0.46244565 0.10700129
-13.512442 8.4599104 -1.9574655
-13.410572 8.4026537 -1.3845561
-13.684072 8.5806723 -0.84648186
-13.836846 8.6832018 4.3771477
-6.9065738 4.3459339 -2.1865032
-8.137867 5.1246891 -2.2202671
-9.8968945 6.2348166 -2.27368
-12.34534 7.7833066 -2.311476
-0.72030514 0.45430273 0.10456391
-13.343275 8.415719 -1.9369916
-13.315241 8.4045401 -1.3775836
-13.50357 8.5300055 -0.83706135
-73.811928 46.643932 -1.5240837
-6.9051781 4.3770881 -2.1906445
-8.1158915 5.1485162 -2.2189171
-9.8761635 6.2676024 -2.27368
-12.264435 7.7892542 -2.3011513
-0.71879464 0.45668888 0.10456391
-13.246802 8.4196558 -1.927242
-13.263759 8.4336834 -1.3751433
-13.363996 8.5039701 -0.83015299
-6.8882294 4.4001255 -2.1901269
-8.1044397 5.1810112 -2.220717
-9.8707647 6.3126159 -2.2774963
-12.198904 7.8075233 -2.2939553
-0.70549363 0.45170251 0.10285773
-13.107005 8.3951797 -1.9111552
-13.123522 8.4089842 -1.3636388
-13.280429 8.5160685 -0.82680351
-6.8874478 4.4335523 -2.1947856
-8.0879431 5.2103248 -2.2211666
-9.8635206 6.3566041 -2.2809308
-12.131735 7.8243628 -2.2864466
-0.71225262 0.45954362 0.10407643
-13.014243 8.3999701 -1.9018931
-13.013747 8.4028673 -1.3552718
-13.180168 8.5168438 -0.82240731
-83.894867 54.253262 -1.7439142
-6.8719287 4.4575686 -2.1947856
-8.077879 5.2438312 -2.2234163
-9.8363333 6.3877888 -2.2797861
-12.061285 7.838675 -2.278312
-0.70898002 0.46094483 0.10383269
-12.904968 8.3933964 -1.8901937
-12.880795 8.3808737 -1.3444644
-13.059978 8.5039482 -0.816755
-13.056837 8.5116415 4.1763043
-6.8563786 4.4849792 -2.1953032
-8.0642061 5.2790785 -2.2252157
-9.8199453 6.4308872 -2.2816939
-11.979881 7.8513632 -2.2686129
-0.70554477 0.46257535 0.10358895
-12.773049 8.3775635 -1.8755693
-12.821867 8.4127827 -1.3416755
-12.917041 8.4816809 -0.8098467
-12.899621 8.4766922 4.1359286
-6.845521 4.5120749 -2.1968563
-8.0434017 5.3036461 -2.2243161
-9.8072691 6.4716144 -2.2839837
-11.892781 7.8507805 -2.2570367
-0.71063286 0.46928811 0.10456391
-12.731947 8.4111223 -1.8736194
-12.719294 8.4091406 -1.3340057
-12.838866 8.4914141 -0.80670649
-12.770087 8.4555397 4.1038351
-6.8369575 4.5390253 -2.1989267
-8.0280867 5.3338451 -2.2252157
-9.7922945 6.5084486 -2.2855103
-11.835701 7.8725519 -2.2514052
-0.69081116 0.45966932 0.10188278
-12.567008 8.3653154 -1.8536329
-12.625006 8.4070988 -1.3270333
-12.729371 8.483016 -0.80168223
-12.660143 8.446456 4.0779529
-6.8178606 4.5607147 -2.1978915
-8.0110378 5.3629203 -2.2256656
-9.7825661 6.5513301 -2.2885633
-11.772045 7.8896265 -2.2445219
-0.70074403 0.469816 0.10358895
-12.458597 8.3560534 -1.8419334
-12.473149 8.3689737 -1.3141342
-12.639992 8.4873133 -0.79791403
-12.576073 8.4539509 4.0603533
-6.8099103 4.5898833 -2.2004797
-8.0100393 5.4028406 -2.2306147
-9.75313 6.5810437 -2.2870369
-11.726425 7.9185104 -2.2410803
-0.70896959 0.4789263 0.10505138
-12.305803 8.312871 -1.8234093
-12.354727 8.3522053 -1.3047214
-12.550733 8.4910965 -0.79414588
-12.474381 8.4457903 4.0365419
-6.7866597 4.6070156 -2.1978915
-7.9985266 5.433754 -2.2324142
-9.7491131 6.6254883 -2.2912345
-11.660899 7.9306922 -2.2335715
-0.70409501 0.47904143 0.10456391
-12.255193 8.3380003 -1.819997
-12.238029 8.3325787 -1.2953086
-12.426778 8.4674377 -0.78807491
-12.376077 8.4392223 4.0137658
-6.7825084 4.6371279 -2.201515
-7.9836817 5.4624472 -2.233314
-9.7335701 6.6622176 -2.2927611
-11.593796 7.9414082 -2.2257497
-0.70577765 0.48361784 0.10505138
-12.117948 8.3066521 -1.8039103
-12.164322 8.341567 -1.2904279
-12.319585 8.4543552 -0.78305066
-12.308331 8.4561157 4.0013428
-6.7726436 4.6651583 -2.2035854
-7.9613566 5.4880705 -2.2324142
-9.7248001 6.7061844 -2.2961955
-11.544868 7.9672441 -2.2216825
-0.70081794 0.48382297 0.10456391
-12.026809 8.3060341 -1.7946482
-12.059726 8.3318815 -1.2824095
-12.230856 8.4564171 -0.77928245
-12.23267 8.467145 3.986331
-6.7690148 4.6975827 -2.2077267
-7.9469528 5.5191627 -2.2337639
-9.7142305 6.7490506 -2.2992485
-11.479684 7.9815583 -2.2144866
-0.70238417 0.48853332 0.10505138
-11.96841 8.3275604 -1.7902608
-11.963708 8.3304844 -1.2754371
-12.132429 8.4511156 -0.77488625
-12.14441 8.4689083 3.9671786
-6.7533355 4.7234688 -2.2082443
-7.942009 5.5569239 -2.2378132
-9.694253 6.7879882 -2.3003933
-11.437412 8.0145082 -2.2119834
-0.70067471 0.49098197 0.10505138
-11.870998 8.3214273 -1.7800238
-11.914984 8.3584614 -1.2733454
-12.016373 8.4358492 -0.76944327
-12.091063 8.4945879 3.9594138
-6.7225928 4.7369981 -2.2035854
-7.934329 5.5949802 -2.2414124
-9.6721039 6.8229184 -2.3007751
-11.375475 8.0304632 -2.2054133
-0.70211327 0.49583718 0.10553886
-11.804751 8.3396797 -1.7746614
-11.807633 8.3448095 -1.2649784
-11.95424 8.4546785 -0.76734984
-12.023494 8.5099573 3.9469907
-6.7154694 4.7671437 -2.2066913
-7.9093776 5.616745 -2.2396126
-9.6706333 6.8725581 -2.3061175
-11.340734 8.0624161 -2.2038488
-0.7037006 0.50046372 0.10602634
-11.75762 8.364974 -1.7717367
-11.726496 8.3489971 -1.2594005
-11.877333 8.4595127 -0.76420969
-12.07777 8.6054506 3.4237549
-11.966976 8.5328083 3.9381907
-6.6996236 4.7893867 -2.2066913
-7.8913064 5.6454554 -2.2400625
-9.6509829 6.9068747 -2.3068807
-11.293249 8.0881548 -2.2000947
-0.69549465 0.49829257 0.10505138
-11.6025 8.3157625 -1.7527251
-11.651948 8.3573656 -1.2545198
-12.0479 8.6413622 2.8819792
-11.773086 8.4473581 -0.75939476
-11.937118 8.5745287 3.9381907
-6.6977 4.8252029 -2.2118676
-7.8699722 5.6718264 -2.2396126
-9.6383419 6.9513893 -2.3099339
-11.237902 8.1109915 -2.1950886
-0.6969704 0.50304061 0.10553886
-11.502584 8.3050852 -1.7420006
-12.040547 8.696702 2.3524618
-11.554879 8.3489752 -1.2471986
-11.693489 8.4553471 -0.75625467
-6.6792507 4.8474202 -2.21135
-7.8522844 5.7029233 -2.2405124
-9.6124287 6.9838405 -2.3095522
-11.18875 8.1350689 -2.1910214
-0.71759695 0.5219391 0.1089512
-11.47849 8.3518572 -1.7429756
-11.464453 8.3447046 -1.2405748
-11.576729 8.4326115 -0.75060236
-6.6763263 4.8809652 -2.2160087
-7.8459139 5.7381349 -2.2441118
-9.602252 7.0277839 -2.3129869
-12.050375 8.8227692 1.3066388
-11.12346 8.1441221 -2.1835127
-0.70945621 0.51962399 0.10797625
-11.415503 8.3640642 -1.7376132
-11.415971 8.3705378 -1.2384831
-11.458514 8.4048033 -0.74474072
-6.6538811 4.8984971 -2.2139382
-7.8211298 5.7620182 -2.2427619
-9.588376 7.066577 -2.3152766
-11.080655 8.1723471 -2.1806967
-0.71083295 0.52445424 0.10846373
-11.351098 8.3779278 -1.732251
-11.325785 8.3653526 -1.2318592
-11.396979 8.4210119 -0.74264729
-6.6436405 4.9286051 -2.2165263
-7.8025322 5.7904468 -2.2432117
-9.5781727 7.1133776 -2.3190925
-11.034773 8.2011232 -2.177568
-11.273993 8.3819666 -1.7249388
-11.245363 8.3667774 -1.2262813
-11.321183 8.4293299 -0.73971647
-6.637228 4.9598608 -2.2201498
-12.021887 8.9869776 0.26199552
-7.7890596 5.824841 -2.2454615
-9.5548573 7.1479425 -2.3194742
-10.977614 8.2182817 -2.1719363
-11.233664 8.416091 -1.7234763
-11.200146 8.3940315 -1.2245381
-11.221386 8.416069 -0.73511088
-11.999786 9.0031443 -0.2618559
-6.6152434 4.9795156 -2.2185969
-7.769701 5.8506389 -2.2454615
-9.5470934 7.1942511 -2.3236721
-10.932949 8.24156 -2.1684947
-11.180337 8.4341707 -1.7195766
-11.103992 8.3826561 -1.2172171
-11.18704 8.4484215 -0.73469228
-6.6002345 5.0025902 -2.2191145
-7.7740746 5.8965659 -2.25266
-9.5263109 7.2282443 -2.3244352
-10.886811 8.266531 -2.1650534
-11.10025 8.4347134 -1.711777
-11.015859 8.3736153 -1.2105932
-11.106613 8.4487247 -0.73134273
-11.198153 8.5276175 3.7715113
-6.5842662 5.026773 -2.2196321
-7.7348619 5.9094701 -2.247261
-9.5197401 7.2757597 -2.3290148
-10.80611 8.2648802 -2.1547287
-11.010839 8.4275579 -1.7025148
-10.980232 8.4071751 -1.209896
-10.978763 8.4121256 -0.72485304
-11.166888 8.5593691 3.2482932
-6.5728068 5.0544348 -2.2217028
-7.7219076 5.9423776 -2.2495105
-9.4989538 7.3125362 -2.3301597
-10.716163 8.255537 -2.1425269
-10.921615 8.4198856 -1.6932528
-10.903487 8.4089499 -1.2046666
-11.107888 8.5696745 2.7270424
-10.93352 8.4381952 -0.72380638
-6.5673409 5.0868115 -2.2258439
-7.7103601 5.9764576 -2.2522099
-9.4640617 7.3384318 -2.3278699
-10.699766 8.3025789 -2.1450298
-10.857661 8.4311762 -1.6878905
-10.86463 8.4396229 -1.2036208
-10.844076 8.4297323 -0.71982878
-6.5449758 5.1061411 -2.2242911
-7.7032757 6.0141287 -2.2562592
-9.4492178 7.3798819 -2.3305411
-10.676945 8.3447428 -2.146281
-11.101753 8.6798811 1.7303011
-10.784385 8.4347801 -1.6810659
-10.78489 8.4382095 -1.1980428
-10.783134 8.4429054 -0.71773535
-6.524075 5.1265669 -2.2232556
-7.6898952 6.0470052 -2.2585087
-9.426486 7.4152479 -2.3313043
-11.010236 8.6641998 1.2257584
-10.554623 8.30865 -2.1275089
-10.686265 8.4183235 -1.6703414
-10.702164 8.433876 -1.1921163
-10.700277 8.4384451 -0.71417654
-6.5182567 5.1589017 -2.2273967
-7.6702695 6.0750194 -2.2589586
-11.064639 8.7665806 0.73982114
-9.4128542 7.4578614 -2.3343573
-10.525557 8.3454399 -2.1275089
-10.635043 8.4383011 -1.666929
-10.647688 8.4513664 -1.1893272
-10.651988 8.4608374 -0.71292049
-6.5002093 5.1816235 -2.2273967
-10.928559 8.7147856 0.24398464
-7.6444445 6.0981121 -2.2576087
-9.3975058 7.4992452 -2.3370285
-10.502534 8.387064 -2.1287606
-10.518683 8.4059706 -1.6532797
-10.571437 8.4511566 -1.1840979
-10.572485 8.4580402 -0.70957094
-6.4881091 5.2091179 -2.2294674
-7.6337457 6.1333032 -2.2607579
-9.3819857 7.5406117 -2.3397002
-10.386994 8.3543425 -2.1112397
-10.45216 8.4127674 -1.6474299
-10.492212 8.4480219 -1.1785198
-10.505569 8.4648209 -0.70705879
-10.882778 8.7718897 -0.24398464
-6.4728904 5.2341638 -2.2305026
-7.6254854 6.1683898 -2.2643573
-9.3617096 7.5782557 -2.3412266
-10.23642 8.2892904 -2.0862103
-10.418038 8.44238 -1.6464549
-10.419332 8.4494553 -1.1736392
-10.415399 8.4492798 -0.70287192
-6.451004 5.2519417 -2.2289498
-7.6054196 6.1961985 -2.2648072
-9.3213091 7.5968556 -2.3374104
-10.201303 8.3199768 -2.0849588
-10.360821 8.4561043 -1.6420677
-10.348039 8.4486818 -1.1687585
-10.354907 8.4603138 -0.70077848
-6.4371123 5.2781019 -2.2305026
-7.5822377 6.2214732 -2.2643573
-9.2795591 7.6168904 -2.3335941
-10.15846 8.3442497 -2.0821428
-10.214693 8.3964186 -1.6235435
-10.306175 8.4746256 -1.167364
-10.291383 8.4684887 -0.69847572
-6.4171615 5.2993083 -2.229985
-7.5589724 6.2466607 -2.2639074
-9.2377834 7.6367283 -2.329778
-10.512828 8.6969662 -2.1609859
-13.569219 11.233411 -2.1629374
-6.4060488 5.3278542 -2.2325733
-7.5506029 6.2842269 -2.2679565
-9.174859 7.6387792 -2.3206191
-10.479372 8.7310781 -2.1603601
-13.481133 11.240029 -2.1551375
-9.8412933 8.2081928 -1.1211715
-30.781902 25.692049 -2.1012888
-6.38445 5.3477025 -2.2315381
-7.53758 6.3180575 -2.2706561
-9.1300859 7.655622 -2.3160398
-10.436724 8.7574501 -2.1578572
-13.394691 11.247448 -2.1475818
-30.76848 25.863605 -2.1065226
-6.3657455 5.3699546 -2.2315381
-7.5184579 6.3468447 -2.2715557
-9.0913095 7.67731 -2.3129869
-10.391003 8.7810783 -2.1547287
-13.331095 11.273626 -2.1436818
-30.72374 26.009562 -2.1096625
-6.3602123 5.4033999 -2.2361965
-7.5096211 6.384409 -2.2756047
-9.0405254 7.6886468 -2.3068807
-9.8187304 8.3563948 -2.0420959
-9.8006153 8.346879 -1.5806454
-9.5864582 8.1673737 -1.1018229
-9.7453365 8.3086061 -0.67115635
-9.7269382 8.2987852 -0.22318138
-6.338376 5.4230566 -2.2351615
-9.8111191 8.3972731 0.22541527
-7.4843292 6.4080491 -2.2747052
-8.9897738 7.6997266 -2.3007751
-9.7430077 8.3507633 -2.0323968
-9.7412853 8.3551912 -1.5757707
-9.5442839 8.1891088 -1.1002541
-9.6684799 8.298605 2.4767008
-9.6874838 8.317853 -0.66916758
-9.7464457 8.3743906 -0.22429833
-6.328187 5.4527164 -2.2382672
-9.7211618 8.3792439 0.2240191
-7.4737215 6.4443154 -2.2783043
-9.7275686 8.3906889 0.67324978
-8.9360819 7.7079782 -2.2939057
-9.7355785 8.4005575 1.1250063
-9.6958542 8.3692331 -2.0286424
-9.7435732 8.4133959 1.5806454
-9.6940355 8.3735704 -1.5728458
-9.56991 8.2692728 -1.1065294
-9.6523495 8.3463907 -0.66874892
-9.6627159 8.3612556 -0.22304176
-6.3076577 5.4735055 -2.2377496
-9.63447 8.3633127 0.2226927
-7.4482369 6.4678111 -2.2774045
-9.6409245 8.3748198 0.6692723
-8.8824444 7.7159476 -2.2870369
-9.6490469 8.3848295 1.1183825
-9.6934137 8.4263573 -2.0342741
-9.6392517 8.382225 1.5684586
-9.6827192 8.4229927 -1.5757707
-9.6428061 8.3912325 2.024575
-9.6221466 8.3732548 -1.1159421
-9.66362 8.4123058 2.4904392
-9.7436523 8.4849634 -0.67712265
-9.6304035 8.3893042 2.9486585
-9.6334724 8.3949308 -0.22304176
-9.6488867 8.4113312 3.4298701
-6.281239 5.4891334 -2.2351615
-9.626298 8.4153175 0.22318138
-7.4344177 6.5014668 -2.2801039
-9.5935936 8.3926411 0.66801625
-8.8347692 7.7288084 -2.2816939
-9.5837326 8.3869724 1.1141989
-9.8274364 8.6032686 -2.0686896
-9.5830517 8.3922806 1.5640713
-9.6890926 8.4881363 -1.5816205
-9.5718603 8.3883848 2.0158148
-9.6438084 8.451436 -1.1218687
-9.5648108 8.3851585 2.4725029
-9.7049627 8.5110254 -0.67649466
-9.5453959 8.374032 2.9315622
-9.6311636 8.4522495 -0.22367005
-9.5701065 8.4016275 3.4122705
-6.272192 5.5199604 -2.2387848
-9.6268806 8.4752989 0.22387949
-7.4189906 6.5338182 -2.2823534
-9.6241837 8.4788895 0.67220312
-8.7723827 7.7284536 -2.2725353
-9.5842953 8.4467192 1.1176852
-10.06406 8.8726616 -2.125006
-9.5834751 8.4519415 1.568946
-13.083144 11.542459 -2.1422195
-9.5721426 8.4478874 2.0220721
-18.810226 16.600952 -2.1949303
-9.539896 8.4223948 2.4736481
-9.5321712 8.4214945 2.936511
-9.6765175 8.5520325 -0.22541527
-9.5204611 8.4170666 3.4050236
-6.2601161 5.5482264 -2.2413731
-7.3888478 6.5532103 -2.2801039
-8.7350721 7.749908 -2.2698641
-9.5964766 8.5171547 1.122566
-10.038937 8.9129848 -2.1262577
-9.5598507 8.4906149 1.569921
-13.250531 11.772644 -2.176343
-9.5795174 8.5110731 2.0295811
-18.729824 16.646658 -2.1923156
-9.5383177 8.4804277 2.4808986
-9.5332899 8.4819183 2.9459591
-9.5271292 8.4794159 3.4174469
-6.2450323 5.5739045 -2.2429259
-7.3743443 6.5841665 -2.2823534
-8.6860056 7.7607312 -2.2641397
-10.004906 8.942276 -2.1253188
-13.519177 12.091784 -2.2270405
-18.702778 16.73984 -2.195976
-9.5525656 8.5499821 2.4919655
-29.844397 26.721479 -2.0994048
-9.5312395 8.5368881 2.9540572
-9.5348749 8.5461445 3.4309053
-6.227951 5.5958748 -2.2434435
-7.3600121 6.6176834 -2.285053
-8.628109 7.7606077 -2.255744
-9.9736319 8.9771433 -2.1253188
-12.913443 11.631397 -2.1339324
-18.5776 16.739082 -2.1877835
-29.368242 26.480433 -2.0723994
-6.2040825 5.6136918 -2.2418907
-7.344089 6.6498747 -2.2873023
-8.5835056 7.7748632 -2.2511647
-9.9656506 9.0331316 -2.1303248
-12.969809 11.764424 -2.1500192
-18.567743 16.848015 -2.1935358
-29.719227 26.985565 -2.103801
-6.1915903 5.641819 -2.2444789
-7.3165112 6.6715326 -2.2859526
-8.5490627 7.7981596 -2.2492564
-9.9486475 9.0811815 -2.1334534
-12.916938 11.798915 -2.1480694
-18.499994 16.904663 -2.1924899
-29.618948 27.083757 -2.1033823
-19.582264 17.924984 7.1133828
-6.1775517 5.6686211 -2.2465494
-7.2974854 6.7009835 -2.2873023
-8.5087776 7.8160019 -2.245822
-9.9125271 9.1118412 -2.132515
-12.676976 11.661161 -2.1149206
-18.427681 16.956989 -2.1909211
-29.62413 27.278982 -2.1104999
-19.528099 18.001087 7.1164889
-6.1695008 5.7030272 -2.2512081
-7.2757378 6.7303324 -2.2882023
-8.480073 7.8471355 -2.245822
-9.8587732 9.1293211 -2.1281347
-14.34647 13.294278 -2.4015574
-18.377092 17.035257 -2.1923156
-29.15789 27.047794 -2.084332
-19.516111 18.116457 7.1351237
-6.1467285 5.7218957 -2.2501729
-7.2590828 6.7597346 -2.2900016
-8.4253397 7.8512588 -2.2385712
-9.7995453 9.135025 -2.1218774
-14.296499 13.336364 -2.4005826
-18.310232 17.092505 -2.1914439
-28.819878 26.912601 -2.0665376
-6.1263099 5.7409267 -2.2496552
-7.2411304 6.7903633 -2.2918015
-8.403554 7.8831859 -2.2397161
-9.7560759 9.1583605 -2.1193743
-14.142793 13.285609 -2.3825459
-18.273777 17.172232 -2.1938844
-28.609362 26.903584 -2.0581639
-6.1062331 5.7622766 -2.2496552
-7.2230487 6.8209515 -2.2936008
-8.3702765 7.9070787 -2.2381897
-9.3967543 8.8829622 -2.0480404
-15.241345 14.418054 -2.5760744
-18.20215 17.224957 -2.1924899
-28.376049 26.871454 -2.0481155
-8.9581108 8.486084 2.8487802
-8.9111862 8.4475384 3.290108
-6.0916843 5.7888784 -2.2517259
-7.1935468 6.8407516 -2.2918015
-8.3312464 7.9254212 -2.2351367
-9.3055983 8.8585043 -2.0348997
-15.280034 14.556065 -2.5911863
-9.0793037 8.6521492 1.9864051
-18.077009 17.226538 -2.1846459
-8.9453526 8.5274734 2.4022853
-27.521803 26.245316 -1.9930581
-6.0756273 5.8141141 -2.2532787
-7.1794777 6.8752542 -2.2949507
-8.2780123 7.9300084 -2.2282674
-9.0079422 8.6322718 1.0915384
-9.2446756 8.8622246 -2.0283296
-8.9819794 8.6134052 1.527998
-15.312214 14.689017 -2.6053228
-17.999516 17.272978 -2.182554
-27.99761 26.886286 -2.0342989
-6.0636401 5.8433313 -2.2563846
-9.0785742 8.7517767 0.22010975
-7.1638513 6.9083891 -2.2976501
-9.0845842 8.7636938 0.66152656
-8.2304964 7.9397755 -2.2229249
-9.2065783 8.8875809 -2.0267651
-15.300826 14.780997 -2.6121478
-9.2066727 8.8969898 -1.1201255
-9.1470938 8.8455944 -0.66686481
-9.1249828 8.8303785 -0.22164556
-6.0376616 5.8590789 -2.2543139
-7.1508765 6.9442148 -2.3012493
-8.1942835 7.9602466 -2.2206352
-9.2732296 9.0146742 -2.0483532
-15.177995 14.765103 -2.5999608
-17.821373 17.342638 -2.1755817
-27.600323 26.877645 -2.0190167
-6.032371 5.8949714 -2.2600081
-7.1335583 6.9759488 -2.3034987
-8.1566238 7.9791923 -2.2179639
-9.2007685 9.0069141 -2.0392799
-15.183084 14.873562 -2.6097105
-17.755033 17.39916 -2.1748843
-27.574778 27.040958 -2.0240412
-6.0076265 5.9119277 -2.2584553
-7.1049995 6.9967031 -2.3021491
-8.1133366 7.9924603 -2.2137661
-9.2705612 9.1388216 -2.0618064
-15.122589 14.918108 -2.6082478
-17.56089 17.329479 -2.158499
-27.386425 27.044424 -2.0171328
-5.9938154 5.9396591 -2.2610431
-7.0971375 7.0379281 -2.3075478
-8.0644827 7.9999909 -2.2080419
-9.2456141 9.1780853 -2.0633709
-14.923961 14.825306 -2.5828991
-17.596392 17.486174 -2.1703522
-27.246538 27.094782 -2.013783
-5.9744124 5.9619122 -2.2615609
-7.0987291 7.0888205 -2.3160961
-8.0101166 8.0017328 -2.2007911
-14.897382 14.902581 -2.5872865
-17.523979 17.536215 -2.1689577
-27.002199 27.039921 -2.0026879
-5.954927 5.9840999 -2.2620785
-7.089056 7.1287565 -2.3210452
-7.977984 8.0254669 -2.1996462
-9.8272772 9.8926706 -2.2085421
-14.845271 14.954493 -2.5872865
-17.428978 17.563337 -2.1647744
-26.887957 27.114159 -2.0012226
-5.9353604 6.0062246 -2.2625961
-7.0586495 7.1479135 -2.3192453
-7.9416456 8.0448837 -2.1973565
-9.798234 9.932539 -2.2097936
-14.756749 14.969462 -2.5809493
-17.30603 17.561628 -2.1571047
-26.71467 27.128159 -1.995361
-5.9184184 6.0310407 -2.264149
-7.0322914 7.1711183 -2.3187954
-7.9080195 8.066946 -2.1958301
-9.7607384 9.9638586 -2.2091677
-14.629416 14.944283 -2.5677874
-17.356104 17.735851 -2.1710496
-26.385212 26.981344 -1.9777759
-5.9040713 6.0585814 -2.2667372
-7.0099368 7.1984129 -2.3196952
-7.864749 8.0790281 -2.1916323
-9.7327881 10.004947 -2.2107322
-14.566092 14.983873 -2.5658374
-17.277431 17.779177 -2.1689577
-26.199036 26.978718 -1.9708676
-5.8815427 6.0777674 -2.2662196
-6.995605 7.234045 -2.3232944
-7.8283105 8.0979643 -2.1893425
-9.6991768 10.04028 -2.211045
-14.701206 15.228858 -2.5989857
-17.245699 17.870918 -2.1727924
-26.146301 27.113131 -1.9740078
-5.8629699 6.1010447 -2.2672548
-6.9811091 7.2696657 -2.3268938
-7.7999973 8.1252394 -2.1893425
-9.6654348 10.075504 -2.2113578
-14.779835 15.41765 -2.6223848
-17.128069 17.873474 -2.1658201
-26.203451 27.362909 -1.9855218
-5.846972 6.1270642 -2.2693255
-6.9610696 7.2996311 -2.3286932
-7.7675223 8.1481533 -2.1881976
-9.6261215 10.104889 -2.2104194
-14.70129 15.443267 -2.6179974
-17.077942 17.94614 -2.1673892
-26.082993 27.428164 -1.9836376
-5.8308635 6.1530452 -2.2713959
-6.9288464 7.3168106 -2.3264439
-7.7255363 8.1609612 -2.1843815
-9.5907898 10.138429 -2.2104194
-14.639112 15.485836 -2.6165349
-17.004244 17.994059 -2.1659944
-26.077604 27.614878 -1.9905459
-5.8119993 6.1761742 -2.2724314
-6.9152789 7.3537292 -2.330493
-7.6808677 8.1707115 -2.1798022
-9.556694 10.173285 -2.2107322
-14.587683 15.539737 -2.6170225
-16.930422 18.041681 -2.1645999
-25.836235 27.55131 -1.9794508
-9.2582626 9.883215 3.628643
-5.7930412 6.1992488 -2.2734666
-6.8948889 7.3835182 -2.3322923
-7.6214843 8.1644659 -2.1710248
-9.5319052 10.218136 -2.2132351
-14.351972 15.395989 -2.5843616
-16.787207 18.014668 -2.1543155
-25.677294 27.574091 -1.974636
-5.7674246 6.2151847 -2.2719138
-6.8730483 7.411828 -2.3336422
-7.5835958 8.1809425 -2.1683536
-9.4881229 10.242654 -2.2113578
-14.513905 15.679071 -2.6233597
-16.740454 18.090708 -2.1564074
-25.602583 27.687008 -1.9763105
-7.865406 8.5087481 2.675118
-5.7483139 6.2381186 -2.272949
-6.8444929 7.43291 -2.3327425
-7.5549941 8.2073622 -2.1683536
-9.4496355 10.272803 -2.2107322
-13.615424 14.811844 -2.4702919
-16.721689 18.197445 -2.1621597
-25.562511 27.838003 -1.9807067
-5.7302041 6.2599969 -2.2739842
-6.8237543 7.459878 -2.3340921
-7.5184622 8.222229 -2.1656821
-9.4181833 10.307 -2.2113578
-14.449677 15.82441 -2.6311593
-16.646477 18.236612 -2.1602423
-7.8128867 8.5622034 2.2530727
-5.7174129 6.2899671 -2.2776077
-6.8029137 7.4894223 -2.3358917
-7.4857559 8.2440634 -2.1645374
-9.3927689 10.351514 -2.2138608
-14.349015 15.824755 -2.6228724
-16.5399 18.24737 -2.1546643
-24.830742 27.413326 -1.9384193
-5.6954217 6.3098865 -2.2776077
-6.775424 7.5116763 -2.3354418
-7.4503593 8.2628536 -2.1626294
-9.3578997 10.385706 -2.2141736
-14.291027 15.871798 -2.6223848
-7.7428384 8.6023102 1.8330992
-16.486771 18.316837 -2.1560588
-25.293198 28.120543 -1.9821721
-5.6746526 6.3311663 -2.2781253
-6.7439609 7.5294747 -2.3336422
-7.4162345 8.2829571 -2.1611028
-9.3176384 10.413892 -2.2132351
-14.211724 15.894946 -2.6179974
-16.4307 18.383188 -2.1571047
-25.210859 28.226534 -1.9834284
-5.6550856 6.3538237 -2.2791607
-6.7085733 7.5427756 -2.330493
-7.3807526 8.3014603 -2.1591947
-9.2746725 10.438968 -2.2116706
-7.7102342 8.6811924 1.4256277
-14.232596 16.030556 -2.6321344
-16.349241 18.421055 -2.1548386
-24.751705 27.907928 -1.9549574
-5.6367102 6.3778677 -2.2807136
-6.6693025 7.5515404 -2.3259938
-7.3452325 8.3198147 -2.1572866
-7.6571136 8.6761246 1.0124011
-9.2434025 10.477207 -2.2129223
-14.181803 16.086096 -2.6331093
-16.295372 18.489975 -2.1562331
-24.765022 28.120066 -1.96375
-9.1349745 10.376186 3.1916056
-5.6169624 6.4004073 -2.2817488
-6.6339059 7.5645199 -2.3228445
-7.3057947 8.3335924 -2.1542337
-9.2080746 10.510894 -2.2132351
-14.149105 16.162384 -2.6374965
-16.253036 18.572233 -2.1591964
-24.572046 28.098089 -1.9562136
-5.5983939 6.4243445 -2.2833018
-6.5921025 7.5699949 -2.3174458
-7.6033359 8.7343111 0.60688782
-7.2663474 8.3471966 -2.1511807
-9.1791077 10.551914 -2.2151122
-14.02227 16.130777 -2.6243346
-16.209017 18.652916 -2.1619854
-24.832626 28.596895 -1.9848937
-5.5696139 6.4365435 -2.2807136
-6.5618162 7.5885367 -2.3160961
-7.2435846 8.3799362 -2.1530888
-9.1409292 10.582395 -2.2147994
-13.989225 16.206675 -2.628722
-16.096949 18.655079 -2.15571
-24.36746 28.259876 -1.9555855
-5.5471125 6.455946 -2.2807136
-7.5739884 8.8180161 0.20290168
-6.5200534 7.5936542 -2.3106971
-7.2040601 8.3932524 -2.1500359
-9.0936441 10.602242 -2.2122965
-13.98683 16.318708 -2.6389589
-16.040812 18.721741 -2.1569302
-24.367393 28.46006 -1.9635406
-5.5320644 6.4840889 -2.2838194
-6.4720149 7.5911551 -2.3030491
-7.1785364 8.4228334 -2.1511807
-9.0629816 10.641443 -2.2138608
-13.945224 16.385571 -2.6418839
-15.945663 18.742722 -2.1529212
-24.275671 28.554071 -1.9641687
-7.5056982 8.8316507 -0.2023083
-5.5143933 6.5092554 -2.2858899
-6.4442854 7.6096029 -2.3021491
-7.1490927 8.4478378 -2.1511807
-9.0340252 10.678977 -2.2154253
-13.865174 16.401407 -2.6370089
-15.930289 18.857622 -2.1597192
-24.126719 28.570332 -1.9597725
-5.4902911 6.5245476 -2.2848547
-6.4277158 7.6439857 -2.3057485
-7.113462 8.4624796 -2.148891
-8.9916086 10.704398 -2.2141736
-13.82571 16.470989 -2.6404214
-15.869484 18.919226 -2.1604166
-24.024279 28.651306 -1.959563
-5.4675779 6.5461125 -2.2853725
-6.4147344 7.6828289 -2.3106971
-7.076107 8.4809608 -2.1469829
-8.9485226 10.73273 -2.2132351
-13.857094 16.625898 -2.6574831
-7.4018445 8.8871212 -1.0118781
-9.011776 10.823948 2.7377276
-23.607351 28.364605 -1.9340231
-5.4483948 6.5696168 -2.2869251
-6.3890204 7.7092872 -2.3115969
-7.0477138 8.5071192 -2.1473646
-8.9072266 10.759333 -2.2122965
-13.760637 16.633745 -2.6506586
-15.71544 19.003445 -2.1574533
-23.518381 28.459148 -1.9348605
-5.4291115 6.5930705 -2.2884779
-6.3683724 7.7364521 -2.3133967
-7.0179734 8.5316706 -2.1473646
-8.8714952 10.788814 -2.2122965
-7.3397913 8.9324293 -1.4195342
-15.650269 19.059729 -2.1576276
-23.869919 29.080402 -1.9717051
-5.4170046 6.6229997 -2.2926192
-6.3573618 7.7782488 -2.3192453
-6.9834337 8.5472927 -2.1454566
-8.8350334 10.821243 -2.2126093
-13.65337 16.734715 -2.6518769
-15.549206 19.065201 -2.1523981
-23.624426 28.987047 -1.9597725
-5.3877616 6.6343713 -2.290031
-6.3399935 7.8124995 -2.3228445
-6.9473686 8.5639954 -2.1435483
-7.3007331 9.0060101 -1.836228
-13.471164 16.629568 -2.6277468
-6.5074878 8.0360794 -0.90467656
-5.3633599 6.6516333 -2.2895133
-6.3273578 7.8527904 -2.3282435
-6.9149718 8.5851355 -2.1427851
-8.7691803 10.894971 -2.2151122
-13.507591 16.794046 -2.646271
-6.4793992 8.0587444 -0.90467656
-23.484028 29.229116 -1.965006
-5.3425245 6.6733289 -2.2905486
-6.2962542 7.8702669 -2.3268938
-6.8935466 8.6199522 -2.1454566
-8.7286272 10.922431 -2.2144866
-13.394378 16.772848 -2.6355467
-6.4947324 8.1358128 -0.91077751
-23.416723 29.354639 -1.9679368
-5.3300147 6.7055497 -2.2952073
-6.2699575 7.8937216 -2.3273437
-6.8756218 8.6593409 -2.1492727
-8.6978159 10.962115 -2.2163637
-13.422083 16.928381 -2.6526084
-6.5120854 8.2162046 -0.91722697
-23.232277 29.332857 -1.9610285
-5.3101645 6.7286654 -2.2967603
-6.241334 7.9114089 -2.3264439
-8.6504154 10.976933 -2.2135479
-6.4759922 8.2236128 -1.2852342
-6.3539958 8.0744839 -0.89892429
-22.892839 29.10207 -1.9405129
-5.2902098 6.7492747 -2.2977955
-6.2124763 7.9316139 -2.3259938
-6.4376893 8.222105 -2.0298262
-6.4465556 8.2393522 -1.6569542
-6.4264631 8.2195816 -1.2810906
-8.9829464 11.489377 2.3099115
-6.2854676 8.0421371 -0.89299768
-6.4320168 8.2355671 -0.54764348
-6.4261169 8.2309742 -0.18227293
-5.26543 6.7661762 -2.2972779
-6.3972154 8.220542 0.18181917
-6.1873379 7.9537086 -2.3264439
-6.4000421 8.2300997 0.54638743
-6.3969021 8.2290249 -2.02601
-6.3815713 8.2122612 0.90990597
-6.4022288 8.2388449 -1.6525738
-6.3726015 8.2036724 1.2754847
-6.2469854 8.0448599 -1.2506232
-6.3013306 8.1206951 -0.89927298
-6.3789654 8.2237091 -0.54544538
-6.3752933 8.2249088 -0.18164465
-5.2465024 6.7906313 -2.2993486
-6.3645964 8.2407703 0.18174936
-6.156951 7.9747915 -2.3259938
-6.3673916 8.2503405 0.5461781
-6.3513427 8.2295465 -2.0206673
-6.3601661 8.2439537 0.91095179
-6.3538918 8.2387924 -1.6478808
-6.3606691 8.2505579 1.2791407
-6.2610779 8.1243086 -1.2593979
-6.3640447 8.2608976 1.6516353
-6.2948294 8.171052 -0.90241051
-6.3247542 8.2128611 2.0149431
-6.3475604 8.2454519 -0.54534072
-6.2917886 8.1759558 2.3817818
-6.3438864 8.2466326 -0.18160973
-6.2886033 8.177721 2.7641876
-5.226295 6.8135014 -2.3009014
-6.3297095 8.2550011 0.18157484
-6.1207795 7.9854069 -2.3228445
-6.3336959 8.2661734 0.54575938
-6.3667607 8.3093262 -2.0347872
-6.3240838 8.2566128 0.90990597
-6.3347034 8.273468 -1.6503837
-6.3161473 8.2522163 1.2759721
-6.267664 8.1918325 -1.2664663
-6.3279705 8.2736454 1.6497581
-6.2892685 8.2230434 -0.90572244
-6.3115506 8.2551622 2.0199041
-6.3066139 8.2516899 -0.544294
-6.3211837 8.2737455 2.403827
-6.3053541 8.2560129 -0.1813305
-6.3233252 8.2825394 2.7921398
-5.2095037 6.8409228 -2.3040073
-6.2851071 8.256362 0.18112107
-6.0905061 8.003624 -2.3219447
-6.2709475 8.243722 0.54282862
-6.2735143 8.2500925 0.90676832
-6.3404503 8.3411379 -1.6594571
-6.2716918 8.253665 1.2728035
-6.3314853 8.3353815 -1.2852342
-6.2703791 8.2579279 1.6422491
-6.3026948 8.3004866 -0.91182339
-6.2743893 8.2661953 2.0172329
-6.3055363 8.3102493 -0.54670143
-6.2745972 8.2724724 2.3970783
-6.2885771 8.2939081 -0.18167956
-6.266367 8.2676125 2.7797167
-5.1844263 6.8575268 -2.3034897
-6.2888036 8.3213234 0.18206351
-6.0648818 8.0279436 -2.3228445
-6.2806478 8.3165655 0.5461781
-6.6008353 8.7405443 -2.1290469
-6.2566843 8.2878408 0.90851146
-8.4567099 11.206144 -2.2235599
-6.2416453 8.2739248 1.2725598
-13.029006 17.277519 -2.6569958
-6.2177353 8.2482157 1.6359918
-6.310863 8.3717556 -0.91722697
-6.2372246 8.2770739 2.0145614
-6.3101392 8.3768768 -0.54963231
-6.2175508 8.2569609 2.3862808
-6.2752233 8.3365774 -0.18213332
-6.220048 8.2662792 2.7719519
-5.1488585 6.8601317 -2.2983131
-6.2885227 8.3816128 0.18290122
-6.0391626 8.0521822 -2.3237445
-6.2707462 8.3640079 0.54785281
-6.5596828 8.7493954 -2.1256123
-6.251615 8.3415155 0.91199768
-8.4033308 11.216623 -2.2198052
-6.2460423 8.3401518 1.2793844
-12.960292 17.311766 -2.6552894
-6.2291498 8.3236418 1.6466295
-14.759738 19.722557 -2.1551871
-6.2118196 8.3035126 2.0157063
-22.564932 30.174122 -1.974636
-6.2213588 8.3223181 2.3988781
-6.1876888 8.2832975 2.7703991
-5.1341162 6.8904552 -2.3024545
-6.0086884 8.0700884 -2.3228445
-6.3440685 8.523632 0.55685461
-6.5466862 8.7958622 -2.1313365
-6.2771659 8.4368181 0.92001605
-8.3205051 11.187243 -2.2082293
-6.2405815 8.3937635 1.2842592
-12.876096 17.325039 -2.6504147
-6.2518883 8.4151049 1.6603956
-14.69674 19.78196 -2.1560588
-6.2085514 8.3598194 2.024102
-22.478506 30.278368 -1.9763105
-6.2154994 8.3752813 2.407876
-6.1932573 8.3514004 2.7859285
-5.1215229 6.9238653 -2.3076308
-5.9758506 8.0847445 -2.3210452
-6.5171127 8.82024 -2.1317184
-8.3048725 11.248 -2.2144866
-8.7763758 11.89094 1.8146347
-12.827323 17.385857 -2.6528521
-14.624054 19.828327 -2.1555357
-22.367931 30.350222 -1.9758918
-6.2021885 8.4216671 2.8024926
-5.1076117 6.9557157 -2.3122892
-5.9490056 8.1045189 -2.3210452
-6.4920878 8.8508511 -2.1336262
-8.2628517 11.269109 -2.2132351
-12.750831 17.402674 -2.6489525
-14.607712 19.951599 -2.1633797
-21.795334 29.779545 -1.9340231
-5.0811038 6.9679308 -2.3107367
-5.925271 8.1315327 -2.3228445
-6.4557676 8.8628073 -2.1313365
-8.2246304 11.299478 -2.2135479
-12.709861 17.474365 -2.6530957
-14.525097 19.984735 -2.1614623
-21.813334 30.023493 -1.9449091
-5.0566621 6.9880743 -2.311254
-5.8945646 8.1490107 -2.3219447
-6.4243884 8.8880033 -2.1317184
-8.1172342 11.238268 -2.1957142
-12.642971 17.510582 -2.6518769
-14.484397 20.075706 -2.1658201
-21.906389 30.385136 -1.9631219
-5.0446377 7.0229411 -2.3169482
-5.8601136 8.1642265 -2.3201451
-6.3933268 8.9103737 -2.1317184
-8.1424112 11.356438 -2.2132351
-12.601832 17.589073 -2.6567519
-14.391025 20.093752 -2.162334
-21.811821 30.477657 -1.9641687
-5.0290661 7.0530891 -2.3210893
-5.8262229 8.1740913 -2.3174458
-6.3690205 8.9422293 -2.1340079
-8.0943985 11.368892 -2.2104194
-12.525028 17.604883 -2.6528521
-14.320791 20.143867 -2.162334
-21.712938 30.553078 -1.9643779
-5.0067635 7.0713048 -2.3216069
-5.7931504 8.1880178 -2.3156462
-6.3381948 8.9616985 -2.1336262
-8.0455408 11.384174 -2.2079163
-12.426849 17.596611 -2.6450524
-14.295283 20.249842 -2.1686091
-21.693661 30.752716 -1.972333
-4.9764972 7.0808353 -2.3190186
-5.7667751 8.2113781 -2.316546
-6.3068762 8.9837666 -2.1336262
-8.0012178 11.405719 -2.2066648
-12.360788 17.633385 -2.6440775
-14.245085 20.328991 -2.1717467
-21.634289 30.896975 -1.9767292
-4.9495378 7.094996 -2.3179834
-5.735846 8.2282619 -2.3156462
-6.274354 9.0041189 -2.1332448
-8.6981277 12.487041 1.3313911
-7.8857241 11.324967 -2.1857026
-12.385333 17.800261 -2.6626017
-14.15584 20.352419 -2.1689577
-21.599266 31.077265 -1.9834284
-4.9269423 7.1154051 -2.3190186
-5.7026553 8.2418222 -2.3138466
-6.2518172 9.0388851 -2.1362975
-7.8146987 11.306922 -2.1769423
-12.308459 17.822147 -2.6594329
-14.115276 20.445972 -2.1736641
-21.504269 31.172192 -1.9846842
-4.9042621 7.1357465 -2.3200541
-5.6606145 8.2423992 -2.3084476
-6.2246737 9.0671244 -2.1378241
-7.7394261 11.282003 -2.1669304
-12.211376 17.814249 -2.6518769
-13.988631 20.414591 -2.165123
-21.336641 31.161377 -1.9792414
-4.8836789 7.1592035 -2.3221245
-5.632905 8.2637215 -2.3088977
-6.1996207 9.0985308 -2.1401138
-7.6544132 11.242007 -2.1541028
-12.149122 17.856764 -2.6518769
-13.904965 20.445171 -2.1632056
-21.304083 31.34799 -1.9863591
-4.8586602 7.1762066 -2.3221245
-5.6029296 8.2817202 -2.3084476
-6.1678214 9.1201181 -2.1401138
-7.6449842 11.31285 -2.1625502
-12.124483 17.955002 -2.6601644
-13.861376 20.53487 -2.1675632
-21.212391 31.448664 -1.9880338
-4.8346572 7.1947279 -2.3226421
-5.5729022 8.2996092 -2.3079977
-6.1468916 9.1578922 -2.14393
-7.5724416 11.29025 -2.1531644
-12.039634 17.964231 -2.6552894
-13.838408 20.65596 -2.1752331
-20.640287 30.832083 -1.9444904
-4.8105869 7.2131662 -2.3231599
-5.537415 8.3092804 -2.3052983
-6.2204638 9.3377838 -2.1809468
-7.4727845 11.226171 -2.1359563
-11.982192 18.007368 -2.655777
-13.78167 20.727364 -2.1776733
-20.96137 31.549406 -1.9851029
-4.7930379 7.2387447 -2.3262658
-5.5033755 8.3178473 -2.302599
-6.2306209 9.4205847 -2.1954484
-7.4409585 11.259131 -2.1375208
-11.92132 18.045341 -2.6555333
-13.744685 20.821175 -2.1827283
-20.905029 31.692099 -1.9897085
-4.773253 7.2610559 -2.3283362
-5.4714851 8.3295364 -2.3007994
-8.5683737 13.044096 0.81790644
-6.2079697 9.4543209 -2.1985013
-7.3786602 11.245757 -2.1303248
-11.842909 18.056555 -2.6513896
-13.68649 20.883301 -2.1844714
-20.644434 31.523993 -1.9748452
-4.7502017 7.2784629 -2.3288538
-5.4427667 8.3460035 -2.3003495
-6.1808701 9.4814358 -2.2000279
-7.3176036 11.233751 -2.1234417
-11.789461 18.105713 -2.6528521
-13.638889 20.961977 -2.1879578
-20.724861 31.876934 -1.9926394
-4.7161455 7.284472 -2.3252304
-5.4100242 8.3626213 -2.2994497
-6.1439476 9.5007277 -2.1992648
-7.2946091 11.2887 -2.1287606
-11.751085 18.199207 -2.6599205
-13.507949 20.928122 -2.1792421
-20.28747 31.455856 -1.9616566
-6.5472255 10.163195 3.2393794
-4.6938205 7.305768 -2.3267834
-5.3713279 8.3666964 -2.2954006
-6.1043816 9.5122051 -2.196975
-7.2359633 11.284165 -2.1231289
-11.691765 18.246803 -2.6608956
-13.468123 21.027161 -2.1846459
-20.347647 31.792274 -1.9781946
-4.6714072 7.3269935 -2.3283362
-5.3368521 8.3771772 -2.2931509
-6.0922346 9.5665731 -2.2046072
-7.139266 11.219357 -2.1062338
-11.602443 18.247299 -2.6550457
-13.378615 21.04882 -2.1820312
-19.945305 31.40452 -1.9497238
-4.6468368 7.3448858 -2.3288538
-5.303411 8.3891687 -2.2913516
-6.0535607 9.5794811 -2.2026992
-7.1570091 11.334407 -2.1231289
-11.55562 18.314552 -2.6589456
-13.302928 21.092024 -2.1816826
-20.178444 32.018044 -1.9834284
-4.6191139 7.3577909 -2.3278186
-5.2730608 8.4059782 -2.2909014
-6.0179973 9.597229 -2.201936
-7.0796447 11.299057 -2.1118655
-11.501103 18.369917 -2.6611392
-13.236625 21.150152 -2.1829028
-20.03903 32.044247 -1.9807067
-6.6130333 10.578953 2.8802733
-4.5923786 7.3722315 -2.327301
-5.2416282 8.4210234 -2.2900016
-5.9854946 9.6198454 -2.2023175
-7.0224319 11.295179 -2.1065466
-11.46415 18.453791 -2.6674764
-13.182692 21.228384 -2.1862147
-19.891258 32.056297 -1.9771481
-4.5727129 7.3980765 -2.3304069
-8.442276 13.663876 0.28035545
-5.2060552 8.4293222 -2.2873023
-5.9570374 9.6490316 -2.2042258
-6.9746623 11.306177 -2.1040437
-11.395494 18.48694 -2.6665015
-13.114196 21.291828 -2.1877835
-19.768759 32.108532 -1.9761013
-4.5455689 7.4147854 -2.3304069
-5.1684561 8.4341497 -2.2837031
-5.9267597 9.6791697 -2.2061336
-6.9403949 11.343457 -2.1062338
-11.31536 18.5012 -2.6628454
-13.061615 21.373175 -2.1914439
-19.630116 32.146687 -1.9740078
-4.5276909 7.4438095 -2.334548
-5.1354823 8.449707 -2.2828033
-5.8888574 9.6930904 -2.2046072
-6.8792272 11.332156 -2.0996637
-11.244381 18.53746 -2.6621141
-12.987957 21.420345 -2.1916182
-6.6815944 11.023937 2.5057039
-19.482603 32.156933 -1.970449
-4.4966865 7.4512997 -2.3319597
-5.101932 8.4609051 -2.2810037
-5.8499207 9.7051783 -2.2026992
-6.9782381 11.586232 -2.1422138
-11.187798 18.590202 -2.6640639
-12.919263 21.475798 -2.1926641
-19.456673 32.368526 -1.9792414
-4.4686627 7.4636374 -2.3309245
-5.0723648 8.4786644 -2.2810037
-5.8200359 9.7322817 -2.2042258
-6.9782791 11.67835 -2.1547287
-11.127102 18.628906 -2.6643078
-12.823804 21.486546 -2.189178
-19.222862 32.233826 -1.9668901
-4.441916 7.4750929 -2.3298893
-5.0402427 8.4887342 -2.2792041
-5.788734 9.7532148 -2.2046072
-6.9405236 11.703125 -2.1550415
-11.075392 18.682777 -2.6667452
-12.767716 21.554663 -2.1917925
-19.176897 32.400528 -1.9731705
-4.4161201 7.4881186 -2.3293715
-5.0021739 8.4886122 -2.2747052
-5.7563567 9.7723589 -2.2046072
-6.9497743 11.80779 -2.1700592
-11.023194 18.743565 -2.6699138
-12.677253 21.573336 -2.189178
-19.249399 32.770489 -1.9918021
-4.3866959 7.5009184 -2.3283362
-4.9725099 8.5060225 -2.2747052
-5.7185221 9.789999 -2.2038438
-6.7311964 11.532919 -2.1149943
-10.959695 18.785362 -2.6704013
-12.616925 21.643272 -2.1917925
-19.10504 32.799393 -1.9892899
-4.3556404 7.5078282 -2.325748
-4.9393482 8.5208168 -2.2738054
-5.686285 9.8132973 -2.2046072
-6.8730197 11.870894 -2.1725621
-10.877843 18.80307 -2.6672328
-12.559257 21.718225 -2.1949303
-19.172283 33.180626 -2.0083401
-4.3274779 7.5196395 -2.3247128
-4.9056864 8.53125 -2.2720056
-5.6461229 9.822875 -2.2023175
-6.8207159 11.875974 -2.1691206
-6.858109 11.945908 1.6913029
-10.817086 18.849533 -2.6684515
-12.47345 21.744654 -2.193187
-19.179506 33.462212 -2.0213194
-4.3050356 7.54141 -2.3267834
-4.8710513 8.5398579 -2.2697561
-5.6234708 9.8629885 -2.206897
-6.7489042 11.846503 -2.1594217
-10.803274 18.978609 -2.6813695
-12.408303 21.807112 -2.1951044
-19.145512 33.674797 -2.0301118
-4.283442 7.5647974 -2.3293715
-4.8335328 8.5432415 -2.2661569
-5.5967374 9.8962307 -2.20995
-6.6608653 11.787437 -2.1444039
-10.685228 18.924591 -2.6684515
-12.340924 21.865906 -2.1966732
-4.2570114 7.5797024 -2.3293715
-4.8017759 8.5566616 -2.2652571
-5.5660028 9.922554 -2.2114763
-6.661212 11.884712 -2.1578572
-10.595829 18.920204 -2.6626017
-12.309297 21.988821 -2.2046916
-18.792953 33.598465 -2.0175514
-4.2305288 7.5945153 -2.3293715
-4.7733727 8.5725393 -2.2652571
-5.5313349 9.9419212 -2.2114763
-6.929595 12.460261 1.247373
-6.6380825 11.936086 -2.1631761
-10.527247 18.944824 -2.6611392
-12.219888 22.009012 -2.2024255
-18.681423 33.660606 -2.0175514
-4.1997123 7.5983591 -2.3262658
-4.7405953 8.5840302 -2.2639074
-5.5078216 9.9773998 -2.2152925
-6.4713979 11.732592 -2.1221902
-37.062313 67.221413 9.4251318
-10.480211 19.016228 -2.666014
-12.160299 22.073843 -2.2048659
-18.50218 33.613625 -2.0108523
-4.1731653 7.6129713 -2.3262658
-4.7102284 8.5962868 -2.2630076
-5.4691906 9.9896746 -2.2137661
-6.4191761 11.72973 -2.11781
-10.40566 19.02998 -2.663089
-12.086999 22.123148 -2.2055633
-4.1460485 7.6233745 -2.3252304
-4.6727514 8.5989771 -2.2594085
-5.4341569 10.004308 -2.2130029
-6.5129385 12.000333 -2.1625502
-10.345797 19.0784 -2.6647954
-12.0373 22.206902 -2.2099209
-8.2152653 15.168492 -0.90405136
-4.1184974 7.6361003 -2.3247128
-4.6377387 8.602417 -2.2562592
-5.3936181 10.012843 -2.2107131
-6.5311742 12.1297 -2.1819482
-10.280588 19.10911 -2.6643078
-11.954998 22.240007 -2.2090495
-18.081551 33.651421 -2.0020599
-4.0950336 7.6596627 -2.327301
-4.6055899 8.6218824 -2.2567091
-5.3578053 10.034278 -2.2110946
-6.0345163 11.311146 -2.0305195
-10.20154 19.13793 -2.6628454
-11.85185 22.243237 -2.2050402
-17.965353 33.745277 -2.0035253
-4.0610347 7.6602554 -2.3231599
-4.572731 8.6327381 -2.2553592
-5.3255048 10.058124 -2.2122397
-6.0513458 11.438652 -2.0496047
-10.181989 19.262926 -2.675276
-11.784376 22.303846 -2.2069576
-17.787785 33.69474 -1.9968263
-4.0351715 7.6760936 -2.3236775
-7.1371202 13.582692 0.26782462
-4.5362234 8.6365709 -2.2522099
-5.2940154 10.083603 -2.2137661
-6.0361543 11.506939 -2.0580521
-10.098093 19.266705 -2.6708887
-11.72771 22.385441 -2.2109668
-17.670052 33.75663 -1.9968263
-4.0146003 7.7021241 -2.327301
-4.4970493 8.6350689 -2.2477109
-5.255156 10.095057 -2.2122397
-6.432569 12.367384 -2.2079163
