# .PCD v0.7 - Point Cloud Data file format
VERSION 0.7
FIELDS x y z
SIZE 4 4 4
TYPE F F F
COUNT 1 1 1
WIDTH 1488
HEIGHT 1
VIEWPOINT 0 0 0 1 0 0 0
POINTS 1488
DATA ascii
9.5472775 -16.778957 -2.3703589
15.363538 -27.011774 -2.7187362
20.092905 -35.355537 -2.1312249
3.8510556 -6.8039465 -2.0948815
4.477098 -7.9164667 -2.0996931
5.3583031 -9.4784861 -2.1164536
6.8919744 -12.201389 -2.2194924
9.5023098 -16.836384 -2.3737712
15.310271 -27.138121 -2.7260573
20.0086 -35.49506 -2.135412
3.8253903 -6.8139782 -2.0938461
4.4546361 -7.938067 -2.1014926
5.3242235 -9.4954195 -2.1160717
6.8437486 -12.210392 -2.2169895
9.4056864 -16.795061 -2.3635342
15.213501 -27.187922 -2.7257087
19.890787 -35.561214 -2.135412
3.8065343 -6.8333769 -2.0959167
4.4231095 -7.9467578 -2.0996931
5.3003421 -9.5267477 -2.1191249
6.797245 -12.227301 -2.2157381
9.3643532 -16.859026 -2.3679214
15.121327 -27.234737 -2.7253602
19.795601 -35.682827 -2.1385522
3.783592 -6.8483133 -2.0964344
4.3957906 -7.9596763 -2.0992434
5.2613654 -9.5348787 -2.1168351
6.7547536 -12.246314 -2.2151122
9.2739019 -16.827402 -2.3591471
15.066533 -27.360657 -2.732681
19.707981 -35.804264 -2.1419015
3.7599328 -6.859129 -2.0959167
4.3632984 -7.9664259 -2.0969937
5.2280502 -9.5531855 -2.1168351
6.7081718 -12.262886 -2.2138608
9.2417641 -16.908443 -2.3659718
15.001494 -27.469036 -2.7382591
19.647415 -36.005997 -2.1496472
3.733845 -6.8711662 -2.0953991
4.3359299 -7.9857893 -2.0978935
5.1873832 -9.5619297 -2.1145453
6.6594148 -12.280445 -2.2126093
9.2118835 -17.001543 -2.3742588
14.908299 -27.537853 -2.7396536
19.424089 -35.909122 -2.1395988
3.7068038 -6.8814034 -2.0943637
4.3075547 -8.0033445 -2.0983434
5.1576948 -9.586894 -2.1160717
6.608748 -12.294331 -2.2107322
9.0950298 -16.93376 -2.360122
14.810202 -27.586214 -2.739305
19.224987 -35.83942 -2.1314344
3.6836712 -6.8960052 -2.0948815
4.2814269 -8.0217705 -2.0992434
5.1278963 -9.6117678 -2.1175983
6.5620756 -12.310352 -2.2094805
9.0517273 -16.99519 -2.3642654
14.687601 -27.588499 -2.7344241
19.184181 -36.06501 -2.1408548
3.6595769 -6.9088216 -2.0948815
4.249754 -8.0297756 -2.0974436
5.0943136 -9.6296091 -2.1175983
6.5135245 -12.322703 -2.2076035
8.9739923 -16.984743 -2.3586593
14.617253 -27.688936 -2.739305
19.030218 -36.078754 -2.1377146
3.6402402 -6.9277592 -2.096952
4.2249141 -8.0472755 -2.0983434
5.0568781 -9.6360188 -2.1153085
6.4671226 -12.333738 -2.2057261
9.012537 -17.195509 -2.3837645
14.582661 -27.846685 -2.7501123
18.871588 -36.067337 -2.1333184
3.6154616 -6.9363666 -2.0959167
4.2027063 -8.0698833 -2.1005929
5.0248957 -9.6527357 -2.1153085
6.4316554 -12.365632 -2.2076035
9.0424547 -17.39262 -2.4069197
14.4884 -27.891356 -2.7497635
18.801563 -36.225449 -2.1389709
3.5880036 -6.9397373 -2.0933285
4.1723452 -8.0768509 -2.0987935
4.9910579 -9.6658564 -2.1145453
6.3833685 -12.372849 -2.2051005
8.9783602 -17.41016 -2.4052134
14.401304 -27.949877 -2.7508097
18.584425 -36.099365 -2.1278756
3.5666142 -6.9637799 -2.0964344
4.1359749 -8.0824022 -2.0960939
4.9574828 -9.6919403 -2.1160717
6.3232279 -12.372643 -2.2007203
8.874999 -17.38065 -2.3961952
14.30837 -28.03336 -2.7535985
18.511007 -36.298565 -2.135412
3.5405352 -6.9727426 -2.0953991
4.1068544 -8.0950527 -2.095644
4.9218454 -9.7056847 -2.1153085
6.2782164 -12.391114 -2.2000947
8.8304129 -17.443403 -2.4005826
14.22482 -28.111578 -2.7563875
18.393198 -36.380787 -2.1364586
3.5170426 -6.9867845 -2.0959167
4.0776968 -8.1075983 -2.0951941
4.8861728 -9.7192984 -2.1145453
6.2366982 -12.416485 -2.2007203
8.788168 -17.511379 -2.4057012
14.135543 -28.178867 -2.7581306
18.348429 -36.609035 -2.1460884
3.4917707 -6.9972901 -2.0953991
4.0560083 -8.1315384 -2.0978935
4.8452101 -9.7222385 -2.1114926
6.1884422 -12.422953 -2.1982174
8.7468538 -17.57419 -2.4103322
14.053061 -28.260151 -2.7612681
18.262487 -36.741219 -2.1502752
3.4668334 -7.0053673 -2.0943637
4.0275989 -8.145647 -2.0978935
4.8172932 -9.7470503 -2.1134005
6.1362948 -12.426766 -2.1950886
8.7232237 -17.681164 -2.4208128
13.971947 -28.344776 -2.7647545
18.112936 -36.761745 -2.1477633
3.441134 -7.0180268 -2.0943637
4.0008564 -8.1631575 -2.0987935
4.7789459 -9.7593527 -2.1122558
6.082026 -12.43143 -2.1919601
8.6989508 -17.788187 -2.4312935
13.881665 -28.411276 -2.7664974
17.962305 -36.795582 -2.145879
3.4166152 -7.0299959 -2.0943637
3.9632487 -8.1619883 -2.0947442
4.7448502 -9.7759752 -2.1122558
6.0420423 -12.459694 -2.1932113
8.6285 -17.809235 -2.4298313
13.785884 -28.466732 -2.7671947
17.903347 -37.001888 -2.1542528
3.392056 -7.0418792 -2.0943637
3.939805 -8.1863089 -2.0974436
4.707293 -9.7854004 -2.1107292
5.9968019 -12.477148 -2.1925857
8.5731564 -17.853558 -2.4317811
13.696776 -28.536234 -2.7692866
17.753353 -37.020931 -2.1517408
3.3699515 -7.058907 -2.0959167
3.9086885 -8.1947346 -2.0960939
4.6747956 -9.8053179 -2.1114926
5.9464154 -12.483738 -2.1900828
8.5207319 -17.896229 -2.4337311
13.581676 -28.551485 -2.7661488
17.642878 -37.122364 -2.1540434
3.342392 -7.0613132 -2.0933285
3.8848252 -8.2146978 -2.0978935
4.6422548 -9.8207655 -2.1114926
5.8999233 -12.492672 -2.1882055
8.4884567 -17.981831 -2.4415305
13.473323 -28.567535 -2.76336
17.55714 -37.260162 -2.158649
3.3189571 -7.0723581 -2.0933285
3.8567357 -8.22577 -2.0974436
4.6129947 -9.8432169 -2.113019
5.8509259 -12.496066 -2.1853898
8.4205904 -18.000563 -2.4400682
13.388644 -28.633715 -2.7654517
17.436865 -37.325417 -2.1590676
3.2983236 -7.0926585 -2.0959167
3.8238919 -8.2303467 -2.0951941
4.578608 -9.8592587 -2.113019
5.8014507 -12.50387 -2.1831996
8.4077959 -18.137907 -2.4546924
13.290287 -28.683889 -2.7658002
17.222567 -37.204807 -2.1486006
3.2743526 -7.1058836 -2.0964344
3.7959549 -8.2454147 -2.095644
4.5375981 -9.8609142 -2.109966
5.7528191 -12.513275 -2.1813223
8.3817158 -18.24832 -2.4656608
13.206671 -28.77949 -2.7703323
17.040964 -37.152142 -2.1421108
3.243475 -7.1072917 -2.0933285
3.7695763 -8.2639341 -2.0969937
4.4997983 -9.8739052 -2.1092029
5.6979127 -12.514501 -2.177881
8.3155012 -18.272045 -2.4649296
13.094588 -28.800022 -2.7678921
16.955893 -37.327099 -2.1486006
3.2146661 -7.1097689 -2.0907402
3.7392628 -8.2776947 -2.0969937
4.4669199 -9.8931313 -2.109966
5.6436348 -12.510906 -2.1738136
8.2484751 -18.302401 -2.4649296
12.997247 -28.852821 -2.7685893
16.850088 -37.440697 -2.1517408
3.1937785 -7.1297622 -2.0933285
3.7095485 -8.2889185 -2.0965438
4.4299545 -9.9032869 -2.1088212
5.5862269 -12.499871 -2.1684947
8.1813011 -18.323832 -2.4639544
12.863976 -28.825235 -2.7616167
16.738808 -37.543068 -2.1542528
3.1688712 -7.1408672 -2.0933285
3.6798029 -8.3000345 -2.0960939
4.4017224 -9.9330502 -2.1118741
5.5409622 -12.515681 -2.1678691
8.1068487 -18.328678 -2.4607861
12.813227 -28.982946 -2.7724242
16.610886 -37.608574 -2.1546714
3.1462579 -7.1571908 -2.0948815
3.6515915 -8.3146143 -2.0965438
4.3614988 -9.93577 -2.1092029
5.5075521 -12.558465 -2.1719363
8.0786705 -18.438686 -2.4717543
12.700788 -29.001945 -2.7699838
16.522741 -37.765137 -2.1603239
3.1220264 -7.1699009 -2.0953991
3.6233227 -8.3290958 -2.0969937
4.323658 -9.9437313 -2.1076763
5.4739141 -12.601167 -2.1760037
8.0513983 -18.552361 -2.4832101
12.623263 -29.100937 -2.775213
16.387632 -37.81525 -2.159905
3.0946851 -7.1754327 -2.0938461
3.5972247 -8.3446445 -2.0978935
4.2904754 -9.962369 -2.1084394
5.4344397 -12.624693 -2.1769423
7.766326 -18.059229 -2.4137444
12.542053 -29.192415 -2.7797451
16.276327 -37.902424 -2.1617894
3.0678365 -7.1785507 -2.0917757
3.5665455 -8.3535662 -2.0969937
4.2589564 -9.980154 -2.1092029
5.3856912 -12.632683 -2.175065
7.659678 -17.98395 -2.400095
12.448304 -29.241182 -2.7804425
16.157997 -37.992088 -2.1636734
3.0450187 -7.1945524 -2.0933285
3.535845 -8.3623753 -2.0960939
4.2225642 -9.9913425 -2.1084394
5.3384867 -12.644127 -2.1738136
7.613831 -18.050819 -2.4054573
12.363181 -29.324848 -2.7842772
16.022184 -38.040894 -2.1632547
3.0243669 -7.2158279 -2.0964344
3.5051289 -8.3710718 -2.0951941
4.1906939 -10.013266 -2.109966
5.2821274 -12.633523 -2.1688077
7.5186381 -18.000355 -2.3952203
12.239252 -29.316341 -2.7793965
15.921585 -38.174015 -2.1676509
26.946045 -64.670082 -1.22289
2.9939775 -7.213851 -2.0928109
3.480366 -8.3940554 -2.0978935
4.1497021 -10.013324 -2.1069131
5.2289286 -12.629984 -2.1650534
7.4458976 -18.00264 -2.3920517
12.15359 -29.399395 -2.7832315
15.78519 -38.221973 -2.1672323
2.9665749 -7.2188969 -2.0912578
3.4503028 -8.4043512 -2.0974436
4.1124887 -10.022299 -2.1057682
5.1803141 -12.637193 -2.1631761
7.3709764 -17.999128 -2.3881519
12.097053 -29.569134 -2.7950845
15.678881 -38.343395 -2.1710005
26.489382 -64.845528 -1.2226808
2.9422798 -7.2350907 -2.0928109
3.4180105 -8.4091215 -2.095644
4.0779424 -10.042762 -2.1069131
5.1287651 -12.643281 -2.1609859
7.320034 -18.054184 -2.3920517
11.965341 -29.54101 -2.7884607
15.563717 -38.463554 -2.1745594
25.451639 -62.931759 -1.1849138
2.920614 -7.2542777 -2.0953991
3.384985 -8.4161701 -2.0942943
4.0443268 -10.060578 -2.1076763
5.0816555 -12.653773 -2.1597345
7.2087259 -17.968508 -2.3771837
11.865116 -29.589994 -2.7891581
15.317953 -38.23954 -2.1588585
2.8959899 -7.2662225 -2.0959167
3.3563361 -8.4255381 -2.0938444
4.0077333 -10.070986 -2.1069131
5.0411253 -12.674226 -2.1603601
7.0479441 -17.737734 -2.3435478
11.777929 -29.67197 -2.7929928
15.338368 -38.661423 -2.1797929
2.8683317 -7.2668014 -2.0933285
3.3304801 -8.4462671 -2.0960939
3.9685562 -10.06961 -2.1038601
4.9932346 -12.682556 -2.1587958
6.9670959 -17.714197 -2.3372104
11.670721 -29.688614 -2.7909012
15.232528 -38.789089 -2.1839797
24.761288 -63.118504 -1.1834826
2.842948 -7.2767692 -2.0933285
3.3016853 -8.4596567 -2.0965438
3.9362359 -10.090717 -2.1053865
4.9446301 -12.688866 -2.1569188
6.8908176 -17.701408 -2.3323357
11.617586 -29.859146 -2.803103
15.134659 -38.938824 -2.1894226
2.816833 -7.2848473 -2.0928109
3.2707305 -8.467494 -2.095644
3.9009883 -10.104395 -2.1053865
4.8917789 -12.683931 -2.1531644
6.8075747 -17.669786 -2.3250237
11.523817 -29.942434 -2.8069377
14.972829 -38.924309 -2.1856544
24.355196 -63.38129 -1.1851929
2.7914939 -7.2987309 -2.0938461
3.2383702 -8.4715786 -2.0938444
3.8646276 -10.120459 -2.1057682
4.8417368 -12.692547 -2.1515999
6.7225189 -17.632231 -2.3169801
11.449008 -30.06068 -2.8142588
14.882624 -39.117065 -2.1934001
2.7680519 -7.3138514 -2.0953991
3.2121224 -8.496151 -2.0969937
3.8258088 -10.124705 -2.1038601
4.7987967 -12.713067 -2.1522255
6.6501436 -17.63632 -2.3142991
11.297634 -29.977409 -2.8027542
14.79947 -39.310833 -2.2013552
2.7411485 -7.3198504 -2.0943637
3.1810808 -8.5036612 -2.0960939
3.7904418 -10.137999 -2.1038601
4.7502446 -12.718636 -2.1503484
11.195712 -30.024126 -2.8034515
14.692834 -39.444607 -2.2059608
23.107893 -62.102062 -1.1566058
2.710212 -7.3148818 -2.0902226
3.1527307 -8.5183687 -2.0969937
3.7550316 -10.151168 -2.1038601
4.6989713 -12.716612 -2.1472197
6.5316706 -17.695351 -2.3160052
11.186001 -30.320984 -2.8275065
14.516379 -39.390709 -2.2000992
2.6859922 -7.3279247 -2.0912578
3.1231244 -8.5251169 -2.0960939
3.7168751 -10.156838 -2.1023335
4.6513486 -12.717282 -2.1447167
6.4777226 -17.729967 -2.3177114
10.917524 -29.914394 -2.7860205
14.414419 -39.517433 -2.2044954
2.6636534 -7.3422408 -2.0928109
3.0913551 -8.5304708 -2.0947442
3.6865172 -10.178338 -2.1042418
4.6069283 -12.733441 -2.1447167
6.4218659 -17.769272 -2.319905
10.95499 -30.328964 -2.8212314
14.300796 -39.635139 -2.2082634
2.641922 -7.3624039 -2.0959167
3.0650244 -8.5461769 -2.0960939
3.6483157 -10.183751 -2.1027153
4.5600171 -12.73563 -2.1425269
6.3528771 -17.762432 -2.3162489
10.788726 -30.198154 -2.8055434
14.201519 -39.772633 -2.2132878
2.6142612 -7.3620219 -2.0933285
3.037128 -8.5623341 -2.0974436
3.6119018 -10.188391 -2.1011887
4.5109177 -12.738437 -2.1403368
6.272964 -17.733971 -2.3096681
10.711105 -30.297636 -2.81147
14.091867 -39.904827 -2.2178934
2.5866265 -7.3656344 -2.0917757
3.0065763 -8.5710449 -2.0969937
3.5678716 -10.176852 -2.0962276
4.4598951 -12.73546 -2.137208
6.1893902 -17.693926 -2.3016248
10.610543 -30.349884 -2.8128645
13.968285 -39.999031 -2.2204056
21.297203 -61.054268 -1.128682
2.5589991 -7.369143 -2.0902226
2.975363 -8.5778046 -2.0960939
3.5445449 -10.224487 -2.1034784
4.4089489 -12.732284 -2.1340792
6.1198044 -17.692909 -2.2986999
10.537085 -30.480888 -2.8215799
13.810328 -39.994682 -2.2174747
2.5382791 -7.3926482 -2.0943637
2.9454024 -8.5881386 -2.0960939
3.5050123 -10.225656 -2.1011887
4.3644776 -12.747597 -2.1340792
6.0451612 -17.676598 -2.2938249
10.429334 -30.513716 -2.8212314
13.644824 -39.967041 -2.2132878
2.5149422 -7.4087806 -2.0964344
2.915406 -8.5983677 -2.0960939
3.4680374 -10.234109 -2.1004255
4.3155212 -12.749656 -2.1318891
5.9732466 -17.667503 -2.2899251
10.346751 -30.638565 -2.8292496
13.51928 -40.056061 -2.2155907
2.4828568 -7.403296 -2.0922933
2.8853741 -8.6084919 -2.0960939
3.4298811 -10.24489 -2.100044
4.2656283 -12.756021 -2.1303248
5.8989563 -17.650591 -2.2850504
10.247305 -30.697174 -2.8313413
13.434291 -40.291019 -2.2258484
2.4557838 -7.4082494 -2.0912578
2.8550282 -8.6227102 -2.0969937
3.3965669 -10.264256 -2.1015704
4.2198372 -12.767081 -2.129699
5.8342237 -17.672094 -2.2850504
10.140092 -30.732756 -2.8313413
13.259804 -40.235237 -2.220196
2.4329157 -7.4259567 -2.0938461
2.8270252 -8.6339817 -2.0974436
3.3594952 -10.272318 -2.1008072
4.1719527 -12.764107 -2.1268833
5.7620349 -17.64983 -2.2796881
10.033992 -30.771753 -2.8316901
13.148588 -40.347351 -2.2239645
2.407088 -7.4303079 -2.0928109
2.7950699 -8.6382351 -2.0960939
3.3266203 -10.287138 -2.1015704
4.1237307 -12.767313 -2.125006
5.6942973 -17.650942 -2.2772508
9.9539013 -30.873121 -2.8379653
13.021138 -40.43483 -2.2262671
2.3846691 -7.4497046 -2.0959167
2.7664089 -8.6474562 -2.0960939
3.2894969 -10.294947 -2.1008072
4.0825715 -12.78468 -2.1256318
5.6236687 -17.631903 -2.2723761
9.8424406 -30.896292 -2.8369195
12.924548 -40.595779 -2.2327569
19.048321 -59.902782 -1.0971979
2.3526907 -7.4436584 -2.0917757
2.7349455 -8.6635895 -2.0974436
3.2481976 -10.2957 -2.0985174
4.0275135 -12.781423 -2.122503
5.557117 -17.657152 -2.2728636
9.7458725 -30.985376 -2.8418002
12.773364 -40.660347 -2.2335942
2.3238151 -7.442605 -2.0891874
2.7079422 -8.6781931 -2.0987935
3.2110715 -10.303227 -2.0977542
3.978647 -12.773961 -2.1190615
5.4926367 -17.65653 -2.270426
9.6400223 -31.026819 -2.8424973
12.652673 -40.74826 -2.2361062
2.3013997 -7.4576535 -2.0912578
2.6753371 -8.6801434 -2.0969937
3.1791987 -10.321324 -2.0992808
3.9282236 -12.768892 -2.1159329
5.4181423 -17.633848 -2.2650638
9.5440969 -31.08147 -2.844589
12.540809 -40.891476 -2.2415493
2.2764809 -7.4693375 -2.0922933
2.6427512 -8.6819715 -2.0951941
3.1442924 -10.336116 -2.100044
3.8819063 -12.776855 -2.1149943
5.3507938 -17.633657 -2.2626264
9.4679251 -31.221365 -2.8543503
12.337784 -40.736198 -2.2306633
2.2542906 -7.4901881 -2.0959167
2.6135519 -8.6948757 -2.0960939
3.102546 -10.328225 -2.0962276
3.8338768 -12.778975 -2.113117
5.2869282 -17.644623 -2.2616515
9.3623104 -31.265678 -2.8553963
12.218408 -40.855564 -2.2348504
2.2226288 -7.4794927 -2.0907402
2.5842931 -8.7076826 -2.0969937
3.0636847 -10.329581 -2.0943196
3.7841964 -12.775234 -2.1103013
5.2151685 -17.628708 -2.2572641
9.2632856 -31.332558 -2.8585339
12.092687 -40.955429 -2.2379904
2.1970503 -7.489059 -2.0912578
2.556622 -8.7260017 -2.0992434
3.0303659 -10.349632 -2.0962276
3.7345915 -12.771302 -2.1074855
5.1536007 -17.646805 -2.2572641
9.163909 -31.39913 -2.8616717
11.968653 -41.062584 -2.2415493
12.578106 -43.209656 -0.78553283
2.1730449 -7.5041056 -2.0933285
2.5239811 -8.7273836 -2.0974436
2.9974921 -10.371464 -2.0985174
3.6806738 -12.751997 -2.1021667
5.0875726 -17.649426 -2.2553141
9.0774078 -31.511337 -2.8689928
11.817517 -41.07724 -2.2400839
12.364246 -43.034195 -0.78155369
2.1457763 -7.5079298 -2.0922933
2.4897575 -8.7230234 -2.0942943
2.9645014 -10.393192 -2.1008072
3.6318104 -12.749568 -2.0996637
5.0183291 -17.640347 -2.2519019
8.9608221 -31.519833 -2.8669009
11.648961 -41.029861 -2.2352691
12.165406 -42.905872 -0.77844715
2.1206031 -7.5190935 -2.0933285
2.4592938 -8.7316608 -2.0942943
2.9313958 -10.414816 -2.1030967
3.5867505 -12.760266 -2.0993509
4.9513569 -17.638643 -2.2494645
8.8711882 -31.623817 -2.8735247
11.55955 -41.262596 -2.2457361
11.964922 -42.767056 -0.77516603
2.0938268 -7.5245886 -2.0928109
2.4319291 -8.7514591 -2.0969937
2.8918722 -10.413634 -2.1008072
3.5390179 -12.761287 -2.0974736
4.8834 -17.632862 -2.2465396
8.755434 -31.635389 -2.8717816
11.359047 -41.098633 -2.2346408
11.795345 -42.735313 -0.77383971
2.0649908 -7.5225368 -2.0902226
2.4013669 -8.7598944 -2.0969937
2.8565416 -10.427454 -2.1015704
3.4918458 -12.764036 -2.0959091
4.8144932 -17.622993 -2.2431273
8.6460056 -31.669603 -2.8721304
11.243884 -41.242088 -2.2402933
11.679719 -42.899712 -0.77607363
2.0407393 -7.5371585 -2.0922933
2.3707752 -8.7682238 -2.0969937
2.8185887 -10.431674 -2.1004255
3.4446948 -12.766611 -2.0943449
4.7467527 -17.61669 -2.2402024
8.5198603 -31.641872 -2.8669009
11.118527 -41.350517 -2.2440615
11.553752 -43.029057 -0.7776792
2.0149162 -7.546102 -2.0928109
2.3386464 -8.7707958 -2.095644
2.7826636 -10.443347 -2.1008072
3.3935082 -12.753741 -2.0902774
4.678092 -17.606293 -2.2367899
8.4185638 -31.706081 -2.8700385
11.005849 -41.508778 -2.250551
11.443409 -43.219906 -0.78040183
1.9900383 -7.5586934 -2.0943637
2.3065307 -8.7732515 -2.0942943
2.7461934 -10.452996 -2.1008072
3.3469648 -12.757867 -2.0890262
4.6146479 -17.602509 -2.2343528
8.3007717 -31.70829 -2.8675981
10.891202 -41.66288 -2.2568314
11.332369 -43.381443 -0.78263569
1.9630198 -7.5577726 -2.0922933
2.2793815 -8.7883978 -2.0960939
2.7105284 -10.458245 -2.100044
3.3066192 -12.776544 -2.0902774
4.5482969 -17.586962 -2.2304528
8.2035522 -31.766508 -2.8703873
10.732035 -41.617538 -2.2524352
11.208411 -43.496243 -0.78403193
1.9345903 -7.5511408 -2.0886698
2.2511914 -8.7996845 -2.0969937
2.6777797 -10.474785 -2.1015704
3.259346 -12.7683 -2.0871489
4.4790359 -17.571955 -2.226553
8.1139002 -31.85532 -2.8759651
10.601847 -41.683865 -2.2541099
1.9101106 -7.5653396 -2.0907402
2.2214143 -8.8112679 -2.0978935
2.6431162 -10.491683 -2.1030967
3.2128284 -12.771936 -2.0858974
4.4167037 -17.583632 -2.2260656
8.0084763 -31.906643 -2.878057
10.422289 -41.585007 -2.2467828
1.8850908 -7.5775857 -2.0922933
2.1887646 -8.8114042 -2.0960939
2.6069512 -10.502749 -2.1034784
3.1672757 -12.779239 -2.0852716
4.3476677 -17.568111 -2.2221658
7.9018335 -31.953743 -2.8797998
10.283769 -41.648281 -2.2482481
1.8604686 -7.5916243 -2.0943637
2.1593828 -8.8246689 -2.0974436
2.5693409 -10.507972 -2.1027153
3.1263978 -12.805568 -2.0877745
4.2834978 -17.571608 -2.2207034
7.8138261 -32.077919 -2.8885157
10.203464 -41.95174 -2.2626929
1.8325968 -7.5924392 -2.0928109
2.1262829 -8.8226805 -2.0951941
2.5308068 -10.509241 -2.1011887
3.0779841 -12.801039 -2.0852716
4.2156472 -17.559429 -2.2172909
7.6952982 -32.077877 -2.8860753
10.069986 -42.041485 -2.2656238
1.8038499 -7.5893917 -2.0902226
2.0968227 -8.8357372 -2.0965438
2.4945617 -10.519923 -2.1015704
3.0332811 -12.811705 -2.0852716
4.151587 -17.562447 -2.2158287
7.5988498 -32.170471 -2.8920019
9.9451828 -42.169689 -2.270648
1.7795469 -7.6050487 -2.0928109
2.0650814 -8.8392057 -2.095644
2.4582696 -10.530478 -2.1019521
2.9867489 -12.814519 -2.0840201
4.0821586 -17.54203 -2.2114413
7.484705 -32.189034 -2.8913045
9.7979221 -42.204147 -2.270648
1.7525564 -7.6093307 -2.0922933
2.034214 -8.8463612 -2.095644
2.4245749 -10.552389 -2.1046233
2.9415565 -12.822942 -2.0837073
4.0164685 -17.536823 -2.2090039
7.3900728 -32.292656 -2.898277
9.6807919 -42.370495 -2.2777658
1.7281201 -7.6248226 -2.0948815
2.0024619 -8.8496075 -2.0947442
2.3859944 -10.553127 -2.1030967
2.8972139 -12.835058 -2.0840201
3.9465017 -17.512005 -2.204129
7.2816849 -32.337688 -2.9000201
9.5450974 -42.458591 -2.2806966
1.7019132 -7.6326942 -2.0953991
1.9728298 -8.8622494 -2.0960939
2.3491411 -10.561393 -2.1030967
2.8532512 -12.848949 -2.0846457
3.8827715 -17.514048 -2.2026668
7.1834106 -32.429047 -2.9059467
9.3847599 -42.437046 -2.2777658
1.6727774 -7.6272659 -2.0922933
1.9418814 -8.8690825 -2.0960939
2.3114223 -10.565692 -2.1023335
5.7913432 -26.494843 2.3727279
2.8062735 -12.849183 -2.0830817
5.7803898 -26.489033 3.3289833
3.8165371 -17.504219 -2.1997418
5.7508841 -26.398067 4.279109
5.811439 -26.676033 -2.3885903
5.7423301 -26.380941 5.2480111
5.7950859 -26.645683 -1.4290857
5.7737498 -26.592272 -0.47498471
1.6465502 -7.6349473 -2.0928109
5.7062769 -26.482065 0.47285551
1.9100913 -8.8719959 -2.0951941
5.6972294 -26.484983 1.41977
2.2745256 -10.573697 -2.1023335
5.6778927 -26.417503 2.3640122
2.7622349 -12.862762 -2.0837073
5.6712289 -26.431416 3.3192339
3.7504189 -17.494144 -2.1968169
5.6504297 -26.379349 4.2728515
5.6957555 -26.590956 -2.3791776
5.6399364 -26.352829 5.2384701
5.6748924 -26.538795 -1.4222821
5.6633563 -26.530128 -0.4735187
1.6206902 -7.6444278 -2.0938461
5.6113153 -26.490086 0.47264606
1.8774974 -8.8709841 -2.0933945
5.5993752 -26.479303 1.4184092
2.2396345 -10.591175 -2.1042418
5.5872912 -26.44496 2.3647096
2.7173169 -12.872326 -2.0837073
5.5752463 -26.433565 3.31704
3.6819639 -17.472166 -2.1924298
5.5697064 -26.453037 4.2816119
5.5922246 -26.559984 -2.3746455
5.550745 -26.385805 5.2411418
5.5777035 -26.536943 -1.4211307
5.5682492 -26.537992 -0.47330925
1.5959674 -7.6594944 -2.0964344
5.493547 -26.388132 0.47048199
1.8449317 -8.8698511 -2.0915949
5.5162601 -26.543663 1.4208167
2.2006545 -10.589317 -2.1023335
5.5216799 -26.593054 2.3762143
2.6719673 -12.879799 -2.0833945
3.6153162 -17.457697 -2.1890175
5.5091691 -26.626167 -2.3788288
5.5056381 -26.656008 -1.426469
5.4941549 -26.647358 -0.47491491
1.5688324 -7.6631265 -2.0959167
5.4206357 -26.501184 0.47215739
1.8182517 -8.8972406 -2.0965438
2.1609266 -10.583469 -2.0996623
2.6277823 -12.892917 -2.0840201
3.5511885 -17.454649 -2.1870675
6.6560426 -32.74472 -2.9233778
8.6983032 -42.868397 -2.2924197
1.5413127 -7.6647682 -2.0948815
1.7875854 -8.8974886 -2.0951941
2.1259015 -10.600574 -2.1015704
2.5834606 -12.893813 -2.0827687
3.4870601 -17.435184 -2.1831677
6.526875 -32.693516 -2.9167542
8.5740681 -42.987103 -2.2972345
1.5147628 -7.6641517 -2.0933285
9.4866076 -48.042881 0.85478395
1.7550077 -8.8960266 -2.0933945
2.0918753 -10.613343 -2.1027153
2.537674 -12.898876 -2.0821428
3.4254129 -17.443354 -2.1826801
6.4168878 -32.707157 -2.9160566
8.4500628 -43.150059 -2.3043525
1.4898412 -7.6788745 -2.0959167
9.2998219 -47.977547 0.85303873
1.7243143 -8.9040117 -2.0938444
2.0540702 -10.616725 -2.1019521
2.4918838 -12.903777 -2.0815172
3.3577399 -17.420118 -2.1782928
6.3245335 -32.842831 -2.9261668
8.3009014 -43.187138 -2.3047709
8.8358297 -46.056961 -0.81858772
1.4633881 -7.6859264 -2.0964344
9.1053905 -47.868271 0.85052556
1.69286 -8.9080629 -2.0933945
2.0162644 -10.619973 -2.1011887
2.4475625 -12.916278 -2.0821428
3.2932222 -17.412228 -2.1758554
6.2120752 -32.876453 -2.9272127
8.1367731 -43.145195 -2.301003
9.4925003 -50.43058 -0.89572728
1.4347773 -7.6814923 -2.0938461
8.9595184 -48.013779 0.85255009
1.6621116 -8.9158325 -2.0938444
1.9773854 -10.617296 -2.0992808
2.4024594 -12.924744 -2.0821428
3.2280765 -17.400194 -2.1729305
6.110343 -32.96846 -2.9334879
7.995563 -43.224392 -2.3037243
1.4076078 -7.6845536 -2.0933285
8.8019419 -48.099842 0.85352737
1.6309792 -8.9215803 -2.0938444
1.9417226 -10.631859 -2.1008072
2.3559134 -12.925278 -2.0808916
3.165189 -17.399639 -2.1714683
5.9952273 -32.98959 -2.9334879
7.8546119 -43.307068 -2.3066552
1.3817985 -7.6951251 -2.0948815
1.6008592 -8.9329729 -2.0951941
1.9073663 -10.654034 -2.1038601
2.3086979 -12.921754 -2.0790143
3.1016452 -17.394947 -2.1695182
5.8835249 -33.02993 -2.935231
7.7047963 -43.342083 -2.3070738
1.355934 -7.7056088 -2.0964344
1.5683181 -8.93083 -2.0933945
1.8660953 -10.637421 -2.0992808
2.26528 -12.939463 -2.0805786
3.0374899 -17.386114 -2.1670809
5.7860079 -33.152328 -2.9442952
7.5664783 -43.443489 -2.3110514
1.3286998 -7.7083917 -2.0959167
1.5368047 -8.93433 -2.0929446
1.8292831 -10.645804 -2.0996623
2.2204342 -12.949239 -2.0808916
2.9707553 -17.361389 -2.1626935
5.6850243 -33.258739 -2.9519651
7.4389653 -43.611389 -2.3185878
1.3008195 -7.7072673 -2.0943637
1.5062566 -8.9434824 -2.0938444
1.7927637 -10.655997 -2.1004255
2.1745632 -12.953015 -2.0802658
2.9088244 -17.363823 -2.1617186
5.5682321 -33.274448 -2.9516163
7.2893229 -43.652847 -2.3194251
1.2735943 -7.7098551 -2.0938461
1.4766122 -8.9582996 -2.0960939
1.7552372 -10.660254 -2.100044
2.1302977 -12.966375 -2.0812044
2.8436995 -17.346447 -2.1583064
5.4642868 -33.368397 -2.95824
7.1497784 -43.756874 -2.323612
1.2472894 -7.7180691 -2.0948815
1.4444031 -8.9576283 -2.0947442
1.718015 -10.666315 -2.100044
2.0828304 -12.960079 -2.0790143
2.7774739 -17.320988 -2.153919
5.3452506 -33.371532 -2.9568458
7.0007815 -43.805229 -2.324868
1.2212459 -7.7280998 -2.0964344
1.4128214 -8.9606905 -2.0942943
1.6829112 -10.685822 -2.1027153
2.0375767 -12.967271 -2.0790143
2.7108476 -17.291353 -2.1490443
5.2342811 -33.425415 -2.9599833
6.8416624 -43.789936 -2.3227746
13.651853 -87.578857 -1.5471559
1.1936724 -7.7284975 -2.0953991
1.3806448 -8.9597902 -2.0929446
1.6450028 -10.687751 -2.1019521
1.9926012 -12.976255 -2.0793271
2.6402497 -17.233995 -2.1407571
5.13626 -33.56559 -2.9707906
6.6923809 -43.837238 -2.3240306
1.1652464 -7.7230659 -2.0928109
1.3499417 -8.9684076 -2.0938444
1.6056421 -10.679838 -2.0992808
1.947293 -12.983132 -2.0793271
2.5712645 -17.18421 -2.1334448
5.0196466 -33.587254 -2.9711392
6.5416799 -43.876137 -2.324868
1.1374366 -7.7213516 -2.0912578
1.3197598 -8.9807777 -2.095644
1.5686374 -10.68732 -2.0996623
1.9028198 -12.995714 -2.0802658
4.9133072 -33.679489 -2.9777629
6.3942294 -43.938232 -2.3269615
1.1121262 -7.7367487 -2.0943637
1.2867444 -8.9737568 -2.0929446
1.5321581 -10.698561 -2.1008072
1.8532555 -12.972944 -2.0755727
2.4646759 -17.296074 -2.1451445
3.7440987 -26.307404 -2.3247924
6.2441912 -43.98402 -2.3282177
1.0843085 -7.7348447 -2.0928109
1.255412 -8.9781933 -2.0929446
1.4958898 -10.711621 -2.1023335
1.8076859 -12.977379 -2.0752599
2.4023757 -17.290808 -2.1434383
3.6440291 -26.261105 -2.3195629
6.0889807 -43.993675 -2.3275895
12.436889 -90.089752 -1.5874361
1.0591326 -7.7519808 -2.0964344
1.2243274 -8.9844513 -2.0933945
1.4574307 -10.708997 -2.1008072
1.7602509 -12.967951 -2.072757
2.3326809 -17.23024 -2.1349075
3.542731 -26.202589 -2.3132877
3.5673084 -26.453928 -1.3989402
12.117019 -90.092972 -1.586738
1.029774 -7.7383962 -2.0917757
1.1937284 -8.9944658 -2.0947442
1.4187505 -10.704288 -2.0988991
1.7183384 -12.999475 -2.0768242
2.2678533 -17.20285 -2.1305199
3.4408424 -26.135782 -2.3063152
3.4650671 -26.390966 -1.3949627
1.0034999 -7.7476907 -2.0933285
1.1628225 -9.0024424 -2.095644
1.3811253 -10.707228 -2.0985174
1.6782435 -13.046537 -2.0833945
2.2057714 -17.19491 -2.1285703
3.3414884 -26.084391 -2.3007371
3.3612783 -26.311769 -1.3901478
0.9759661 -7.747313 -2.0922933
1.1318778 -9.0103149 -2.0965438
1.3442315 -10.715879 -2.0992808
1.6309773 -13.038595 -2.0812044
2.1442597 -17.190685 -2.1271076
3.2425356 -26.032631 -2.2951593
3.2585835 -26.236132 -1.3855423
0.95102966 -7.7679305 -2.096952
1.1008093 -9.0043459 -2.0942943
1.3075302 -10.726353 -2.1004255
1.5829566 -13.004713 -2.0749471
2.081501 -17.150408 -2.1212578
3.1497324 -26.027966 -2.2937648
3.1691663 -26.226965 -1.3844955
0.92435122 -7.7633686 -2.0948815
1.0702914 -9.0158749 -2.0960939
1.2717217 -10.728681 -2.100044
1.539176 -13.023891 -2.077137
2.0188363 -17.133911 -2.1183331
3.0731764 -26.121374 -2.3010857
3.0901649 -26.344986 -1.3901478
10.786664 -92.239288 -1.6210145
0.89769042 -7.7703857 -2.0959167
1.0390353 -9.021493 -2.0965438
1.2331434 -10.723302 -2.0981357
1.4941529 -13.033111 -2.0777628
1.9554105 -17.109297 -2.1144333
2.9935 -26.232903 -2.3099759
3.0085685 -26.446896 -1.3949627
0.86905599 -7.7600327 -2.0922933
1.00862 -9.0347481 -2.0987935
1.1963568 -10.733395 -2.0992808
1.4458151 -13.012723 -2.0736954
1.886277 -17.031179 -2.1039524
2.9071696 -26.332813 -2.3178198
2.9306748 -26.588263 -1.4018711
0.84081608 -7.7650871 -2.0928109
0.97581965 -9.0265884 -2.0960939
1.1582707 -10.749419 -2.1015704
1.3974785 -13.012044 -2.072757
2.8275123 -26.457705 -2.3279297
2.8454733 -26.714014 -1.4079419
0.81431013 -7.7737384 -2.0943637
0.94272882 -9.0301046 -2.0960939
1.1217597 -10.76316 -2.1034784
1.352457 -13.020772 -2.0733826
1.7635409 -17.036343 -2.1029775
2.7455876 -26.568487 -2.3368199
2.7632582 -26.83107 -1.4135944
0.78716862 -7.7765331 -2.0943637
0.91198528 -9.0410948 -2.0978935
1.0833941 -10.759197 -2.1019521
1.3111392 -13.066689 -2.079953
2.461432 -24.573568 3.0323534
1.7028768 -17.030544 -2.1015153
2.666285 -26.712721 -2.3486729
4.4138551 -44.377834 -2.3372192
0.75945592 -7.7734656 -2.0928109
0.88060898 -9.0461636 -2.0983434
1.0448824 -10.753142 -2.100044
1.2653292 -13.069221 -2.0796399
2.3538728 -24.356758 3.0045671
1.6413214 -17.014648 -2.098834
2.5840991 -26.836893 -2.358783
4.2734151 -44.544067 -2.3451743
0.73177403 -7.7702985 -2.0912578
0.84811616 -9.0394812 -2.0960939
1.0071559 -10.75477 -2.0996623
1.2198862 -13.075524 -2.079953
2.2662573 -24.337152 3.0011547
1.5776955 -16.974813 -2.0932281
2.2605827 -24.368315 3.8761337
2.5001616 -26.950893 -2.3680215
4.1362791 -44.757591 -2.3556416
0.70534277 -7.7805023 -2.0933285
0.81620651 -9.0385046 -2.0951941
0.969962 -10.76213 -2.1004255
1.1729999 -13.06593 -2.0777628
2.1827104 -24.360735 3.0031047
1.5152496 -16.944626 -2.0888407
2.4861207 -27.856453 -2.4468102
3.9863863 -44.84338 -2.3594098
0.67801249 -7.7809925 -2.0928109
0.78589123 -9.0372791 -2.0942943
0.93272907 -10.769361 -2.1011887
1.1293244 -13.065812 -2.077137
1.4571774 -16.927801 -2.0861595
2.3473461 -27.380592 -2.4042783
3.8451478 -44.943913 -2.3640153
0.65301234 -7.7928238 -2.0953991
0.75531363 -9.0516195 -2.0969937
0.89701098 -10.772396 -2.1011887
1.083221 -13.063768 -2.0761983
1.3953023 -16.899155 -2.0820162
2.4466381 -29.695568 -2.6068282
3.6954303 -45.044643 -2.3686211
0.62565154 -7.7931304 -2.0948815
0.7237128 -9.0542011 -2.0969937
0.85830998 -10.761763 -2.0985174
1.0390202 -13.085193 -2.0790143
1.3370883 -16.913815 -2.0832345
2.184418 -27.693871 -2.4304249
3.5459945 -45.156826 -2.3738544
0.59711349 -7.7779307 -2.0902226
0.69195455 -9.0547295 -2.0965438
0.82103747 -10.768609 -2.0992808
0.99273968 -13.080861 -2.0777628
1.2766919 -16.900566 -2.0810411
1.9826242 -26.306623 -2.3080583
3.3874433 -45.156979 -2.3732264
0.57024276 -7.7838206 -2.0912578
0.66005975 -9.0532017 -2.095644
0.78372878 -10.775325 -2.100044
0.94650203 -13.076365 -2.0765114
1.7293168 -23.949324 2.9482634
1.2171211 -16.896999 -2.0800662
1.8904985 -26.30941 -2.3077097
3.2323637 -45.204388 -2.3751106
0.54333735 -7.789618 -2.0922933
2.0412652 -29.338594 0.51334506
0.62818515 -9.0515623 -2.0947442
0.74665183 -10.78583 -2.1015704
0.90112394 -13.083531 -2.077137
1.6409423 -23.8859 2.9397326
1.1552819 -16.859556 -2.0749476
1.7937585 -26.244289 -2.3014345
1.996811 -29.365797 -1.5425501
1.982371 -29.304554 -0.5126819
0.51754761 -7.8126712 -2.0979872
0.59684145 -9.0575886 -2.095644
0.70783997 -10.770739 -2.0981357
0.85570574 -13.09054 -2.0777628
1.5523916 -23.812248 2.9299831
1.094234 -16.829811 -2.0708041
1.6820254 -25.940231 -2.2742419
1.8935212 -29.36063 -1.5419221
0.48991102 -7.8086457 -2.0964344
0.56558478 -9.0654526 -2.0969937
0.66987407 -10.767265 -2.0969911
0.81000561 -13.093447 -2.0777628
1.4649806 -23.748175 2.9214523
1.034263 -16.813713 -2.0683665
1.4651656 -23.886797 3.7904077
1.5875659 -25.882307 -2.2686639
2.7753525 -45.506882 -2.3893461
0.46242115 -7.8064523 -2.0953991
0.53359407 -9.0615349 -2.095644
0.6327439 -10.777377 -2.0985174
0.76418054 -13.094222 -2.07745
1.3775802 -23.675856 2.9119463
0.97326618 -16.777586 -2.0634918
1.3794944 -23.852324 3.7841501
1.4955989 -25.859842 -2.2662234
2.6059403 -45.332848 -2.3797162
0.43473944 -7.8003035 -2.0933285
0.50260544 -9.075017 -2.0983434
0.59512097 -10.77952 -2.0985174
0.71781892 -13.084975 -2.0755727
1.2915696 -23.619072 2.9043903
0.91231811 -16.737274 -2.0581295
1.4057537 -25.872866 -2.2669208
2.4500508 -45.385544 -2.382019
0.40650168 -7.7824812 -2.0881522
0.47031966 -9.0650387 -2.095644
0.55789369 -10.789374 -2.100044
0.67203939 -13.085429 -2.0752599
1.2116492 -23.673002 2.9104841
0.85247248 -16.712603 -2.0547173
1.3119954 -25.809959 -2.2609942
2.2932205 -45.425732 -2.3836937
3.773905 -75.277977 -1.3156322
0.37980226 -7.7934995 -2.0907402
0.43876782 -9.068572 -2.0960939
0.51975667 -10.781451 -2.0981357
0.62711376 -13.103479 -2.0777628
1.1336426 -23.774246 2.9224272
0.79205841 -16.671852 -2.049355
1.2220784 -25.818363 -2.2613428
2.1353896 -45.449421 -2.384531
0.35233441 -7.7889891 -2.0891874
0.40693492 -9.0661545 -2.0951941
0.48220789 -10.785161 -2.0985174
0.58207017 -13.121376 -2.0802658
0.73525411 -16.706247 -2.0532548
1.1305543 -25.790625 -2.258554
1.9821125 -45.580311 -2.3910208
0.32441741 -7.7728 -2.0845287
0.37576997 -9.0792027 -2.0978935
0.44447529 -10.784818 -2.0981357
0.53562045 -13.107539 -2.0777628
0.67677259 -16.704742 -2.0527673
1.0390784 -25.758579 -2.2554164
1.8249094 -45.634846 -2.3935328
0.29728401 -7.7738853 -2.0845287
0.34392649 -9.0765648 -2.0969937
0.40667954 -10.78238 -2.0973725
0.4894188 -13.097484 -2.0758855
0.61919194 -16.726843 -2.0552046
0.94445908 -25.634624 -2.2442603
1.6693895 -45.744728 -2.3989758
0.27041534 -7.782598 -2.0865991
0.3120411 -9.071866 -2.095644
0.36944208 -10.795506 -2.0996623
0.44356456 -13.095164 -2.0752599
0.56099975 -16.734854 -2.0559361
0.85311484 -25.582008 -2.2393796
1.5079867 -45.69838 -2.3962543
0.24336687 -7.7873559 -2.0876343
0.28201619 -9.0747995 -2.0960939
0.3317562 -10.796729 -2.0996623
0.40086037 -13.120256 -2.0790143
0.50496382 -16.718765 -2.0537424
0.76202434 -25.525085 -2.2341502
0.87875634 -29.608313 -1.5523893
0.21743356 -7.7842584 -2.0865991
0.25066075 -9.0874176 -2.0987935
0.29584318 -10.793847 -2.0988991
0.35505933 -13.121576 -2.0790143
0.44670692 -16.724394 -2.0542297
0.67536962 -25.451786 -2.2275264
0.77278382 -29.511372 -1.5471557
0.18993041 -7.771451 -2.0829759
0.21893795 -9.0882368 -2.0987935
0.25793007 -10.784999 -2.0969911
0.30897471 -13.110887 -2.077137
0.38832468 -16.725851 -2.0542297
0.58560359 -25.414152 -2.2240403
0.16280253 -7.7720661 -2.0829759
0.18705197 -9.081152 -2.0969937
0.22028282 -10.785833 -2.0969911
0.2630499 -13.103985 -2.0758855
0.46291134 -23.262661 2.8568614
0.3300963 -16.735043 -2.0552046
0.4912166 -25.352383 -2.2184622
0.8789193 -45.774731 -2.3993945
0.13438202 -7.776474 -2.0840108
0.15541917 -9.0856457 -2.0978935
0.1808136 -10.790495 -2.0977542
0.21495458 -13.100911 -2.0752599
0.37884295 -23.089472 2.8354123
0.27154878 -16.728155 -2.0542297
0.37359971 -23.264963 3.6852834
0.40227658 -25.326054 -2.2160218
0.10739492 -7.7884855 -2.0871167
0.12209123 -9.0842066 -2.0974436
0.14317238 -10.793023 -2.0981357
0.16927479 -13.105532 -2.0758855
0.29408643 -23.08078 2.8341937
0.21018502 -16.725067 -2.0537424
0.29084793 -23.143663 3.6658859
0.31332585 -25.283474 -2.2121871
0.080148406 -7.7830176 -2.0855639
0.091985606 -9.0865097 -2.0978935
0.10545944 -10.789532 -2.0973725
0.12590866 -13.115897 -2.07745
0.21791947 -23.12133 2.8390684
0.15464742 -16.717731 -2.0527673
0.22428712 -25.196751 -2.2045174
0.05425733 -7.7716503 -2.0824583
0.060318664 -9.0945702 -2.0996931
0.069704421 -10.793748 -2.0981357
0.080086738 -13.110332 -2.0765114
0.13787143 -23.233112 2.8527179
0.096337989 -16.726112 -2.0537424
0.14028437 -25.117661 -2.1975448
0.027183536 -7.7872472 -2.0865991
0.028541453 -9.0849819 -2.0974436
0.032068551 -10.807668 -2.1008072
0.03428765 -13.096704 -2.0743213
0.05697497 -23.316826 2.8629549
0.037951909 -16.726347 -2.0537424
0.052458588 -25.046274 -2.1912696
-3.3988678e-07 -7.775703 -2.0834932
-0.0031669952 -9.0752821 -2.0951941
-0.0056559537 -10.801825 -2.0996623
-0.01143256 -13.10267 -2.0752599
-0.02042008 -16.714464 -2.0522799
-0.034933884 -25.022396 -2.189178
-0.027182359 -7.7872472 -2.0865991
-0.034891851 -9.0869083 -2.0978935
-0.043328814 -10.793886 -2.0981357
-0.057197127 -13.108476 -2.0761983
-0.07874608 -16.710321 -2.0517924
-0.12195077 -24.954382 -2.1832514
-0.054378461 -7.7890363 -2.0871167
-0.066638619 -9.0906296 -2.0987935
-0.080962345 -10.78778 -2.0969911
-0.10292166 -13.104246 -2.0755727
-0.13704342 -16.705976 -2.0513051
-0.20858745 -24.898018 -2.1783707
-0.081466012 -7.7791405 -2.0845287
-0.098369598 -9.0903416 -2.0987935
-0.11868329 -10.793321 -2.0981357
-0.14871015 -13.107757 -2.0761983
-0.19542545 -16.711351 -2.0520363
-0.29464889 -24.825417 -2.1720953
-0.10864604 -7.7807407 -2.0850463
-0.13001788 -9.084096 -2.0974436
-0.15647104 -10.800693 -2.0996623
-0.19440405 -13.103208 -2.0755727
-0.25390893 -16.720491 -2.0532548
-0.38093451 -24.800331 -2.1700037
-0.13583916 -7.7822452 -2.0855639
-0.1616216 -9.0777426 -2.0960939
-0.19399668 -10.790265 -2.0977542
-0.2401042 -13.100474 -2.0752599
-0.31212497 -16.711563 -2.0522799
-0.46652284 -24.747059 -2.1654716
-0.16304411 -7.7836547 -2.0860815
-0.1932262 -9.073226 -2.0951941
-0.23182815 -10.797374 -2.0992808
-0.28604931 -13.109431 -2.0768242
-0.37027976 -16.702435 -2.0513051
-0.5507707 -24.64967 -2.1571047
-0.19026057 -7.7849698 -2.0865991
-0.22494394 -9.0744438 -2.095644
-0.26936993 -10.790611 -2.0981357
-0.33185682 -13.110328 -2.077137
-0.42848051 -16.697071 -2.0508175
-0.63547057 -24.595812 -2.1525726
-0.21716453 -7.7746024 -2.0840108
-0.25683784 -9.0813951 -2.0974436
-0.30697897 -10.787642 -2.0977542
-0.37739122 -13.101191 -2.0758855
-0.48618153 -16.675631 -2.0483801
-0.71933973 -24.52573 -2.1466458
-0.24430093 -7.7737966 -2.0840108
-0.28798059 -9.0629139 -2.0933945
-0.34444398 -10.780619 -2.0966094
-0.42299345 -13.095845 -2.0752599
-0.80350578 -24.479259 -2.1428111
-0.2715027 -7.7748284 -2.0845287
-0.31954479 -9.059907 -2.0929446
-0.38249084 -10.791123 -2.0988991
-0.46898535 -13.102184 -2.0765114
-0.88721174 -24.428522 -2.1386278
-0.29923376 -7.7892766 -2.0886698
-0.35094163 -9.0528936 -2.0915949
-0.4203096 -10.793645 -2.0996623
-0.51471806 -13.100468 -2.0765114
-0.66172141 -16.693426 -2.0513051
-0.97105467 -24.389441 -2.1354899
-0.32601729 -7.7785335 -2.0860815
-0.38286936 -9.0594015 -2.0933945
-0.45723501 -10.774458 -2.0962276
-0.56019109 -13.09267 -2.0755727
-0.71775746 -16.707008 -2.0532548
-1.0527332 -24.306282 -2.1285174
-0.35137296 -7.7677603 -2.0834932
-0.41335332 -9.0678148 -2.095644
-0.49323028 -10.778768 -2.0973725
-0.60387832 -13.096662 -2.0765114
-0.77196342 -16.678755 -2.0500863
-1.1303608 -24.23897 -2.1229396
-0.37750491 -7.7742705 -2.0855639
-0.44256356 -9.0488768 -2.0915949
-0.52887541 -10.775111 -2.0969911
-0.64671886 -13.082749 -2.0746341
-0.82968533 -16.666046 -2.0488675
-1.2131658 -24.199059 -2.1198018
-0.40619817 -7.7766929 -2.0865991
-0.47373965 -9.0394936 -2.0897954
-0.56950253 -10.794665 -2.1011887
-0.69466704 -13.080291 -2.0746341
-1.2957118 -24.158865 -2.1166644
-0.43377075 -7.7829437 -2.0886698
-0.50697714 -9.0396423 -2.0902452
-0.60651821 -10.780852 -2.0988991
-0.74032032 -13.077786 -2.0746341
-0.94813138 -16.645809 -2.0471613
-1.3763952 -24.090544 -2.1110864
-0.46070737 -7.7775245 -2.0876343
-0.5381797 -9.0319805 -2.0888956
-0.64379561 -10.77279 -2.0977542
-0.7857275 -13.071178 -2.0740085
-1.0069497 -16.654289 -2.0486238
-1.4585495 -24.05377 -2.1082973
-0.48761147 -7.7720132 -2.0865991
-0.5699507 -9.0339375 -2.0897954
-0.68102294 -10.764599 -2.0966094
-0.83210397 -13.080184 -2.0758855
-1.066597 -16.674444 -2.0515487
-1.5431211 -23.992592 -2.1034167
-0.51571012 -7.7643909 -2.0850463
-0.60161018 -9.0338373 -2.0902452
-0.72099733 -10.769866 -2.0981357
-0.8789773 -13.061279 -2.0733826
-1.1237285 -16.654776 -2.0495987
-1.6244327 -23.951279 -2.1002791
-0.54375327 -7.7760339 -2.0886698
-0.63430709 -9.0257387 -2.0888956
-0.75900102 -10.773159 -2.0992808
-0.9251228 -13.066014 -2.0746341
-1.1814345 -16.64481 -2.0488675
-1.6983895 -23.810322 -2.0884259
-0.56967705 -7.7761145 -2.0891874
-0.66466361 -9.029417 -2.0902452
-0.79414445 -10.762751 -2.0977542
-0.96815449 -13.058933 -2.0740085
-1.2357422 -16.628923 -2.0474052
-1.77096 -23.719126 -2.0809305
-0.59605086 -7.7818866 -2.0912578
-0.69535041 -9.0368776 -2.0924947
-0.82937694 -10.754187 -2.0966094
-1.0117599 -13.059591 -2.0746341
-1.294395 -16.632425 -2.0483801
-1.8512607 -23.681017 -2.0781415
-0.62410527 -7.7738733 -2.089705
-0.72704631 -9.0363398 -2.0929446
-0.86910385 -10.754988 -2.0973725
-1.0599387 -13.059732 -2.0752599
-1.3530912 -16.635719 -2.049355
-1.9343987 -23.680368 -2.0786643
-3.5148084 -42.843075 -2.2528539
-0.65398002 -7.8043742 -2.098505
-0.76065153 -9.0394382 -2.0942943
-0.90647578 -10.749932 -2.0969911
-1.1045179 -13.044143 -2.0733826
-1.4147282 -16.638561 -2.0503302
-2.0143385 -23.641708 -2.0758755
-3.0436032 -35.575043 -1.87122
-0.68121761 -7.8020439 -2.098505
-0.79458219 -9.0639067 -2.1005929
-0.94347811 -10.740835 -2.0958462
-1.1496972 -13.036273 -2.072757
-1.472097 -16.62561 -2.049355
-2.0894568 -23.55118 -2.0685544
-3.1677616 -35.564201 -1.87122
-0.70914692 -7.8073139 -2.1005754
-0.8233853 -9.0300274 -2.0933945
-0.98185956 -10.747252 -2.0977542
-1.1959171 -13.040048 -2.0740085
-1.5301207 -16.620371 -2.049355
-2.1683595 -23.508034 -2.0654168
-3.9157546 -42.290821 -2.2258484
-0.73548806 -7.7951736 -2.0979872
-0.85351014 -9.0291862 -2.0938444
-3.7250621 -39.333786 2.0706201
-1.0184402 -10.733987 -2.0958462
-3.7455173 -39.403194 3.462872
-1.2391534 -13.03601 -2.0740085
-3.7471147 -39.347153 4.8530817
-1.5848509 -16.611254 -2.0488675
-2.2462273 -23.456688 -2.0615819
-3.7847462 -39.450481 -2.0770049
-3.7935715 -39.397758 -0.690871
-0.76114529 -7.7907701 -2.0974696
-3.859345 -39.431553 0.69156909
-0.88654315 -9.0416679 -2.0974436
-3.8767891 -39.467632 2.0783658
-1.0542222 -10.732504 -2.0962276
-1.2842613 -13.027675 -2.0733826
-1.6436098 -16.613523 -2.0498426
-2.3181031 -23.389629 -2.0563526
-3.9196694 -39.409203 -2.0755396
-3.9410038 -39.483765 -0.69261616
-0.78891939 -7.7938318 -2.0990226
-8.3463678 -82.311317 1.4441168
-0.91849214 -9.0423956 -2.0983434
-1.0914809 -10.726806 -2.0958462
-1.3301287 -13.027042 -2.0740085
-1.7028041 -16.619532 -2.0513051
-2.3952594 -23.33779 -2.0525177
-4.1918392 -40.702564 -2.1444137
-0.8175292 -7.8044801 -2.1026461
-0.94842213 -9.0236301 -2.0947442
-4.1442795 -39.364124 2.0743883
-1.1293279 -10.726836 -2.0966094
-1.3751804 -13.018391 -2.0733826
-1.7605959 -16.611513 -2.0510612
-2.4720819 -23.2857 -2.0486827
-3.9683414 -37.255833 -1.9635406
-0.84518307 -7.8054194 -2.1036813
-0.98159754 -9.0357628 -2.0983434
-4.2751803 -39.289852 2.0712478
-1.1659155 -10.715021 -2.0950828
-1.4206134 -13.013512 -2.0733826
-1.81706 -16.591454 -2.049355
-2.5485678 -23.233358 -2.044848
-4.0900674 -37.166313 -1.959563
-0.87421578 -7.8061085 -2.1047165
-1.0155791 -9.0398512 -2.100143
-4.408884 -39.182621 2.066433
-1.2040827 -10.700921 -2.0931747
-1.4669716 -12.99644 -2.0715053
-1.8783056 -16.588627 -2.0498426
-2.629667 -23.188227 -2.0417104
-4.7382627 -41.651829 -2.196959
-0.90079314 -7.7972531 -2.1031637
-1.0484741 -9.0478659 -2.1028426
-4.5447054 -39.159061 2.0660143
-1.2409749 -10.692754 -2.0924115
-1.5127859 -12.995163 -2.0721312
-1.9371186 -16.589857 -2.0508175
-2.7017968 -23.103706 -2.0350864
-0.92914832 -7.8036528 -2.105752
-1.0779701 -9.0267363 -2.0987935
-4.6707482 -39.112041 2.0643396
-1.2789929 -10.694203 -2.0935564
-1.5571961 -12.981959 -2.0708797
-1.9945424 -16.57905 -2.0503302
-2.7805216 -23.07831 -2.0336921
-4.9953833 -41.340137 -2.1823049
-0.95591152 -7.7965264 -2.1047165
-1.1081357 -9.0250454 -2.0992434
-1.3163139 -10.689673 -2.0935564
-1.6002393 -12.976725 -2.0708797
-2.0487773 -16.566437 -2.0495987
-2.8551784 -23.021011 -2.0295086
-5.1073322 -41.121181 -2.1716285
-0.98514128 -7.8201485 -2.1119635
-1.1398767 -9.023056 -2.0996931
-1.352741 -10.693041 -2.0950828
-1.6460228 -12.974978 -2.0715053
-2.1065948 -16.559183 -2.0495987
-2.929487 -22.995605 -2.0281141
-5.2422414 -41.03574 -2.1680696
-1.0116874 -7.8109136 -2.1104105
-1.1735522 -9.048214 -2.1064417
-1.3895512 -10.684361 -2.0943196
-1.6890409 -12.969448 -2.0715053
-2.1617513 -16.554075 -2.0498426
-3.0030136 -22.933874 -2.023582
-5.3746581 -40.990406 -2.1666043
-1.0358027 -7.7941113 -2.1067872
-1.2056432 -9.0479259 -2.1073413
-1.4281393 -10.689174 -2.0962276
-1.734825 -12.967389 -2.0721312
-2.220315 -16.55233 -2.0505736
-3.0772076 -22.879812 -2.0197473
-5.5243216 -40.966473 -2.1663947
-1.0648856 -7.7940898 -2.1078224
-1.2377397 -9.0357246 -2.1055419
-1.4702462 -10.705263 -2.1004255
-1.7812651 -12.953116 -2.0708797
-2.2798831 -16.536215 -2.0495987
-3.1610434 -22.86838 -2.0197473
-5.6793694 -40.98156 -2.1682787
-1.0921028 -7.7805696 -2.1052344
-1.268405 -9.0137587 -2.1014926
-1.5141785 -10.746723 -2.1095843
-1.8292829 -12.950413 -2.0715053
-2.3378677 -16.530123 -2.0498426
-3.2402937 -22.85326 -2.0193987
-5.8156433 -40.914032 -2.165767
-1.116524 -7.7673445 -2.1026461
-1.2971773 -9.0017881 -2.0996931
-1.5540134 -10.77079 -2.1153085
-1.8699547 -12.928634 -2.0690024
-2.3921022 -16.518349 -2.049355
-3.3154855 -22.838446 -2.0190499
-5.9127464 -40.629673 -2.1517408
-1.1408687 -7.7540426 -2.1000578
-1.3270216 -8.9974365 -2.0996931
-1.584847 -10.732561 -2.1088212
-1.9151319 -12.937995 -2.0715053
-2.4512029 -16.519718 -2.0505736
-3.3882756 -22.807619 -2.0173068
-1.1592922 -7.6927052 -2.0845287
-1.3572552 -8.9850416 -2.0978935
-1.6228871 -10.730845 -2.1095843
-1.9590968 -12.923419 -2.0702538
-2.5088549 -16.511061 -2.0505736
-3.4672692 -22.791712 -2.016958
-1.1828978 -7.6676092 -2.0788348
-1.3859309 -8.9629173 -2.0938444
-1.6622069 -10.724825 -2.1095843
-2.0029848 -12.908693 -2.0690024
-2.5676928 -16.510048 -2.0515487
-3.5495548 -22.770975 -2.0162609
-1.2037553 -7.6174254 -2.0664113
-1.4184675 -8.9558535 -2.0933945
-1.7015042 -10.718661 -2.1095843
-2.0512142 -12.907118 -2.069941
-2.626627 -16.490725 -2.0503302
-3.636132 -22.777489 -2.0180039
-5.7260728 -35.789085 -1.8994814
-1.2267301 -7.5824494 -2.0581291
-1.4487879 -8.9352055 -2.0897954
-1.7382803 -10.70878 -2.1088212
-2.0985079 -12.899514 -2.069941
-2.6857703 -16.491251 -2.0515487
-3.7162578 -22.768589 -2.0183527
-1.2449412 -7.5364079 -2.046741
-1.4784105 -8.9303513 -2.0897954
-1.7731394 -10.699083 -2.108058
-2.1428914 -12.902227 -2.0715053
-2.7407665 -16.484211 -2.0517924
-3.790432 -22.748281 -2.0176554
-6.579432 -39.40163 -2.0935431
-1.2641451 -7.4979482 -2.0374236
-1.5060678 -8.9138708 -2.087096
-1.8092644 -10.697017 -2.1088212
-2.1836832 -12.883365 -2.0696282
-2.7992902 -16.480415 -2.0525236
-3.8658013 -22.711342 -2.0155637
-6.6812048 -39.210266 -2.0845413
-1.2870239 -7.4666119 -2.0301766
-1.5335292 -8.887435 -2.0821469
-1.8494624 -10.696116 -2.109966
-2.2295399 -12.86749 -2.0683768
-6.4876719 -37.442726 4.6658902
-2.8574774 -16.474455 -2.0530112
-3.6073632 -20.7763 3.3398762
-3.9436939 -22.689857 -2.0148666
-1.3067175 -7.4259243 -2.0203414
-1.5698154 -8.9028645 -2.087096
-1.8895166 -10.705062 -2.113019
-2.2754745 -12.865464 -2.0693154
-2.9143765 -16.444326 -2.0505736
-3.669523 -20.705231 3.3304901
-4.0256543 -22.691647 -2.0162609
-3.6792459 -20.718002 4.0901818
-6.8686275 -38.638386 -2.0566986
-1.3278519 -7.3946972 -2.0130947
-1.599329 -8.8976107 -2.087096
-1.9265262 -10.696468 -2.1126373
-2.3163733 -12.848127 -2.0677509
-2.9688926 -16.43457 -2.0505736
-3.73334 -20.645641 3.3229811
-4.1027069 -22.665693 -2.0152152
-3.7416332 -20.670916 4.083313
-6.9646726 -38.438519 -2.0472779
-1.3464532 -7.3579483 -2.0042949
-1.6324867 -8.9034748 -2.0897954
-1.9605693 -10.682298 -2.1111107
-2.3626356 -12.847734 -2.0690024
-3.0269597 -16.428011 -2.0510612
-3.8028741 -20.618889 3.3207912
-4.180738 -22.667637 -2.0166094
-7.0683198 -38.249001 -2.0384855
-1.3678775 -7.3304143 -1.9980831
-1.6603327 -8.8804817 -2.085746
-1.984482 -10.603989 -2.0969911
-2.4060123 -12.831643 -2.0677509
-3.0850191 -16.421247 -2.0515487
-3.8744624 -20.603546 3.3204784
-4.2668366 -22.690107 -2.0199213
-7.1884785 -38.153435 -2.0347176
-1.3905686 -7.3104129 -1.993942
-1.688038 -8.8574028 -2.0816972
-1.9464369 -10.203587 -2.019141
-2.4515307 -12.827047 -2.0683768
-3.1415749 -16.406479 -2.0510612
-4.3463874 -22.677034 -2.0200958
-6.7762299 -35.287971 -1.8831526
-1.4168144 -7.3093071 -1.9949772
-1.7156014 -8.834239 -2.0776479
-1.98092 -10.190948 -2.0179961
-2.4977996 -12.826167 -2.0696282
-3.1980653 -16.391518 -2.0505736
