# .PCD v0.7 - Point Cloud Data file format
VERSION 0.7
FIELDS x y z
SIZE 4 4 4
TYPE F F F
COUNT 1 1 1
WIDTH 1509
HEIGHT 1
VIEWPOINT 0 0 0 1 0 0 0
POINTS 1509
DATA ascii
24.660007 -6.2307825 -3.123024
33.352901 -8.4333878 -3.0098362
67.972343 -17.212273 -3.6747172
7.5325718 -1.9214284 -2.0829759
8.4194469 -2.1492202 -2.0061135
8.3653717 -2.1385272 -1.6783561
8.4089947 -2.1512423 -1.3747462
24.63921 -6.3125234 -3.123024
33.230629 -8.5259933 -3.0014696
67.90329 -17.434601 -3.6740892
7.5579538 -1.9546199 -2.0917757
8.3760509 -2.1693137 -1.9975653
8.270813 -2.1435986 -1.6608016
8.3976097 -2.1795895 -1.3741205
24.659292 -6.4094787 -3.1283865
33.167461 -8.6271152 -2.9983318
7.5529532 -1.9814804 -2.0922933
8.3420401 -2.1916056 -1.9912667
8.1721411 -2.148495 -1.6424839
8.3784885 -2.2058721 -1.3722433
24.625252 -6.4924793 -3.1269238
33.079357 -8.7275915 -2.9931026
7.5478578 -2.0083299 -2.0928109
8.0925055 -2.1577873 -1.6279825
8.389823 -2.240201 -1.3753721
24.656136 -6.5927563 -3.1337485
32.937054 -8.8131351 -2.9829924
7.5426664 -2.0351677 -2.0933285
8.0394392 -2.1737239 -1.6188235
8.3895788 -2.2715383 -1.3766234
24.636803 -6.679822 -3.1342359
32.856094 -8.9144878 -2.9784601
7.5839643 -2.0747378 -2.1067872
8.4915457 -2.3262103 -2.0326576
8.0015097 -2.193469 -1.6127177
8.4006481 -2.3060389 -1.3797522
24.613337 -6.765779 -3.1342359
32.751781 -9.0090446 -2.9718366
7.5766759 -2.1011982 -2.1067872
8.4401875 -2.3438442 -2.02231
7.9711051 -2.2150781 -1.6081383
8.3982563 -2.3369367 -1.3806907
24.597221 -6.8537865 -3.135211
32.643364 -9.1019096 -2.964864
7.5748749 -2.1292012 -2.1083403
8.4357061 -2.3743477 -2.0232098
7.9179702 -2.2301149 -1.5989794
8.4185648 -2.3742809 -1.3853837
24.584608 -6.942842 -3.1366735
32.542374 -9.1962957 -2.9585888
7.5748277 -2.1577461 -2.1104105
8.4873352 -2.4208844 -2.0376067
7.8723798 -2.2469633 -1.5913471
8.503294 -2.4302516 -1.4007144
24.583124 -7.0351696 -3.1395984
32.433456 -9.2878933 -2.9516163
7.5876665 -2.1900675 -2.1161046
8.5106583 -2.4596937 -2.0452549
7.8343139 -2.265703 -1.5852412
8.5194254 -2.4670618 -1.4047817
24.592733 -7.130888 -3.1439855
32.339603 -9.3832836 -2.9460385
7.5929556 -2.2203352 -2.1197281
8.5001507 -2.4888389 -2.044805
7.8018646 -2.2858601 -1.5802802
8.5145521 -2.4978974 -1.4054073
24.575314 -7.2189283 -3.1449606
32.226372 -9.4725142 -2.9387174
7.5814548 -2.2457292 -2.1186929
8.7548409 -2.5966268 -2.1082413
7.7637234 -2.3041418 -1.5741742
8.4527626 -2.5118477 -1.3966471
24.588017 -7.3159904 -3.1498353
32.128185 -9.5656185 -2.9327908
7.6309299 -2.2893884 -2.1347394
8.9944191 -2.7001665 -2.1680782
7.7330723 -2.3244472 -1.569595
18.44372 -5.5474191 -3.0504723
24.533209 -7.3883281 -3.1459355
32.064079 -9.6685038 -2.9300015
7.6676607 -2.3281517 -2.1471629
8.7350998 -2.6555915 -2.1077914
7.6633387 -2.3312228 -1.5570016
12.804377 -3.900034 -2.1200001
24.511066 -7.4750767 -3.1464229
31.936562 -9.7457037 -2.9212861
68.016403 -20.781721 -3.7272625
7.516922 -2.2995884 -0.13721082
7.6853395 -2.3628509 -2.1544099
9.0815134 -2.7955732 -2.1937227
7.5186105 -2.3158996 0.4123027
7.6363916 -2.3521788 -1.5531853
18.412094 -5.6783729 -3.051724
24.549313 -7.5805049 -3.1547101
31.818588 -9.8312445 -2.9136164
7.7360702 -2.4080362 -2.1709743
9.0344896 -2.81566 -2.1847248
7.6131406 -2.374145 -1.5501324
18.38839 -5.7414317 -3.0510983
24.556808 -7.6768126 -3.1590974
31.738438 -9.9279757 -2.9094329
7.7257748 -2.4344451 -2.1704566
9.0381117 -2.8497057 -2.1878741
7.5598741 -2.3865209 -1.5409735
18.410688 -5.8154674 -3.0579813
24.48579 -7.7438374 -3.1532476
31.627613 -10.014646 -2.9024606
7.7434278 -2.4682653 -2.1777036
7.5272036 -2.40079 0.13790892
8.9557076 -2.8581305 -2.1703279
7.5066156 -2.3985541 -1.5318148
18.409092 -5.8857131 -3.06111
24.473736 -7.834105 -3.1551976
31.535543 -10.106744 -2.8972311
7.4845018 -2.4030106 -0.13721082
7.7214603 -2.4924753 -2.1740801
7.5392861 -2.435123 0.13829286
8.8709993 -2.8669646 -2.1523318
7.4492083 -2.4103367 -1.5218927
12.68174 -4.1058698 -2.1112397
24.444857 -7.9237523 -3.1551976
31.441437 -10.20381 -2.8920019
68.15239 -22.144053 -3.7555239
7.4832511 -2.4328997 -0.13735044
7.7343087 -2.5279617 -2.1802919
7.5189061 -2.4590099 0.13808344
8.6918907 -2.8443062 -2.1113906
7.4960289 -2.4529762 0.41334942
7.3885069 -2.4192188 -1.5112073
12.651589 -4.1474004 -2.1087368
24.443457 -8.0176935 -3.1586099
31.37534 -10.303552 -2.8892128
68.150574 -22.406767 -3.7597108
7.5051055 -2.4690046 -0.13790892
7.7772422 -2.5705707 -2.1947856
7.5031166 -2.4814184 0.13794382
8.7693644 -2.9018879 -2.1325359
7.4992309 -2.4815855 0.41397744
7.3618064 -2.4375358 -1.5073912
18.345388 -6.0813689 -3.06111
24.435575 -8.1049566 -3.1610475
31.231331 -10.37112 -2.8791027
7.4987745 -2.4945102 -0.13794382
7.8016553 -2.6073694 -2.2041032
7.5062256 -2.5100913 0.13815325
8.7208843 -2.9179668 -2.1230881
7.5189314 -2.5172586 0.41554755
7.2903848 -2.4407437 -1.4944161
18.347595 -6.149704 -3.0648644
24.388315 -8.1838884 -3.1586099
31.149607 -10.464848 -2.8749192
7.5070782 -2.5264111 -0.13825797
7.8304753 -2.6489465 -2.2149734
7.5087833 -2.5401223 0.13836268
8.7586384 -2.9646351 -2.1347857
7.4892898 -2.5364416 0.41439614
7.2330465 -2.4510653 -1.4844941
18.336155 -6.2207174 -3.0667415
24.355841 -8.2676935 -3.1581225
31.033659 -10.54659 -2.8675981
7.4868555 -2.5487335 -0.13804853
7.7572083 -2.6543734 -2.1968563
7.4994226 -2.5676265 0.13836268
7.5030646 -2.5703363 0.41565222
7.1204443 -2.44065 -1.4631234
18.329279 -6.2898135 -3.0692446
24.381695 -8.376255 -3.1654346
30.992887 -10.653559 -2.8672497
7.4779134 -2.574852 -0.13804853
7.3973775 -2.5601256 -2.0974696
7.4946465 -2.5937891 0.13843249
7.4026685 -2.5634038 -1.8086064
7.5053697 -2.6004341 0.41628024
7.0154238 -2.4320509 -1.4432793
7.4764338 -2.6035695 -0.13818815
7.5876093 -2.6541698 -2.1538923
7.4836593 -2.6192739 0.13839759
7.3863196 -2.586652 -1.8068069
7.5136704 -2.6312497 0.41722229
6.962853 -2.4397209 -1.4341204
7.4243937 -2.6043506 -1.2461572
7.4525027 -2.6171329 -0.96983629
7.4681616 -2.6240957 -0.69253951
7.4704227 -2.6278203 -0.41502416
7.4677587 -2.6283479 -0.13818815
7.8387408 -2.7727647 -2.2279146
7.4881291 -2.6487443 0.13864191
7.4874954 -2.6514611 0.41628024
6.9246855 -2.4535201 -1.4280145
24.314363 -8.6292763 -3.167872
7.4849138 -2.6637862 -0.13867682
7.8313212 -2.7993939 -2.2284322
7.4788375 -2.6748667 0.13864191
9.1336155 -3.2685091 -2.2396126
7.4857159 -2.680274 0.41669893
6.8772664 -2.4637721 -1.4200007
18.264271 -6.5467486 -3.072999
24.280357 -8.7127552 -3.1673846
30.561794 -10.978827 -2.8411031
7.4661622 -2.6865115 -0.1385023
7.8337255 -2.8326766 -2.2320557
7.4859071 -2.7083826 0.13895606
9.3377953 -3.3802347 -2.2927012
7.4946203 -2.7144942 0.41774565
6.8331199 -2.476253 -1.4127499
18.24758 -6.6163402 -3.0742505
24.24826 -8.8016882 -3.1673846
30.446444 -11.063549 -2.8341303
7.4581442 -2.7145424 -0.1385372
7.821476 -2.8607061 -2.2315381
7.4815636 -2.7378635 0.13906078
9.1954174 -3.3668644 -2.2607579
7.4996243 -2.7474413 0.41858301
6.7967834 -2.48996 -1.4070257
18.230627 -6.6858974 -3.0755022
24.253107 -8.9041872 -3.1722593
30.359016 -11.151899 -2.8295984
7.4500217 -2.7425504 -0.13857211
7.7752032 -2.8745921 -2.2211852
7.4682097 -2.7625747 0.13899097
9.6112633 -3.5572214 -2.3660352
7.4918609 -2.7742968 0.41868767
6.7714806 -2.507534 -1.403591
18.199766 -6.7467461 -3.0742505
24.225599 -8.9901714 -3.1727467
30.271339 -11.239772 -2.8250661
7.4610186 -2.7762103 -0.13895606
7.7397876 -2.8922484 -2.2139382
7.471633 -2.793529 0.1392353
6.7405062 -2.521513 -1.6614884
7.4840021 -2.8011317 0.4187924
6.7369452 -2.5215211 -1.3982484
18.194605 -6.8171649 -3.0773792
24.205223 -9.0788641 -3.1742091
30.205809 -11.335569 -2.8226259
7.4643846 -2.8071644 -0.13920039
7.7278357 -2.9185643 -2.2134204
7.4674482 -2.8217132 0.13934001
6.6642194 -2.5195279 -1.6448421
7.4779148 -2.8286519 0.41900173
6.7042303 -2.5359921 -1.3932874
18.178087 -6.8834329 -3.0786304
24.217934 -9.1801882 -3.180059
30.080364 -11.408439 -2.8146076
7.4508018 -2.8317823 -0.13913059
7.7176013 -2.9455218 -2.2134204
7.4687614 -2.8520427 0.13954943
6.6044135 -2.5233009 -1.6322449
7.4866505 -2.8618686 0.42004842
6.6788325 -2.5530698 -1.3898528
18.168707 -6.9524922 -3.0811336
24.226522 -9.2802896 -3.185421
29.995707 -11.496256 -2.8104241
7.4371381 -2.856339 -0.13906078
7.6784344 -2.9613216 -2.2051384
7.4568954 -2.8773763 0.13951454
6.5628414 -2.5337057 -1.6241466
7.4859314 -2.8915827 0.42057177
6.6350837 -2.5629268 -1.3826021
18.148014 -7.0172954 -3.0817592
24.197685 -9.3662338 -3.1859088
29.910799 -11.583622 -2.8062406
7.4364433 -2.8858995 -0.1392353
7.6662502 -2.9874043 -2.2046208
7.4393535 -2.9004824 0.13937493
6.510385 -2.539602 -1.613349
7.4725804 -2.9149396 0.42036244
6.6132951 -2.5810759 -1.3799307
18.127087 -7.0820389 -3.0823851
24.162794 -9.4449797 -3.185421
29.814522 -11.666178 -2.8010111
7.4342794 -2.9134624 -0.13937493
7.6437173 -3.0078583 -2.2009974
7.4464402 -2.9317296 0.13968907
6.4692912 -2.5483215 -1.6052507
7.4591565 -2.9382396 0.42015311
6.59374 -2.5986726 -1.377641
18.099829 -7.1406617 -3.0817592
24.149803 -9.532341 -3.1878586
29.742319 -11.751804 -2.7978735
7.5618892 -3.0046554 -2.1802919
6.4535618 -2.5668793 -1.6034511
7.4469981 -2.9635203 0.42004842
6.5777898 -2.6176205 -1.3761146
18.07972 -7.2021055 -3.0823851
24.145884 -9.6283464 -3.1917584
29.629166 -11.820838 -2.7909012
7.510119 -3.0144815 -2.168386
6.4319048 -2.584305 -1.6003017
7.4366078 -2.9894972 0.42004842
6.5212517 -2.6215262 -1.3661925
18.087456 -7.2784457 -3.0880167
24.104765 -9.7096052 -3.1907835
29.55076 -11.909296 -2.787415
7.5120831 -3.0457594 -2.1720095
6.4029822 -2.5986798 -1.5953529
7.4649892 -3.0312178 0.42224655
6.517518 -2.6464899 -1.3673373
18.054619 -7.3385625 -3.0867651
24.129564 -9.8176289 -3.1985831
29.442579 -11.985332 -2.7811396
7.5049815 -3.0734274 -2.1730449
6.368628 -2.6106663 -1.5890542
6.5318537 -2.6789083 -1.3722984
18.021584 -7.39854 -3.0855138
24.106163 -9.9063234 -3.2000456
29.330538 -12.059242 -2.7745159
7.3014069 -3.0198636 -2.1171398
6.3270674 -2.6194632 -1.580956
6.536973 -2.7077031 -1.3753513
17.991999 -7.4598875 -3.084888
24.064104 -9.9873648 -3.1990707
29.280905 -12.158495 -2.7738187
7.3567777 -3.0728817 -2.1362925
6.2927146 -2.6310091 -1.5746574
6.5383492 -2.7350504 -1.377641
17.973137 -7.5256982 -3.0861394
24.025433 -10.06977 -3.1985831
29.179489 -12.235974 -2.7682407
6.2870822 -2.6544745 -1.5755571
6.53057 -2.758621 -1.3780226
17.957674 -7.5930066 -3.0880167
24.030352 -10.170593 -3.2039452
29.08523 -12.316003 -2.76336
6.561996 -2.7948685 -1.9111199
6.2401328 -2.6603553 -1.5661093
6.5479889 -2.792954 -1.3837469
17.941959 -7.6602979 -3.0898938
24.012959 -10.262215 -3.2063828
28.998093 -12.398655 -2.7591765
6.5646229 -2.8230994 -1.9147433
6.2021694 -2.6697929 -1.5589108
17.907858 -7.7197528 -3.0886426
23.984282 -10.349119 -3.2073576
28.918053 -12.48401 -2.7556903
6.5919414 -2.8621542 -1.9256139
6.1731529 -2.6828821 -1.5539619
6.5949469 -2.8675644 -1.3978667
17.909781 -7.7948279 -3.0936484
23.933453 -10.426435 -3.2054079
28.83777 -12.568954 -2.7522039
6.6119885 -2.8983319 -1.9344137
6.136982 -2.6926692 -1.5472133
6.6046715 -2.8992479 -1.4020646
17.875229 -7.8541198 -3.092397
23.907814 -10.514709 -3.2068701
28.706184 -12.631024 -2.7438371
6.6124315 -2.9260848 -1.9375196
6.1155457 -2.7074833 -1.544064
6.5891261 -2.9198987 -1.4009198
17.845472 -7.9117508 -3.0917714
23.876442 -10.595542 -3.2073576
28.632786 -12.718208 -2.7410481
6.5850515 -2.9401205 -1.9323431
6.0633583 -2.7097316 -1.5332664
6.600914 -2.951349 -1.4054991
17.839382 -7.9836783 -3.0955255
23.864674 -10.690184 -3.2107699
28.559128 -12.805037 -2.7382591
6.6851816 -3.0142617 -1.9649543
6.0449805 -2.7268732 -1.5310168
17.799202 -8.0441284 -3.0936484
23.852535 -10.784871 -3.2141821
28.452543 -12.876719 -2.7323325
5.9906101 -2.7288158 -1.5197693
14.206132 -6.4741073 -3.0346262
17.778202 -8.1094885 -3.0948997
23.830906 -10.880467 -3.2166197
28.367552 -12.957747 -2.7284977
7.4838047 -3.4374192 -2.2066913
5.9491773 -2.7350578 -1.5116711
14.174529 -6.5195551 -3.0327184
17.764141 -8.1781063 -3.0974028
23.785568 -10.960264 -3.2156448
28.293196 -13.043343 -2.7257087
7.625999 -3.5350184 -2.2522435
5.9113102 -2.7426848 -1.5044726
14.13922 -6.5632071 -3.0300472
17.739069 -8.2417297 -3.0980284
23.768766 -11.053269 -3.2185698
28.196913 -13.118491 -2.7208281
7.5698662 -3.541152 -2.2393024
5.8739429 -2.7490559 -1.4972742
14.126891 -6.6175199 -3.0323367
17.711641 -8.3005085 -3.0980284
23.767923 -11.148888 -3.2234445
28.104059 -13.194822 -2.716296
7.4986792 -3.5382068 -2.2217028
5.8290687 -2.7528992 -1.4882761
10.416231 -4.9215055 -2.2393346
17.68256 -8.3622837 -3.0980284
23.728863 -11.231787 -3.2234445
28.034941 -13.276009 -2.7138555
7.6676841 -3.6507289 -2.2755373
5.7389779 -2.7336643 -1.4675807
14.09747 -6.721128 -3.0357714
17.679693 -8.4327812 -3.1024086
23.691486 -11.310411 -3.2234445
27.930899 -13.346297 -2.7082775
7.6577339 -3.6804817 -2.2765725
5.6862926 -2.7354052 -1.4567831
14.067432 -6.7701979 -3.0346262
17.625826 -8.4903154 -3.0986543
23.64073 -11.397849 -3.2224696
27.85667 -13.436462 -2.7058372
7.6639609 -3.7164617 -2.2822666
5.6030769 -2.7194993 -1.4378871
14.040183 -6.8175464 -3.0338631
17.62451 -8.5656061 -3.1036601
23.632933 -11.495931 -3.2268567
27.759438 -13.509208 -2.7009563
7.6735005 -3.7542284 -2.2889957
5.5707974 -2.7279 -1.4320384
14.023353 -6.8699689 -3.0353897
17.566124 -8.6131592 -3.0986543
23.574841 -11.569611 -3.2244194
27.672768 -13.586706 -2.6971216
7.7729506 -3.8365684 -2.3226421
5.542501 -2.7368674 -1.4270895
14.009847 -6.9240971 -3.0376794
17.558716 -8.6818714 -3.1024086
23.561253 -11.660051 -3.2278318
27.571609 -13.656689 -2.6918921
5.5654726 -2.7699926 -1.6657594
5.4997711 -2.7396882 -1.4185413
13.995594 -6.9748955 -3.0395873
17.542444 -8.7501631 -3.1049118
23.545273 -11.754636 -3.2312441
27.497652 -13.7338 -2.6891034
5.5005226 -2.7616649 -1.649195
5.4727621 -2.7501194 -1.4140424
13.958882 -7.0175338 -3.036916
17.508265 -8.8095684 -3.104286
23.482822 -11.826038 -3.2283192
27.410398 -13.809979 -2.6852684
5.4529338 -2.761646 -1.6378069
5.4457474 -2.7603953 -1.4095433
13.941307 -7.0697689 -3.0384426
17.49502 -8.87957 -3.1074145
23.473253 -11.92412 -3.2327065
27.330057 -13.889328 -2.6821308
69.885445 -35.546978 -4.1091056
5.4036918 -2.7604501 -1.6259012
5.4169927 -2.7696295 -1.4045944
13.920038 -7.1201782 -3.0392058
17.449852 -8.933383 -3.1049118
23.435022 -12.007795 -3.2331939
27.23531 -13.961013 -2.6775987
5.3734159 -2.7686777 -1.6196897
5.3917036 -2.7804828 -1.4005452
13.903824 -7.1732249 -3.0411139
17.432604 -9.0014906 -3.1074145
23.392965 -12.089525 -3.2331939
27.151011 -14.037695 -2.6741123
5.3568621 -2.783854 -1.6176192
5.3594899 -2.7875965 -1.3946966
13.875216 -7.219903 -3.0403507
17.408085 -9.065937 -3.1086662
23.347101 -12.169272 -3.2327065
27.073582 -14.117645 -2.6713235
5.3300009 -2.7935681 -1.6124427
5.3462749 -2.8044772 -1.3937967
13.853406 -7.2701168 -3.0411139
17.383329 -9.1303215 -3.1099176
23.325565 -12.261779 -3.2356312
26.98534 -14.191662 -2.6674886
5.3031378 -2.8031282 -1.6072664
5.3076596 -2.8067038 -1.3861483
13.821004 -7.3147569 -3.0395873
17.356447 -9.189765 -3.1105433
23.274252 -12.333486 -3.234169
26.900436 -14.2671 -2.6640024
5.2733541 -2.8097973 -1.6010547
5.2961111 -2.8242972 -1.3856986
9.6862507 -5.1676321 -2.1340079
17.313808 -9.2447119 -3.1086662
23.329103 -12.467047 -3.2478182
26.818846 -14.344 -2.6608646
10.09632 -5.3999944 2.2255962
9.9092274 -5.3021526 -0.5889889
10.023243 -5.3654094 2.6247289
9.9723463 -5.3404045 -0.19745652
10.002635 -5.3588715 3.0406063
5.2528105 -2.8236184 -1.5979488
9.8934917 -5.3181901 0.19606033
5.2690568 -2.8335371 -1.3811995
9.8848591 -5.3179984 0.58825624
9.6430426 -5.1900725 -2.1286652
9.9150438 -5.3387008 0.98520851
9.80163 -5.2798409 -1.7633295
9.9162493 -5.3415828 1.3829734
9.8052235 -5.2839847 -1.3676178
9.940629 -5.3591928 1.788672
9.8113575 -5.2917109 -0.97527272
9.958971 -5.3735685 2.1996462
9.8229418 -5.3023853 -0.58501136
9.9897928 -5.3947029 2.6211298
9.8551111 -5.3219719 -0.19550186
9.9906673 -5.3974276 3.0426769
5.2344303 -2.8373339 -1.5953608
9.8422918 -5.3372579 0.19543205
5.238081 -2.8416789 -1.3758006
9.9004107 -5.3732467 0.59034967
9.6731815 -5.2499232 -2.1393507
9.8858414 -5.3675742 0.98416263
9.7727251 -5.3083658 -1.7614522
9.8791628 -5.3684125 1.380536
9.7543993 -5.3028212 -1.3632306
9.9209194 -5.3955908 1.788672
9.7718229 -5.3145032 -0.97318101
9.9298067 -5.4026699 2.1973565
9.8043728 -5.3366413 -0.58501136
9.9332504 -5.4090385 2.6112318
9.8355389 -5.358057 -0.19550186
9.9572468 -5.4266133 3.0385358
5.219409 -2.8528085 -1.5938078
9.8236017 -5.3715811 0.19543205
5.2230005 -2.8571403 -1.3744509
9.860568 -5.3962665 0.58909357
9.6926861 -5.3043914 -2.1477461
9.860054 -5.398221 0.98346537
9.7368107 -5.3329573 -1.7583237
9.8429537 -5.3933263 1.3780986
9.6331263 -5.2805405 -1.34885
9.8847046 -5.4206896 1.7855432
9.7497196 -5.3466649 -0.97283238
9.9143295 -5.4391875 2.1981196
9.7646732 -5.3593006 -0.58375531
9.9006433 -5.4361758 2.6076326
9.7992487 -5.3827291 -0.1951528
9.9687204 -5.4780846 3.0478532
5.1840401 -2.8570235 -1.5860431
9.8608284 -5.4367347 0.196549
5.2027574 -2.8697073 -1.3717515
10.003515 -5.5176821 0.59872341
9.7497435 -5.3799276 -2.1645374
9.8899899 -5.4595675 0.9883461
9.7354279 -5.376462 -1.7614522
9.9144201 -5.4775705 1.3907731
9.590313 -5.3006907 -1.3454378
10.001526 -5.5279737 1.809947
9.8077145 -5.4230866 -0.98050213
9.9914865 -5.5269785 2.2194905
9.8787184 -5.4668503 -0.59171039
10.072556 -5.576416 2.6580217
9.8968105 -5.4791193 -0.19745652
5.1605263 -2.8675952 -1.5819021
11.367497 -6.3192739 -3.0026467
13.69738 -7.6207333 -3.046838
17.211966 -9.5800562 -3.1199293
9.583087 -5.3382597 -1.3469001
26.376482 -14.705089 -2.6420391
5.1240201 -2.8695893 -1.5736198
11.306273 -6.3370013 -2.9922991
13.666897 -7.6632333 -3.0456934
9.5453558 -5.3609862 -1.344219
26.303255 -14.778813 -2.6395988
5.1106076 -2.8855581 -1.5725845
11.282385 -6.3754702 -2.9918489
13.645191 -7.7137904 -3.046838
17.103401 -9.6766396 -3.1124206
9.5179472 -5.3893819 -1.3430003
26.220301 -14.85286 -2.6364613
5.0786786 -2.8909559 -1.5658553
11.260062 -6.4148145 -2.9918489
13.621593 -7.763319 -3.0476015
17.076385 -9.7401972 -3.113672
9.5465746 -5.4474783 -1.3495812
26.144073 -14.930465 -2.6340208
5.0590091 -2.902014 -1.5627494
11.245488 -6.4559999 -2.9936485
13.592369 -7.8064909 -3.046838
17.054264 -9.8026772 -3.1155491
9.6024551 -5.521657 -1.360062
26.035706 -14.98329 -2.6280942
5.0242701 -2.9042723 -1.5549849
11.232452 -6.4981356 -2.9958982
13.576602 -7.8574233 -3.0491278
17.001152 -9.8472958 -3.1117947
9.6596651 -5.5972595 -1.3707864
25.968641 -15.05955 -2.6263511
5.0045958 -2.9150832 -1.551879
11.21926 -6.5402551 -2.9981477
13.550471 -7.9024014 -3.0491278
16.971817 -9.905612 -3.1124206
22.899212 -13.370497 -3.2558618
25.904799 -15.137542 -2.6249566
4.966207 -2.9194849 -1.5435969
11.191235 -6.5842509 -2.9976976
13.525408 -7.9607158 -3.0506544
16.938725 -9.9776716 -3.113672
22.859035 -13.470376 -3.2578115
25.812931 -15.223188 -2.621819
4.9564986 -2.9359374 -1.5435969
11.16431 -6.6183443 -2.9963481
13.498935 -8.0055246 -3.0506544
16.908941 -10.035804 -3.1142976
22.81424 -13.546104 -3.2578115
25.717773 -15.282239 -2.6172869
4.8853574 -2.9157255 -1.5244442
11.147321 -6.6583281 -2.9976976
13.475684 -8.0522585 -3.0514176
16.889133 -10.099933 -3.1168008
22.794071 -13.641971 -3.2617114
25.64986 -15.357206 -2.6155438
4.8701839 -2.9297736 -1.5228913
11.124011 -6.6971989 -2.9976976
13.439086 -8.0941839 -3.0495095
16.847006 -10.154744 -3.1155491
22.719114 -13.705046 -3.2578115
25.579041 -15.436353 -2.6138008
4.8566236 -2.9447522 -1.521856
11.110561 -6.742054 -3.0003972
13.417463 -8.1451206 -3.0510359
16.808081 -10.211439 -3.1149235
22.674532 -13.786331 -3.2582991
25.473936 -15.494485 -2.6085713
4.8166432 -2.9435544 -1.5125386
11.070336 -6.7706285 -2.9958982
13.390624 -8.1929312 -3.0514176
16.779072 -10.274174 -3.1161747
22.619497 -13.861246 -3.257324
25.385721 -15.562484 -2.6050851
4.7964702 -2.9542708 -1.5094327
11.048293 -6.8102531 -2.9963481
13.375313 -8.2478676 -3.0544708
16.746469 -10.334757 -3.1168008
22.614889 -13.967239 -3.2636611
25.321075 -15.644721 -2.6040392
4.740171 -2.9424677 -1.494939
11.034385 -6.8549471 -2.9990475
13.336435 -8.2882872 -3.0521808
16.747194 -10.416101 -3.1236837
22.555885 -14.039801 -3.2621989
25.239246 -15.716158 -2.6012502
4.6905642 -2.9344058 -1.4825156
11.025255 -6.90273 -3.0030966
13.317408 -8.3410425 -3.0544708
16.700691 -10.468202 -3.1218066
22.537008 -14.137437 -3.2665861
25.153856 -15.785103 -2.5981126
4.637804 -2.9239733 -1.469057
10.994502 -6.9370136 -3.001297
13.29485 -8.3916702 -3.0559971
16.677408 -10.534874 -3.1243093
22.48081 -14.211777 -3.2656112
25.095238 -15.87068 -2.597764
4.5753908 -2.9069932 -1.4524926
10.971864 -6.9763947 -3.0017469
13.268789 -8.440134 -3.0567603
16.650532 -10.599388 -3.1261868
22.442783 -14.29763 -3.2673173
25.022882 -15.947474 -2.5960209
4.5489469 -2.9125302 -1.4473162
10.945805 -7.0135994 -3.001297
13.2409 -8.4874592 -3.057142
16.610106 -10.655313 -3.125561
22.416126 -14.390898 -3.2707298
24.916771 -16.002424 -2.5907917
4.4997931 -2.9032543 -1.4348928
10.92944 -7.0570502 -3.0035465
13.206245 -8.5304298 -3.0559971
16.612625 -10.738966 -3.13307
22.369089 -14.47121 -3.2712171
24.847378 -16.080641 -2.589397
4.491251 -2.919997 -1.4354105
10.911274 -7.0994091 -3.0053461
13.191196 -8.5861158 -3.0594316
16.57835 -10.799047 -3.1336956
22.338396 -14.562216 -3.274142
24.747702 -16.138981 -2.5848649
4.4503279 -2.9155421 -1.4255754
10.881537 -7.1342483 -3.0039964
13.174279 -8.6407232 -3.0624845
16.540554 -10.856849 -3.1336956
22.280792 -14.635743 -3.2731671
24.687887 -16.223078 -2.5845163
4.4320621 -2.9257371 -1.4229871
10.85782 -7.1702933 -3.0039964
13.135847 -8.6812458 -3.0605764
16.520937 -10.922532 -3.1368241
22.252001 -14.722693 -3.2760921
24.637753 -16.313555 -2.5852134
4.4094663 -2.9318612 -1.4188461
10.83759 -7.2113891 -3.0053461
13.115158 -8.7301979 -3.0624845
16.485998 -10.982327 -3.1374502
22.193865 -14.795873 -3.2751169
24.570259 -16.386326 -2.5838192
4.3799453 -2.9343321 -1.4126344
10.807497 -7.2459207 -3.0039964
13.076451 -8.7704554 -3.0605764
16.447563 -11.039807 -3.1374502
22.145382 -14.875467 -3.2756045
24.502989 -16.465324 -2.5827732
4.3552651 -2.9398758 -1.4079756
10.793442 -7.2912369 -3.0071459
13.055516 -8.8226433 -3.062866
16.428562 -11.110432 -3.1412046
22.149216 -14.990509 -3.2838917
24.432165 -16.541819 -2.5813787
4.3417821 -2.9528878 -1.4069405
10.766314 -7.3277717 -3.0066957
13.021395 -8.8659525 -3.0621028
16.383148 -11.16326 -3.1399529
22.090191 -15.06326 -3.2829168
38.641022 -26.359116 -4.0923109
4.3234797 -2.9625654 -1.4043522
10.737455 -7.3631043 -3.005796
13.003319 -8.9202375 -3.065156
16.360367 -11.231559 -3.1430817
22.053841 -15.151517 -3.2853541
38.529072 -26.480299 -4.090219
4.3115225 -2.9765418 -1.4038346
10.711687 -7.4005404 -3.005796
12.978563 -8.9700356 -3.0666823
16.311316 -11.281859 -3.1412046
22.010609 -15.235186 -3.2868164
38.416744 -26.601017 -4.0881271
4.2868323 -2.9816458 -1.3991758
10.692187 -7.4423394 -3.0075955
12.931061 -9.0040665 -3.062866
16.2848 -11.34776 -3.1437073
21.976833 -15.325549 -3.2897413
38.235416 -26.673397 -4.0787144
4.2637415 -2.9877229 -1.3950348
10.677312 -7.4874492 -3.010745
12.905982 -9.0536604 -3.0643928
16.241856 -11.402267 -3.1430817
21.955688 -15.424994 -3.294616
37.959511 -26.678389 -4.0591912
4.246974 -2.9981313 -1.3929642
10.654294 -7.5269227 -3.0116446
12.877506 -9.1009207 -3.065156
16.185827 -11.447486 -3.1399529
21.943842 -15.531355 -3.3009531
37.950706 -26.870598 -4.0682554
4.2270365 -3.0062196 -1.3898584
10.610491 -7.5516372 -3.0066957
12.858454 -9.1549263 -3.0682087
16.174728 -11.524549 -3.1455848
21.892727 -15.610164 -3.301441
37.788555 -26.954313 -4.0609345
4.2023835 -3.0108306 -1.3851995
10.591986 -7.5943065 -3.0089452
12.826418 -9.1997538 -3.0682087
16.140821 -11.585545 -3.146836
21.834877 -15.684174 -3.3009531
37.700706 -27.090706 -4.0616317
4.1981139 -3.0300033 -1.3872701
10.566991 -7.6323743 -3.0093951
12.784679 -9.2375727 -3.0659192
16.09708 -11.639502 -3.1462104
21.786428 -15.764951 -3.3019283
37.554272 -27.184755 -4.0560536
4.1781368 -3.0378227 -1.3841642
10.557618 -7.6818261 -3.0143442
12.765056 -9.2913866 -3.0689721
16.046772 -11.688642 -3.1443331
21.740892 -15.847919 -3.3033907
37.488125 -27.336809 -4.0591912
8.567235 -6.2748618 -2.8454566
10.525798 -7.7121863 -3.0125444
12.729377 -9.3335657 -3.0682087
16.020664 -11.751137 -3.146836
21.691418 -15.922276 -3.3038781
37.302555 -27.401449 -4.0494299
7.8234282 -5.7700372 -2.6047549
10.492543 -7.7442527 -3.010745
12.701517 -9.3780594 -3.0689721
15.976371 -11.804641 -3.1462104
21.629322 -15.993176 -3.3029032
37.189056 -27.50841 -4.0469894
8.0296459 -5.9655166 -2.6803303
10.468574 -7.7831569 -3.0116446
12.678155 -9.429368 -3.0712616
15.944575 -11.867413 -3.1480875
21.573364 -16.068579 -3.3029032
37.099197 -27.642818 -4.0476871
8.7372656 -6.5386872 -2.9241376
10.438222 -7.8173151 -3.010745
12.638878 -9.4688578 -3.0697353
15.909375 -11.927738 -3.1493392
21.548901 -16.167616 -3.3077781
37.015228 -27.781721 -4.0490818
8.6758204 -6.5400743 -2.9111967
10.423316 -7.8630924 -3.0143442
12.615149 -9.5200129 -3.0720248
15.873948 -11.98796 -3.1505907
21.485998 -16.237946 -3.306803
36.825848 -27.841066 -4.0389714
7.982121 -6.0609555 -2.6855066
10.392703 -7.8970699 -3.0134444
12.588096 -9.5687428 -3.0735517
15.850874 -12.05765 -3.154345
21.426029 -16.310444 -3.3063154
36.680882 -27.933229 -4.033742
8.6821241 -6.6403871 -2.9287965
10.357335 -7.9273777 -3.0111947
12.551499 -9.6102371 -3.072788
15.78987 -12.098489 -3.1505907
21.346909 -16.368223 -3.3029032
36.570511 -28.051397 -4.0323477
7.9977684 -6.1613345 -2.7051768
10.337317 -7.9694319 -3.0134444
12.527205 -9.6611853 -3.075078
15.747542 -12.153531 -3.1505907
21.317923 -16.464479 -3.3072903
36.390385 -28.115541 -4.0232835
7.2802401 -5.649168 -2.4691339
10.317133 -8.0114441 -3.0156939
12.490304 -9.702446 -3.0743148
15.720619 -12.220551 -3.1537194
21.27599 -16.55098 -3.3097279
36.247997 -28.208136 -4.0184026
7.2604766 -5.6745467 -2.4691339
10.29064 -8.0486088 -3.0161438
12.465636 -9.7532454 -3.0766044
15.693418 -12.287528 -3.1568477
21.227463 -16.632494 -3.3111904
36.19635 -28.371365 -4.0236316
7.9419174 -6.2519174 -2.7082827
10.262482 -8.0844812 -3.0161438
12.429976 -9.7954845 -3.0762229
15.638024 -12.33245 -3.154345
21.184856 -16.718786 -3.3136277
36.081459 -28.485195 -4.0218887
7.9109635 -6.2724004 -2.7051768
10.228092 -8.1154099 -3.0143442
12.409546 -9.8497972 -3.0796576
15.604159 -12.394332 -3.1562221
21.12326 -16.790163 -3.3131402
35.903835 -28.548967 -4.0131731
7.9010963 -6.3096204 -2.7093179
10.201224 -8.1522789 -3.0147939
12.368953 -9.8881512 -3.0781307
15.570056 -12.456131 -3.1580994
21.049025 -16.851389 -3.3107028
35.70443 -28.594414 -4.0020175
7.8925719 -6.3480582 -2.7139766
10.180296 -8.1939478 -3.0170436
12.328245 -9.926342 -3.0766044
15.541862 -12.522798 -3.1612279
21.024075 -16.952173 -3.3160651
35.585789 -28.703859 -3.9999254
7.8658614 -6.371922 -2.7124238
10.154659 -8.2318878 -3.0179434
12.299619 -9.9742622 -3.0781307
15.504191 -12.581951 -3.1624796
21.001755 -17.055494 -3.3219149
35.547234 -28.878151 -4.0068979
7.8046522 -6.3675876 -2.6989651
10.119825 -8.2623549 -3.0161438
12.267771 -10.019619 -3.0788944
15.450999 -12.628493 -3.1606023
20.948236 -17.133724 -3.3228898
35.366032 -28.936455 -3.997834
7.7973037 -6.4070573 -2.7041416
10.089417 -8.2963915 -3.0156939
12.234236 -10.063626 -3.0792756
15.415976 -12.689884 -3.1624796
20.888302 -17.206743 -3.3228898
35.286335 -29.077467 -4.0002742
7.8031688 -6.4576373 -2.7139766
10.064898 -8.3352871 -3.0170436
12.191473 -10.100008 -3.0773675
15.380709 -12.751182 -3.1643567
20.825056 -17.277018 -3.3224022
35.135559 -29.159744 -3.9946964
7.7612891 -6.4687562 -2.7072473
10.032749 -8.3678741 -3.0161438
12.160666 -10.146276 -3.0785124
15.3634 -12.827583 -3.1699886
20.773764 -17.357243 -3.3238649
35.042728 -29.289877 -3.9957421
7.7800922 -6.5305862 -2.7217412
10.018399 -8.4153786 -3.0206428
12.126678 -10.189927 -3.0788944
15.306435 -12.870961 -3.1674855
20.749498 -17.460323 -3.3297143
34.876255 -29.358133 -3.988421
7.64955 -6.4666595 -2.6839538
9.9844999 -8.4465218 -3.0192931
12.100027 -10.239803 -3.0811839
15.255384 -12.919207 -3.166234
20.688425 -17.532648 -3.3297143
34.639828 -29.366322 -3.9730816
7.5018983 -6.3868747 -2.6399543
9.9475374 -8.4750042 -3.0170436
12.067198 -10.284526 -3.0819471
15.219212 -12.980069 -3.1681111
20.633139 -17.609913 -3.3306894
34.494682 -29.450829 -3.9682009
7.6863465 -6.5903234 -2.7129414
9.9178944 -8.509675 -3.0170436
12.034204 -10.329143 -3.0827103
15.16482 -13.025393 -3.166234
20.565521 -17.676651 -3.3297143
34.409798 -29.586645 -3.9702926
7.5872617 -6.5514598 -2.6860242
9.8925533 -8.5480652 -3.018393
11.989163 -10.363383 -3.0804207
15.149139 -13.104096 -3.1724913
20.524706 -17.76652 -3.3331268
34.456928 -29.837006 -3.9877238
7.5512276 -6.5664959 -2.6813655
9.874445 -8.589777 -3.0215428
11.964761 -10.415483 -3.0834734
15.096663 -13.146477 -3.1706142
20.444723 -17.816227 -3.3297143
34.229439 -29.849726 -3.9734304
7.6311593 -6.6805754 -2.7176001
9.8414688 -8.621623 -3.0206428
11.925728 -10.45122 -3.0823288
15.047712 -13.196489 -3.1699886
20.412251 -17.913673 -3.3345892
34.16021 -29.989355 -3.9769163
7.5469308 -6.6535134 -2.6958592
9.7981625 -8.6443214 -3.0165937
11.890645 -10.494084 -3.0827103
15.0134 -13.259396 -3.1724913
20.349596 -17.984816 -3.3345892
34.040394 -30.095215 -3.9751732
8.4843416 -7.5327506 -3.0400887
9.7752113 -8.6849432 -3.0188432
11.859813 -10.540743 -3.0842369
14.984737 -13.327475 -3.1762457
20.286694 -18.055737 -3.3345892
33.839897 -30.129065 -3.9640174
8.4608765 -7.5648966 -3.0411241
9.7564545 -8.7294073 -3.0224423
11.817094 -10.576839 -3.0827103
14.929296 -13.371792 -3.1743686
20.253107 -18.152941 -3.3394639
33.728588 -30.241684 -3.9633203
7.5658522 -6.812324 -2.727953
9.7317142 -8.7686281 -3.0242419
11.783018 -10.620653 -3.0834734
14.888396 -13.429116 -3.1756201
20.199934 -18.232838 -3.3411701
33.551838 -30.295141 -3.9549532
7.4905066 -6.791976 -2.7093179
9.6952753 -8.797307 -3.0224423
11.754595 -10.669637 -3.0857632
14.832654 -13.473035 -3.1737428
20.139103 -18.305908 -3.3416579
33.434093 -30.401354 -3.9535589
8.3883276 -7.6595945 -3.0437119
9.6645069 -8.8310957 -3.0224423
11.725974 -10.71855 -3.0880527
14.797195 -13.535396 -3.1762457
20.107298 -18.405582 -3.3470199
33.460014 -30.638971 -3.9692469
8.34163 -7.6705222 -3.0364652
9.6379232 -8.8687353 -3.023792
11.688489 -10.759415 -3.0880527
14.752765 -13.58964 -3.1768715
20.045845 -18.478348 -3.3475072
33.308914 -30.715065 -3.9640174
9.6154842 -8.9102726 -3.0264914
11.656619 -10.80549 -3.0895796
14.696549 -13.632994 -3.1749945
19.987041 -18.553612 -3.3484824
33.186901 -30.817585 -3.9622743
7.3723397 -6.8748178 -2.7010357
9.5800486 -8.9397936 -3.025142
11.61309 -10.840754 -3.0880527
14.663306 -13.697697 -3.1781232
19.948257 -18.647667 -3.3528695
33.087856 -30.941408 -3.9633203
8.2523994 -7.7495193 -3.0333593
9.5558853 -8.9798508 -3.0273912
11.580899 -10.886604 -3.0895796
14.621159 -13.754212 -3.1793745
19.891716 -18.725351 -3.3543322
32.883919 -30.966572 -3.9518156
8.2182808 -7.7716413 -3.0307713
9.5145731 -9.0037766 -3.0242419
11.554233 -10.93776 -3.0926323
14.561584 -13.794297 -3.1768715
19.808945 -18.778282 -3.3514073
32.738033 -31.045523 -3.9472835
8.1813087 -7.7909541 -3.0271475
9.4929609 -9.0463448 -3.0273912
11.51172 -10.973962 -3.0914876
14.519064 -13.850497 -3.1781232
19.749018 -18.852798 -3.3523822
32.710155 -31.236666 -3.9570448
8.1345434 -7.800746 -3.0199006
9.4627314 -9.0807762 -3.0278413
11.473344 -11.014078 -3.0914876
14.482023 -13.912041 -3.1806259
19.700264 -18.938128 -3.3553071
32.592304 -31.342369 -3.9559991
8.1044846 -7.8264103 -3.0188653
9.428174 -9.111043 -3.0269413
11.433416 -11.052696 -3.0911059
14.424855 -13.954268 -3.1787488
19.639742 -19.012302 -3.356282
32.494152 -31.467035 -3.9573936
8.0785007 -7.855999 -3.019383
9.4032965 -9.1506939 -3.0291908
11.406019 -11.103496 -3.0941589
14.384547 -14.012805 -3.1806259
19.573256 -19.080744 -3.356282
32.395523 -31.591396 -3.9587879
8.0496492 -7.8827982 -3.0188653
9.3699055 -9.1820974 -3.0287411
11.367191 -11.143242 -3.0941589
14.332726 -14.060164 -3.1800003
19.534864 -19.176762 -3.3611569
32.265148 -31.684742 -3.9563477
8.0207081 -7.9094925 -3.0183477
9.335022 -9.2120123 -3.0278413
11.326828 -11.181472 -3.0937772
14.283559 -14.110109 -3.1800003
19.464983 -19.242043 -3.3606694
32.137352 -31.780365 -3.9542561
7.9875669 -7.9319963 -3.0162773
9.3055744 -9.2472878 -3.0287411
11.280766 -11.214023 -3.0918691
14.234219 -14.159883 -3.1800003
19.43709 -19.349085 -3.3674941
31.969753 -31.836115 -3.9472835
7.9489021 -7.9489021 -3.0121362
9.284502 -9.2877426 -3.0318904
11.252653 -11.264443 -3.0949221
14.215101 -14.234961 -3.1862574
19.350382 -19.390949 -3.3635941
31.883755 -31.972912 -3.9504213
7.9238601 -7.9765882 -3.0126538
9.2451601 -9.31318 -3.0296407
11.216619 -11.303089 -3.0953035
14.151417 -14.270469 -3.1831291
19.304935 -19.48094 -3.3674941
31.79158 -32.103832 -3.9528615
9.212594 -9.3453951 -3.0296407
11.17236 -11.341327 -3.0945404
14.104559 -14.327872 -3.1843803
19.236816 -19.548208 -3.3674941
31.640205 -32.174831 -3.9479806
7.8692822 -8.0358458 -3.0136893
9.1810064 -9.3818846 -3.0305407
11.132705 -11.380257 -3.0945404
14.043413 -14.365716 -3.1818774
19.18511 -19.632275 -3.370419
31.477589 -32.233768 -3.9417055
33.318741 -34.154903 -0.83286375
7.8479791 -8.0674362 -3.0157597
9.1579943 -9.420661 -3.0332398
11.09764 -11.419928 -3.0953035
14.001202 -14.417878 -3.1831291
19.155853 -19.732819 -3.3767562
31.331682 -32.297932 -3.9368248
7.7997041 -8.0711899 -3.0074775
9.1307659 -9.455184 -3.0345898
11.070619 -11.467966 -3.0983567
13.947827 -14.458539 -3.1818774
19.078588 -19.790991 -3.3752935
31.218752 -32.407101 -3.9368248
32.978191 -34.245476 -2.4916105
32.952374 -34.242584 -0.82951289
9.0842161 -9.4729338 -3.0300906
11.027154 -11.507046 -3.0979748
13.88108 -14.495299 -3.1787488
19.00939 -19.857466 -3.3752935
31.044836 -32.45253 -3.9291551
7.7470784 -8.132391 -3.0095479
9.057498 -9.5146341 -3.0327899
10.993687 -11.55258 -3.0998831
13.830397 -14.543665 -3.1787488
18.922806 -19.912617 -3.3728561
30.849035 -32.47403 -3.9186964
7.7252822 -8.1664009 -3.0121362
9.021553 -9.5433607 -3.0318904
10.949249 -11.586604 -3.0987384
13.793107 -14.606213 -3.1818774
18.880432 -20.007423 -3.3777311
30.743694 -32.59021 -3.9197423
7.6821799 -8.1778288 -3.0064421
8.9921856 -9.5790548 -3.0332398
10.908737 -11.624754 -3.0987384
13.750146 -14.662918 -3.1837547
18.81319 -20.076105 -3.3782184
30.602507 -32.668247 -3.916256
7.6404095 -8.1904688 -3.0012658
8.9626808 -9.6146622 -3.0345898
10.868093 -11.662762 -3.0987384
13.693495 -14.705044 -3.1825032
18.77816 -20.179434 -3.3845556
30.398722 -32.678589 -3.9047515
7.6143975 -8.219923 -3.002301
8.9277411 -9.6444588 -3.0341399
10.839317 -11.713596 -3.1021729
13.650127 -14.761454 -3.1843803
18.702217 -20.239027 -3.3835807
30.222275 -32.717178 -3.8967333
37.108406 -40.199905 -2.8671734
7.586966 -8.2478743 -3.0028186
8.8891153 -9.6668386 -3.0318904
10.79969 -11.752806 -3.1025543
13.598428 -14.803729 -3.1837547
18.661846 -20.330183 -3.3884554
30.09981 -32.813663 -3.8956873
36.950592 -40.296246 -2.8652892
7.5608768 -8.2744141 -3.0033362
8.8566313 -9.6992474 -3.0323403
10.760656 -11.788554 -3.1025543
13.549335 -14.854025 -3.1843803
18.609488 -20.415739 -3.3918679
29.966671 -32.886791 -3.8925498
36.847359 -40.466331 -2.8682199
7.5267558 -8.2950335 -3.0012658
8.8279562 -9.7358799 -3.0341399
10.706258 -11.811499 -3.0987384
13.505359 -14.910014 -3.1862574
18.56209 -20.507069 -3.3962553
29.76614 -32.896641 -3.8813937
36.743389 -40.636189 -2.871151
7.4951682 -8.3183861 -3.0002306
8.7952213 -9.7680836 -3.0345898
10.675469 -11.860472 -3.1017911
13.46644 -14.971753 -3.1893861
18.501009 -20.583546 -3.398205
29.645367 -33.00552 -3.8813937
7.4633412 -8.3443613 -2.9997127
8.7623701 -9.8001776 -3.0350397
10.637158 -11.905375 -3.1033175
13.385164 -14.99154 -3.1831291
18.413185 -20.63023 -3.3952801
29.495495 -33.070145 -3.8768616
7.4354515 -8.3718071 -3.0002306
8.7212172 -9.8263969 -3.0332398
10.60075 -11.948308 -3.1048443
13.366823 -15.076602 -3.1912637
18.386156 -20.752554 -3.4042985
29.297983 -33.080425 -3.8660543
36.621067 -41.378033 -2.8958533
36.742691 -41.544662 -0.96808499
7.4049048 -8.3962622 -2.9997127
8.6881523 -9.858243 -3.03369
10.55119 -11.976399 -3.1025543
13.319336 -15.129101 -3.1925149
18.282133 -20.780838 -3.3984489
29.198122 -33.200447 -3.8681462
36.945805 -42.069332 -0.97729981
7.3730063 -8.4191513 -2.9986775
8.6588221 -9.8943748 -3.0354896
10.509319 -12.013158 -3.1025543
13.253444 -15.160628 -3.1893861
18.278435 -20.916088 -3.4106357
29.03487 -33.248135 -3.8618708
7.338707 -8.4362679 -2.9960892
8.62852 -9.9259758 -3.0363894
10.474577 -12.05387 -3.1040812
13.200505 -15.201511 -3.1887605
18.221985 -20.991573 -3.4130731
28.981903 -33.410461 -3.8695407
36.193047 -41.752934 -2.8958533
35.296192 -40.732674 -0.9407894
7.3144803 -8.464942 -2.9976423
8.5981045 -9.9574852 -3.0372891
10.434546 -12.088539 -3.1040812
13.147444 -15.24221 -3.1881349
18.180794 -21.084961 -3.4184353
28.824123 -33.452045 -3.8632653
37.162109 -43.159206 -2.9848244
35.116573 -40.797966 -0.93960267
7.2813363 -8.4832878 -2.9955716
8.5599623 -9.9800253 -3.0354896
10.407181 -12.137979 -3.107897
13.101967 -15.291727 -3.1893861
18.082365 -21.111965 -3.4130731
28.681946 -33.51112 -3.859082
35.699841 -41.740101 -2.8784781
7.2614708 -8.5231533 -3.0002306
8.5271149 -10.015784 -3.0368392
10.365169 -12.179031 -3.1086605
13.058629 -15.354692 -3.1925149
17.95746 -21.129812 -3.4047861
28.540869 -33.594757 -3.8566418
35.502666 -41.818901 -2.8749189
34.73835 -40.947567 -0.93729895
8.4908438 -10.044 -3.0363894
10.308653 -12.198643 -3.1044624
13.0075 -15.403201 -3.1931407
17.847746 -21.149889 -3.3979614
28.36433 -33.624126 -3.848623
34.574593 -41.044106 -0.93674052
7.1881232 -8.5573673 -2.9945364
8.4569845 -10.075069 -3.0368392
10.267272 -12.236057 -3.1048443
12.946039 -15.43943 -3.1912637
17.768711 -21.205971 -3.3969862
28.241671 -33.716824 -3.8479259
7.1631584 -8.5883408 -2.9966071
8.4230127 -10.106027 -3.0372891
10.238319 -12.288414 -3.1090419
12.889539 -15.481489 -3.1906378
17.699659 -21.273973 -3.3979614
28.085588 -33.769245 -3.8426969
7.1355996 -8.6162691 -2.9976423
8.3851995 -10.132364 -3.0363894
10.187856 -12.315001 -3.1067524
12.837936 -15.529433 -3.1912637
17.610121 -21.317261 -3.3950365
27.977688 -33.879368 -3.8440912
7.1103883 -8.6470928 -2.9997127
8.3497801 -10.161572 -3.0363894
10.146051 -12.352005 -3.1071339
12.793676 -15.586367 -3.1937664
17.545673 -21.390879 -3.3969862
27.828939 -33.939846 -3.8399076
7.0716081 -8.6613855 -2.9960892
8.3228827 -10.201226 -3.0395386
10.100391 -12.384303 -3.1063707
12.741687 -15.63399 -3.194392
17.468391 -21.448919 -3.3964989
27.632305 -33.940979 -3.8291004
7.0401149 -8.684515 -2.9955716
8.2909021 -10.234758 -3.0408883
10.063278 -12.427114 -3.1082788
12.689523 -15.681444 -3.1950181
17.393415 -21.509762 -3.3964989
27.47859 -33.993843 -3.8242197
7.013392 -8.7135525 -2.9971247
8.2526827 -10.260599 -3.0399885
10.016434 -12.462383 -3.107897
12.632232 -15.722563 -3.194392
17.338108 -21.595112 -3.4003985
27.318903 -34.050819 -3.8193388
6.9862309 -8.7452364 -2.9991951
8.2101574 -10.284686 -3.0381889
9.9731388 -12.502081 -3.1086605
12.594228 -15.793469 -3.199398
17.271214 -21.674042 -3.4028361
27.174059 -34.125778 -3.8165498
6.9553308 -8.7722979 -2.9997127
8.1724062 -10.314709 -3.0381889
9.9294376 -12.536819 -3.1086605
12.526449 -15.827132 -3.1968951
17.181807 -21.724741 -3.4008863
27.039942 -34.201672 -3.8144581
6.9174981 -8.7874155 -2.9966071
8.1447868 -10.353894 -3.0413382
9.8904686 -12.577576 -3.1101868
12.473568 -15.873867 -3.1975207
17.08135 -21.753361 -3.3960114
26.78261 -34.120323 -3.7949355
6.8951101 -8.8221626 -3.0002306
8.1073952 -10.380727 -3.0408883
9.8489199 -12.615118 -3.11095
12.415651 -15.914196 -3.1968951
17.004236 -21.803621 -3.3950365
26.709887 -34.273323 -3.8015592
6.8610773 -8.8388758 -2.9981599
8.0717335 -10.406014 -3.0404384
9.8034239 -12.643054 -3.1098051
12.37249 -15.967772 -3.199398
16.934271 -21.863029 -3.395524
26.632669 -34.40897 -3.8067884
6.8317294 -8.861578 -2.9981599
8.0336123 -10.428093 -3.0390887
9.7652197 -12.684976 -3.1117132
12.31465 -16.002449 -3.1981466
16.86269 -21.928303 -3.3964989
26.471121 -34.448013 -3.8008618
6.8027258 -8.8911619 -2.9997127
7.9929705 -10.45437 -3.0381889
9.7079344 -12.706641 -3.1082788
12.267905 -16.063177 -3.2012753
16.741261 -21.936306 -3.388212
26.315687 -34.506779 -3.7966783
6.767756 -8.9129572 -2.9986775
7.959312 -10.489806 -3.0399885
9.6741982 -12.75453 -3.1117132
12.21372 -16.11433 -3.2025266
16.636776 -21.96587 -3.383337
26.15659 -34.547596 -3.7911003
6.7366028 -8.9365273 -2.9986775
7.930346 -10.523925 -3.042238
9.6272564 -12.785083 -3.11095
12.169722 -16.16737 -3.2050297
16.571003 -22.030437 -3.3847995
26.014288 -34.610023 -3.7879629
6.7092462 -8.9619112 -2.9997127
7.8923955 -10.549982 -3.0417881
9.5859833 -12.818511 -3.1113317
12.087197 -16.17494 -3.1981466
16.494001 -22.088146 -3.3847995
25.866005 -34.651394 -3.783082
6.6733131 -8.9790735 -2.9976423
7.8550425 -10.572968 -3.0408883
9.5458603 -12.8582 -3.1128583
12.045266 -16.230797 -3.2012753
16.397015 -22.11083 -3.3799245
25.728283 -34.719063 -3.7806418
36.088539 -48.753059 -1.0587677
6.6538253 -9.0151424 -3.002301
7.8180885 -10.600323 -3.0408883
9.5043335 -12.891364 -3.1132395
11.99791 -16.285469 -3.2037783
16.315027 -22.161539 -3.3789496
25.624821 -34.820236 -3.7823849
6.6211743 -9.0367565 -3.0017834
7.7844915 -10.632264 -3.042238
9.4523191 -12.914955 -3.11095
11.931661 -16.314491 -3.2012753
16.258652 -22.247202 -3.383337
25.418497 -34.793636 -3.7698343
35.664806 -48.890724 -1.0563244
6.5907264 -9.0613747 -3.002301
7.748477 -10.66095 -3.0426881
9.4117947 -12.954225 -3.1124763
11.895531 -16.384817 -3.206907
16.169239 -22.287748 -3.3808994
25.308586 -34.898281 -3.7715776
35.606522 -49.170406 -1.0596752
6.5613174 -9.0874577 -3.0033362
7.7134962 -10.691092 -3.0435877
9.3711147 -12.993369 -3.1140032
11.817474 -16.397392 -3.2012753
16.109903 -22.369831 -3.3847995
25.174973 -34.970242 -3.7698343
35.462677 -49.333363 -1.0605129
6.5295563 -9.1103058 -3.0033362
7.6749964 -10.716369 -3.0431378
9.3211288 -13.019615 -3.1124763
11.764762 -16.444969 -3.2025266
16.022484 -22.41301 -3.3828495
25.022635 -35.015762 -3.7653024
6.4999552 -9.1361923 -3.0043716
7.6371579 -10.738584 -3.042238
9.2778997 -13.055274 -3.1132395
11.719316 -16.496777 -3.2050297
15.954966 -22.475731 -3.3843119
24.884117 -35.080143 -3.7628622
6.4707389 -9.1592741 -3.0048892
7.6041226 -10.771545 -3.0440376
9.2311602 -13.081156 -3.1120949
11.66166 -16.537582 -3.2050297
15.86498 -22.51506 -3.3818746
24.694983 -35.0723 -3.7527518
6.4326892 -9.1766014 -3.0028186
7.5675941 -10.79962 -3.0444875
9.1842794 -13.11651 -3.1124763
11.596439 -16.573742 -3.2037783
15.779465 -22.560541 -3.3804121
24.535881 -35.106033 -3.747174
34.527287 -49.456902 -1.0528339
6.4028244 -9.2021713 -3.003854
7.5257368 -10.824083 -3.0435877
9.1485224 -13.162998 -3.115911
11.538516 -16.614119 -3.2037783
15.714778 -22.644318 -3.3843119
24.4184 -35.212097 -3.7489171
6.370151 -9.2271662 -3.0043716
7.4890137 -10.851892 -3.0440376
9.0924149 -13.185128 -3.1132395
11.473059 -16.64979 -3.2025266
15.613117 -22.66634 -3.3794372
24.28178 -35.277424 -3.7468252
34.161171 -49.686222 -1.0524849
6.3433633 -9.2573147 -3.0069599
7.4491897 -10.879267 -3.0440376
9.0485525 -13.220028 -3.1140032
11.432714 -16.715826 -3.2075326
15.527697 -22.720135 -3.3789496
24.147253 -35.345516 -3.7450821
34.253788 -50.214172 -1.0610017
6.304492 -9.2698164 -3.003854
7.4067874 -10.898755 -3.042238
9.0034552 -13.253156 -3.1143847
11.367639 -16.745825 -3.2056553
15.461666 -22.793911 -3.3818746
24.061745 -35.485661 -3.7510087
33.923588 -50.104919 -1.0561848
6.2720962 -9.2917662 -3.003854
7.375236 -10.934237 -3.0449374
8.9527464 -13.277992 -3.1128583
11.298077 -16.76902 -3.2025266
15.382006 -22.847744 -3.3818746
23.89991 -35.513233 -3.7450821
33.922352 -50.462761 -1.0613507
6.2406983 -9.3152084 -3.0043716
7.3400211 -10.960255 -3.0453875
8.9161701 -13.323845 -3.1162927
11.233622 -16.793261 -3.2000239
15.310569 -22.905228 -3.3828495
23.828917 -35.675972 -3.7534492
36.840157 -55.218594 -1.1586652
6.2097735 -9.3358517 -3.0043716
7.2952456 -10.976071 -3.0426881
8.8751984 -13.358246 -3.1174376
11.183673 -16.845535 -3.2025266
15.215158 -22.935373 -3.3794372
23.703873 -35.744831 -3.7524033
6.1771479 -9.3574715 -3.0043716
7.264174 -11.008335 -3.0449374
8.824192 -13.382588 -3.115911
11.132099 -16.88913 -3.2037783
15.128098 -22.969124 -3.3769999
23.570192 -35.814041 -3.7510087
6.1429062 -9.3730564 -3.0028186
7.2267718 -11.035255 -3.0453875
8.7797642 -13.411777 -3.115911
11.064427 -16.914658 -3.2012753
15.069551 -23.055023 -3.3818746
23.398989 -35.811947 -3.7426417
6.1122575 -9.3976822 -3.003854
7.1892691 -11.062048 -3.0458374
8.7296877 -13.437404 -3.1147664
11.009618 -16.959803 -3.2025266
14.98682 -23.104156 -3.3813872
23.293352 -35.923492 -3.7457793
6.081512 -9.4222059 -3.0048892
7.15378 -11.091989 -3.0471869
8.6859198 -13.472743 -3.115911
10.950349 -16.998131 -3.2025266
14.912529 -23.166344 -3.3828495
23.131161 -35.94762 -3.7398529
6.0517101 -9.4482584 -3.0064421
7.1118674 -11.111968 -3.0458374
8.6420107 -13.507942 -3.1170559
10.895205 -17.04291 -3.2037783
14.818747 -23.198181 -3.3799245
23.007679 -36.031502 -3.7402015
6.0207663 -9.4725847 -3.0074775
7.0709467 -11.133435 -3.0449374
8.5895462 -13.529737 -3.1151478
10.831413 -17.074163 -3.2025266
14.756813 -23.279945 -3.3843119
22.798588 -35.980328 -3.7266052
5.983541 -9.4870071 -3.0054069
7.0361962 -11.164645 -3.0467372
8.5464525 -13.566284 -3.1166744
10.778064 -17.121901 -3.2044039
14.64798 -23.287626 -3.3779747
22.698305 -36.10017 -3.7307887
5.9493637 -9.5061989 -3.0048892
6.9992476 -11.192442 -3.0476367
8.5063295 -13.607687 -3.1193457
10.72451 -17.16947 -3.2062812
14.578164 -23.357141 -3.380656
22.542629 -36.131851 -3.725908
5.9212413 -9.5351143 -3.0074775
6.9591079 -11.21515 -3.0471869
8.4546375 -13.630623 -3.1178191
10.64578 -17.176579 -3.2006495
14.496542 -23.407885 -3.380656
22.426853 -36.227257 -3.7276509
5.8818407 -9.5458565 -3.0043716
6.9168534 -11.234395 -3.0458374
8.4059801 -13.658381 -3.1174376
10.596106 -17.230463 -3.2037783
14.416821 -23.461727 -3.3811433
22.233521 -36.196667 -3.716495
5.8555369 -9.5778675 -3.0079951
6.8806434 -11.26346 -3.0471869
8.3572283 -13.685965 -3.1170559
10.542068 -17.27746 -3.2056553
14.320374 -23.48818 -3.3777311
22.055189 -36.188992 -3.7077796
5.8150549 -9.5866861 -3.0043716
6.8412843 -11.287409 -3.0471869
8.3073692 -13.711695 -3.1162927
10.481695 -17.314154 -3.2056553
14.246516 -23.551613 -3.3796811
22.005016 -36.391922 -3.7206786
5.7785683 -9.6019602 -3.0028186
6.802846 -11.312891 -3.0476367
8.2614784 -13.743976 -3.1170559
10.421193 -17.350637 -3.2056553
14.156046 -23.587582 -3.3777311
21.836859 -36.400169 -3.713706
5.7549191 -9.6386595 -3.0079951
6.7663107 -11.34159 -3.0489867
8.2204924 -13.784532 -3.1197271
10.350451 -17.369938 -3.2025266
14.08784 -23.66073 -3.3811433
21.728006 -36.506992 -3.7168438
5.7212391 -9.6586895 -3.0079951
6.7187405 -11.351724 -3.0453875
8.1683264 -13.806384 -3.1182008
10.293777 -17.412767 -3.2037783
13.995067 -23.692671 -3.378706
21.576128 -36.541439 -3.7126603
5.6806369 -9.6669426 -3.0043716
6.6830211 -11.381828 -3.0471869
8.1240578 -13.841585 -3.1197271
10.236933 -17.455406 -3.2050297
13.908267 -23.734528 -3.3777311
21.432331 -36.589024 -3.7098713
5.6371298 -9.670023 -2.9991951
6.6452398 -11.403928 -3.0471869
8.066802 -13.854589 -3.1162927
10.175016 -17.48243 -3.2037783
13.839463 -23.79768 -3.3801684
21.296474 -36.649834 -3.7084768
5.6030974 -9.6853189 -2.9981599
6.6083193 -11.432117 -3.0485368
8.027689 -13.893166 -3.118964
10.12183 -17.531527 -3.2062812
13.754324 -23.842405 -3.3796811
21.178802 -36.727158 -3.7091742
5.56637 -9.6997919 -2.9966071
6.565465 -11.450042 -3.0471869
7.9791451 -13.921102 -3.118964
10.060574 -17.56675 -3.2062812
