# .PCD v0.7 - Point Cloud Data file format
VERSION 0.7
FIELDS x y z
SIZE 4 4 4
TYPE F F F
COUNT 1 1 1
WIDTH 1438
HEIGHT 1
VIEWPOINT 0 0 0 1 0 0 0
POINTS 1438
DATA ascii
-4.1456103 -6.430263 0.66935611
-4.1348786 -6.4111605 -1.2083
-4.1380444 -6.4136105 0.93717533
-4.1273217 -6.3945417 -0.9344942
-4.1144333 -6.3721323 -0.66360378
-4.1202149 -6.3762012 -0.39785796
-4.1231256 -6.3758225 -0.13253358
-4.1716099 -6.4310889 -2.053988
-4.1679692 -6.4230165 0.13365053
-4.1466804 -6.3877678 -1.7582175
-4.1781478 -6.4362426 0.40214953
-4.1401944 -6.37534 -1.4776249
-4.1853976 -6.4424853 0.67214507
-4.1400094 -6.3701863 -1.203294
-4.1344652 -6.3567982 -0.93108183
-4.1475167 -6.3744316 -0.66534692
-4.159884 -6.3885598 -0.39953274
-4.1529775 -6.3755193 -0.13281281
-4.1813512 -6.3970819 -2.0477762
-4.2220683 -6.4593749 0.13469768
-4.16784 -6.3739815 -1.7582175
-4.1548982 -6.349349 -1.4749537
-4.1611114 -6.3564224 -1.203294
-4.1794553 -6.3795843 -0.9364441
-4.1806669 -6.3765774 -0.66709006
-4.1963816 -6.3981109 -0.40099812
-4.2169042 -6.42451 -0.1341392
-4.1834207 -6.3541369 -2.0384588
-34.408775 -52.243164 1.0919273
-4.1857738 -6.3528862 -1.7564179
-4.2007809 -6.3732381 -1.4837308
-4.2072034 -6.3781357 -1.2101772
-4.2191963 -6.3914623 -0.94034398
-4.2138824 -6.3785691 -0.66883314
-21.073629 -31.887125 -2.0031066
-4.2152262 -6.3516393 -2.0425999
-34.681602 -52.259365 1.0947895
-4.2230144 -6.3609657 -1.7627165
-4.2328033 -6.3708801 -1.4867837
-4.2305508 -6.3626733 -1.2101772
-12.306672 -18.502003 -2.728411
-16.892593 -25.377335 -2.66714
-21.265657 -31.922707 -2.0102243
-4.2298546 -6.3256454 -2.0389764
-34.955185 -52.254894 1.0973724
-4.2593074 -6.3648787 -1.7681153
-4.2790422 -6.3919587 -1.4951794
-4.2791238 -6.3872533 -1.2176861
-12.356711 -18.430395 -2.7245111
-16.97662 -25.302011 -2.6657455
-21.470451 -31.987583 -2.0190167
-4.2346559 -6.2828665 -2.0301766
-35.255848 -52.308331 1.1010723
-6.8079076 -10.096941 -2.8114381
-4.3024411 -6.3762321 -1.4951794
-4.2958713 -6.3617048 -1.2158087
-12.409863 -18.370697 -2.7220738
-17.073763 -25.255802 -2.66714
-21.706179 -32.084023 -2.0301118
-4.2424417 -6.2519479 -2.0244827
-35.541431 -52.356579 1.1045629
-6.846827 -10.08237 -2.8136878
-12.477411 -18.339294 -2.7235363
-17.146292 -25.19216 -2.6660941
-21.901314 -32.154331 -2.0389042
-4.2751422 -6.2530479 -2.029659
-35.809769 -52.357639 1.1072155
-6.8907828 -10.071275 -2.817287
-4.3390913 -6.3394566 -1.4932712
-12.539106 -18.292353 -2.7230489
-17.218349 -25.10915 -2.6636539
-22.115129 -32.225895 -2.0483248
-4.304615 -6.2492232 -2.0332825
-36.105778 -52.39698 1.1107061
-6.9148369 -10.031116 -2.812788
-4.377912 -6.3485146 -1.4989955
-4.3723917 -6.3357763 -1.2192503
-12.591603 -18.232138 -2.7206116
-17.262857 -24.986603 -2.6570299
-22.331987 -32.299644 -2.0579548
-6.0347128 -8.6957655 -2.8361392
-36.39566 -52.425037 1.1139871
-6.947587 -10.003716 -2.8118882
-8.2052794 -11.810246 -2.795352
-4.4159064 -6.3512912 -1.2251948
-12.648365 -18.178295 -2.7191489
-17.347698 -24.922922 -2.6566813
-22.542774 -32.362438 -2.0669565
-6.0672464 -8.6778126 -2.8371747
-36.704498 -52.477936 1.1178267
-6.9824624 -9.9794054 -2.8118882
-4.4491453 -6.3563981 -1.5081544
-4.4539146 -6.3584905 -1.229575
-12.69579 -18.111277 -2.7157366
-17.448317 -24.881786 -2.6587729
-22.754269 -32.424145 -2.0759583
-6.094161 -8.6518431 -2.8356216
-36.991173 -52.516144 1.1212473
-7.0177617 -9.9593821 -2.812788
-8.2784758 -11.739841 -2.792299
-4.47156 -6.3388429 -1.2286365
-12.755776 -18.06908 -2.7157366
-17.546558 -24.837002 -2.660516
-22.990772 -32.531189 -2.0876815
-6.1105237 -8.614255 -2.8299277
-37.280727 -52.536732 1.1244586
-7.052484 -9.934824 -2.812788
-8.3253183 -11.723529 -2.7949703
-12.818776 -18.024439 -2.7157366
-17.587246 -24.720236 -2.6542411
-23.220024 -32.613434 -2.0981486
-6.146172 -8.6007309 -2.8325157
-37.570885 -52.555943 1.1276698
-7.0825863 -9.9038048 -2.8109884
-8.3616219 -11.688009 -2.7934437
-10.130725 -14.150451 -2.7563756
-12.865425 -17.956995 -2.7123244
-17.682709 -24.671652 -2.6556354
-23.440815 -32.681503 -2.1077785
-6.1705136 -8.5713844 -2.8299277
-37.875648 -52.593231 1.1313
-7.1114187 -9.8711166 -2.8087389
-8.400074 -11.655565 -2.7926805
-10.182369 -14.118206 -2.7570014
-12.914088 -17.89266 -2.7093995
-17.757059 -24.593624 -2.6538923
-23.674065 -32.764606 -2.1184549
-6.2049327 -8.5560484 -2.8319981
-38.171726 -52.616081 1.1346507
-7.1378198 -9.8351917 -2.8055894
-8.4407091 -11.626172 -2.7926805
-10.229267 -14.07938 -2.7563756
-12.964793 -17.831419 -2.7069621
-17.847486 -24.537933 -2.6545897
-23.922285 -32.865852 -2.1303875
-6.248435 -8.5530577 -2.8382099
-38.484951 -52.660114 1.1384902
-7.1732583 -9.8117895 -2.8060396
-8.4731283 -11.585546 -2.7900093
-10.273685 -14.037211 -2.7551243
-13.029305 -17.789257 -2.7074497
-17.933031 -24.475485 -2.6545897
-24.171497 -32.965767 -2.1423202
-6.2690935 -8.5187454 -2.8340688
-38.78709 -52.686497 1.1419808
-7.2086191 -9.7882586 -2.8064895
-8.5216694 -11.566961 -2.7926805
-10.327311 -14.007624 -2.7563756
-13.072466 -17.718109 -2.7035499
-18.020725 -24.415945 -2.6549382
-24.400337 -33.035419 -2.1523688
-6.2976403 -8.4952602 -2.8335512
-39.099411 -52.724255 1.1457505
-7.2404213 -9.7599058 -2.8055894
-8.5584812 -11.532417 -2.7915359
-10.352588 -13.939771 -2.750118
-13.13897 -17.678741 -2.7045248
-18.096333 -24.340099 -2.6535437
-24.653799 -33.135918 -2.1645107
-6.316854 -8.4592924 -2.8288922
-39.369751 -52.722481 1.1485429
-7.2680793 -9.7296 -2.8037899
-8.6022139 -11.507188 -2.7926805
-10.403489 -13.911691 -2.7513697
-13.197522 -17.635073 -2.7045248
-18.157295 -24.244892 -2.6500576
-24.890486 -33.223419 -2.175606
-6.343709 -8.4367552 -2.8283746
-39.726635 -52.814865 1.1535691
-7.3090277 -9.7135115 -2.8064895
-8.6332397 -11.469189 -2.790391
-10.444853 -13.865827 -2.7494924
-13.256608 -17.585732 -2.7040372
-18.24 -24.187725 -2.6504061
-25.129023 -33.298943 -2.1862824
-6.3707876 -8.4114799 -2.8273394
-40.009773 -52.806564 1.1564313
-7.3405361 -9.6848335 -2.8055894
-8.668478 -11.432726 -2.7888646
-10.500355 -13.838725 -2.7513697
-13.310713 -17.52986 -2.7025747
-18.321905 -24.120737 -2.6500576
-25.385309 -33.395466 -2.1984243
-6.3872209 -8.3722954 -2.8216453
-40.315182 -52.82555 1.1599219
-7.3778462 -9.6637983 -2.8069394
-8.708333 -11.402396 -2.7888646
-10.529406 -13.776876 -2.7463639
-13.37423 -17.486446 -2.7030621
-18.381777 -24.024986 -2.6465712
-25.637709 -33.484268 -2.2101476
-6.4199395 -8.3545446 -2.8231983
-40.66264 -52.896946 1.1645991
-7.4079695 -9.6333504 -2.8055894
-8.7528696 -11.378153 -2.790391
-10.577432 -13.740038 -2.7463639
-13.437613 -17.442802 -2.7035499
-18.463097 -23.95752 -2.6462226
-25.891045 -33.571705 -2.2218709
-6.4490628 -8.3320837 -2.8231983
-41.003742 -52.957066 1.1690669
-7.4224591 -9.5827827 -2.7983911
-8.7901287 -11.344427 -2.7896278
-10.62533 -13.703032 -2.7463639
-13.498419 -17.395788 -2.7035499
-18.541725 -23.886631 -2.6455255
-26.125698 -33.632545 -2.2319195
-6.4804821 -8.3125696 -2.8242335
-41.311329 -52.971302 1.1725575
-7.4654536 -9.5691061 -2.8019903
-8.8224249 -11.30439 -2.787338
-10.665802 -13.656516 -2.7444866
-13.541944 -17.326666 -2.7001374
-18.644627 -23.846874 -2.6483145
-26.626926 -34.031918 -2.2645769
-6.4999166 -8.2777414 -2.8200924
-41.634312 -53.002907 1.1764667
-7.4988108 -9.5429888 -2.8019903
-8.8569803 -11.267348 -2.7858114
-10.718292 -13.625412 -2.745738
-13.597428 -17.273052 -2.6991625
-18.722826 -23.775387 -2.6476171
-26.849396 -34.070541 -2.2733696
-6.5275702 -8.2534876 -2.8195746
-42.010151 -53.098759 1.1818421
-7.5369143 -9.5228672 -2.8037899
-8.8938169 -11.233287 -2.7850482
-10.751068 -13.569336 -2.7419839
-13.657643 -17.225481 -2.6991625
-18.790848 -23.691154 -2.6455255
-27.656061 -34.843266 -2.3313577
-6.5551376 -8.2291412 -2.819057
-42.297447 -53.080025 1.1847043
-7.56039 -9.4843111 -2.8001907
-8.9341993 -11.203708 -2.7854297
-10.800831 -13.534816 -2.7426095
-13.712736 -17.171497 -2.6981876
-18.841091 -23.584948 -2.6409934
-26.729923 -33.436092 -2.2434332
-6.5922852 -8.2167559 -2.8226805
-7.5824695 -9.4441862 -2.7961416
-8.9818621 -11.183166 -2.7881012
-10.845535 -13.493951 -2.7419839
-13.762633 -17.111155 -2.6962376
-18.920807 -23.515932 -2.6406448
-26.813908 -33.302135 -2.2407119
-6.6330695 -8.2087212 -2.827857
-7.6178412 -9.4206915 -2.7970414
-9.0060253 -11.13343 -2.7835217
-10.892572 -13.456011 -2.7419839
-13.804788 -17.041414 -2.6928251
-18.985222 -23.428064 -2.6382043
-26.927467 -33.205238 -2.2405024
-6.6482692 -8.169035 -2.8221629
-7.65027 -9.3968887 -2.7974913
-9.0423527 -11.098882 -2.7827585
-10.939631 -13.422878 -2.7426095
-13.868752 -17.004772 -2.6942878
-19.021534 -23.306086 -2.6319292
-27.057644 -33.140511 -2.2421772
-6.7022591 -8.1798182 -2.8335512
-7.6904364 -9.3791714 -2.8001907
-9.0803537 -11.070353 -2.7831402
-10.968869 -13.363235 -2.7382293
-13.925505 -16.95319 -2.6938002
-19.075949 -23.215168 -2.6287913
-27.269569 -33.163105 -2.2501323
-6.7676587 -8.2010727 -2.8490801
-7.7144451 -9.3417482 -2.7970414
-9.1151915 -11.034048 -2.7819953
-11.007901 -13.315727 -2.736352
-13.977001 -16.895302 -2.6923378
-19.1467 -23.136166 -2.6273971
-27.902372 -33.692245 -2.2926292
-6.8308167 -8.2190008 -2.863574
-7.740777 -9.307272 -2.7947919
-9.1549044 -11.003674 -2.782377
-11.05937 -13.283293 -2.7376034
-14.028274 -16.837257 -2.6908755
-19.237549 -23.08143 -2.6287913
-28.007019 -33.5793 -2.2915823
-6.9065838 -8.2514 -2.8832443
-7.7719655 -9.2787027 -2.794342
-9.1882153 -10.965631 -2.7808504
-11.10567 -13.244607 -2.7376034
-14.081856 -16.782103 -2.6899004
-19.294947 -22.986671 -2.6256537
-28.165169 -33.530273 -2.2949319
-6.9664726 -8.2641678 -2.8961852
-7.8055634 -9.253006 -2.7947919
-9.2163105 -10.921486 -2.7777975
-11.144186 -13.196709 -2.7357264
-14.13779 -16.729813 -2.6894128
-19.357054 -22.897882 -2.6232135
-28.960548 -34.233807 -2.3499892
-7.0040298 -8.2501087 -2.8998086
-7.8403373 -9.228673 -2.7956917
-9.2556486 -10.890743 -2.7781792
-11.185064 -13.151709 -2.7344749
-14.185805 -16.66827 -2.687463
-19.411037 -22.799826 -2.6197271
-29.056549 -34.105148 -2.3481052
-7.0415735 -8.2358885 -2.9034321
-7.8585711 -9.1849585 -2.7907426
-9.2897768 -10.853897 -2.7770343
-11.223198 -13.10358 -2.7325976
-14.251654 -16.627693 -2.6889255
-19.493101 -22.734955 -2.6200759
-29.165022 -33.99139 -2.3472679
-7.0728006 -8.2141857 -2.9044673
-7.8889818 -9.1588516 -2.7907426
-9.3263254 -10.819915 -2.7766528
-11.264009 -13.063298 -2.7319717
-14.29634 -16.568317 -2.6869755
-19.572338 -22.666777 -2.6200759
-29.371584 -34.003311 -2.3548043
-7.1164508 -8.2096634 -2.9111967
-7.9247375 -9.1356716 -2.7920926
-9.3582945 -10.78448 -2.7755077
-11.319899 -13.035835 -2.7344749
-14.322839 -16.482353 -2.6811259
-19.650011 -22.604753 -2.6204245
-30.245153 -34.768539 -2.4150953
-7.1323586 -8.1702204 -2.9060204
-7.9565787 -9.107954 -2.7920926
-9.3997583 -10.756182 -2.7766528
-11.365334 -12.996241 -2.7344749
-14.380287 -16.432255 -2.6811259
-19.713049 -22.518036 -2.6183329
-30.819065 -35.179554 -2.4511025
-7.9934726 -9.0859776 -2.7938921
-9.4294624 -10.714464 -2.774363
-11.405408 -12.950559 -2.7332232
-14.440183 -16.384937 -2.6816134
-19.774403 -22.429659 -2.6160667
-30.939037 -35.068764 -2.4508932
-6.8921289 -7.7846565 -2.7859285
-8.0303068 -9.0638552 -2.7956917
-9.4668093 -10.681482 -2.774363
-11.440056 -12.898848 -2.7307205
-14.484112 -16.319584 -2.6791759
-19.857864 -22.366461 -2.6167641
-6.8884058 -7.7259436 -2.773505
-8.0515175 -9.0241365 -2.7920926
-9.5040369 -10.648372 -2.774363
-11.49291 -12.867673 -2.7325976
-14.540986 -16.268929 -2.6791759
-19.938478 -22.299971 -2.6171126
-6.9088769 -7.6946654 -2.7709167
-8.0699472 -8.9814787 -2.7875934
-9.5424595 -10.616594 -2.7747445
-11.529831 -12.818664 -2.7307205
-14.584406 -16.203316 -2.6767385
-20.016199 -22.230238 -2.6171126
-6.9305124 -7.6647706 -2.7688463
-8.0986319 -8.9503651 -2.7866936
-9.5636492 -10.565753 -2.7701652
-11.571852 -12.775414 -2.7300947
-14.630218 -16.140539 -2.6747887
-20.072258 -22.136621 -2.6143236
-6.9559245 -7.6391029 -2.7683284
-8.148201 -8.9422073 -2.7929924
-9.608408 -10.54101 -2.7724547
-11.605725 -12.723266 -2.7275918
-14.681112 -16.083509 -2.6738136
-20.154779 -22.072306 -2.615021
-31.352346 -34.311153 -2.4358203
-6.9942985 -7.6275902 -2.7729874
-8.1688251 -8.9022236 -2.7893932
-9.6385069 -10.500175 -2.7705467
-11.642052 -12.673949 -2.7257147
-14.729106 -16.023397 -2.6723511
-20.215521 -21.984219 -2.6129291
-7.0287457 -7.6116447 -2.7760932
-8.1956577 -8.8722229 -2.7884934
-9.6857624 -10.477998 -2.7735996
-11.68938 -12.641073 -2.7269659
-14.77407 -15.965721 -2.6708887
-20.294846 -21.916441 -2.6132777
-7.0539484 -7.5882945 -2.7760932
-8.2186117 -8.835001 -2.785794
-9.713769 -10.438636 -2.7716916
-11.728047 -12.594414 -2.7257147
-14.824299 -15.908243 -2.6699138
-20.337519 -21.816963 -2.6094427
-7.0909553 -7.5749078 -2.7802343
-8.2573948 -8.8147917 -2.7884934
-9.7434359 -10.397502 -2.7697835
-11.769238 -12.550512 -2.7250886
-14.877019 -15.853509 -2.6694264
-20.391737 -21.722591 -2.6066539
-7.0974746 -7.529026 -2.7724698
-8.2774181 -8.7745714 -2.784894
-9.7715826 -10.354862 -2.7674937
-11.810263 -12.506479 -2.724463
-14.924086 -15.792825 -2.6679637
-20.451015 -21.633905 -2.604562
-7.1011019 -7.4803863 -2.76367
-8.299943 -8.7371502 -2.7821946
-9.809021 -10.322113 -2.7678754
-11.842956 -12.453731 -2.7219601
-14.976389 -15.737753 -2.6674764
-20.526403 -21.562389 -2.604562
-6.4850702 -6.7838688 -2.5146859
-8.3196135 -8.6968584 -2.7785954
-9.8490648 -10.292066 -2.7690203
-11.880889 -12.406607 -2.7207084
-15.014749 -15.668184 -2.6645515
-20.557425 -21.444582 -2.5989842
-8.3647938 -8.6832027 -2.7835443
-9.8767576 -10.249141 -2.7667305
-11.935095 -12.376435 -2.7232115
-15.052809 -15.598536 -2.6616266
-20.621086 -21.361225 -2.5975897
-6.8590212 -7.0754895 -2.6404719
-8.4520388 -8.7126989 -2.8024402
-9.9097385 -10.211783 -2.7659674
-11.972724 -12.329027 -2.7219601
-15.1044 -15.543049 -2.6611392
-20.664978 -21.257679 -2.593755
-6.8121552 -6.9782376 -2.6130373
-8.5123625 -8.71381 -2.8123381
-9.9425812 -10.174321 -2.7652042
-12.010158 -12.281511 -2.7207084
-15.144677 -15.476048 -2.6587019
-20.725113 -21.171183 -2.5920117
-6.801259 -6.9185987 -2.5995786
-8.5208607 -8.6618147 -2.8051395
-9.9683943 -10.12976 -2.7625327
-12.041869 -12.228254 -2.7182057
-15.198609 -15.423083 -2.6587019
-20.759726 -21.058979 -2.587131
-32.362873 -32.80648 -2.4150953
-6.9245825 -6.995039 -2.6373663
-8.5399399 -8.6238174 -2.8019903
-10.018894 -10.110242 -2.7667305
-12.082354 -12.188254 -2.7182057
-15.238487 -15.361322 -2.6567519
-20.827492 -20.98073 -2.5864336
-6.9122863 -6.9364591 -2.6239076
-8.5796213 -8.6036167 -2.8051395
-10.039887 -10.064452 -2.7632959
-12.122034 -12.143208 -2.7175801
-15.289209 -15.305228 -2.6562645
-20.899773 -20.914366 -2.5867825
-6.9350886 -6.9109244 -2.62339
-8.6316948 -8.5956163 -2.8123381
-10.068001 -10.022419 -2.7613881
-12.155942 -12.092463 -2.7157025
-15.345358 -15.254563 -2.6567519
-20.955685 -20.824434 -2.5846908
-6.9372005 -6.8649302 -2.6151075
-8.6602612 -8.5640631 -2.8118882
-10.105719 -9.9899721 -2.7621512
-12.206511 -12.058287 -2.7175801
-15.378732 -15.181384 -2.6533396
-21.008394 -20.731565 -2.5822504
-6.94872 -6.8284888 -2.6104491
-8.7012281 -8.5447016 -2.8154874
-10.139126 -9.9532633 -2.7617695
-12.23443 -12.001769 -2.7144513
-15.423125 -15.119271 -2.6518769
-21.057871 -20.63579 -2.5794613
-7.0637655 -6.89324 -2.644613
-8.6793785 -8.4639378 -2.798841
-10.170997 -9.9150686 -2.7610061
-12.270587 -11.953478 -2.7131999
-15.458743 -15.048723 -2.6489525
-21.11549 -20.548267 -2.5777183
-7.0933342 -6.8739185 -2.6466837
-8.7410688 -8.4647703 -2.8091888
-10.212597 -9.8863325 -2.7629144
-12.317918 -11.916066 -2.7144513
-15.508321 -14.991914 -2.6484647
-21.129782 -20.419054 -2.5707457
-32.861816 -31.734297 -2.394161
-7.0894442 -6.8223276 -2.6363311
-8.7565165 -8.4206991 -2.8046896
-10.231475 -9.83566 -2.7587166
-12.356587 -11.870258 -2.7138255
-15.549103 -14.926691 -2.6465149
-21.123301 -20.270678 -2.5613329
-7.0950608 -6.7801867 -2.6296017
-8.7717619 -8.3766251 -2.8001907
-10.262907 -9.7971697 -2.7579534
-12.386511 -11.816149 -2.7113225
-15.589617 -14.861364 -2.6445649
-21.144886 -20.150091 -2.5554063
-7.1326981 -6.7686758 -2.634778
-8.7769127 -8.3231573 -2.7925425
-10.311292 -9.7747936 -2.7617695
-12.407606 -11.753816 -2.7069423
-15.65611 -14.825965 -2.6474898
-21.200628 -20.06246 -2.5536633
-7.1002812 -6.693305 -2.6145899
-8.753397 -8.245903 -2.776346
-10.349367 -9.7459297 -2.7632959
-12.455145 -11.720732 -2.7088194
-15.679164 -14.749482 -2.6431026
-21.301884 -20.024796 -2.5578468
-7.137948 -6.6842499 -2.6202841
-8.7252016 -8.1649008 -2.7587998
-10.380195 -9.7102146 -2.7629144
-12.493943 -11.679363 -2.7088194
-15.721847 -14.686535 -2.6416399
-21.36874 -19.947598 -2.5574982
-7.1567392 -6.652781 -2.6182134
-10.415712 -9.6721058 -2.7629144
-12.542459 -11.638867 -2.7100711
-15.778839 -14.636967 -2.6426151
-21.411934 -19.848509 -2.5543604
-7.1600451 -6.6094136 -2.6109667
-8.1216412 -7.4918113 -2.5509448
-10.449411 -9.6356888 -2.7629144
-12.568483 -11.581629 -2.7069423
-15.841515 -14.592556 -2.6445649
-21.507475 -19.797934 -2.5574982
-7.0224519 -6.4394026 -2.5529912
-8.1148319 -7.4358735 -2.5410471
-10.475517 -9.5956802 -2.7613881
-12.606821 -11.539886 -2.7069423
-15.881033 -14.531903 -2.6431026
-21.567127 -19.721125 -2.5568008
-7.1108913 -6.477222 -2.5773201
-10.504375 -9.5582457 -2.7606246
-12.64502 -11.498016 -2.7069423
-15.916967 -14.463034 -2.6406653
-21.616184 -19.634762 -2.5548835
-7.0517926 -6.3784952 -2.5478148
-8.2635651 -7.4693232 -2.5716403
-10.537674 -9.5215235 -2.7606246
-12.688012 -11.456455 -2.7075679
-15.955569 -14.396742 -2.6387153
-21.669798 -19.545841 -2.5531402
-7.0883865 -6.3667493 -2.5529912
-8.3403444 -7.4859929 -2.5873871
-10.527009 -9.4453478 -2.7491763
-12.716157 -11.401549 -2.7050653
-15.999812 -14.335659 -2.6377404
-21.734921 -19.467426 -2.5527916
-7.1062446 -6.338109 -2.5514383
-8.5482731 -7.6189117 -2.6436248
-10.573111 -9.4202957 -2.7526107
-12.747025 -11.349209 -2.7031879
-16.052717 -14.282364 -2.6382277
-21.805721 -19.394087 -2.5531402
-7.0773544 -6.2659206 -2.5328033
-8.4812708 -7.5035958 -2.6143811
-10.582564 -9.3593721 -2.7461233
-12.782618 -11.297181 -2.7019365
-16.096033 -14.215544 -2.6367655
-21.876661 -19.314028 -2.5531402
-7.1354556 -6.273066 -2.5457442
-8.5249796 -7.4893785 -2.6197801
-10.579766 -9.2912827 -2.7369645
-12.816035 -11.24728 -2.7006848
-16.133617 -14.148801 -2.6348155
-21.922968 -19.219162 -2.5506999
-6.9564724 -6.0727983 -2.4743102
-8.5363855 -7.4467649 -2.6152809
-10.547032 -9.1975174 -2.7201731
-12.86713 -11.212856 -2.7031879
-16.176916 -14.087187 -2.6338406
-22.007956 -19.158218 -2.5527916
-7.1688581 -6.214241 -2.5421207
-8.608161 -7.4592533 -2.6296778
-10.498926 -9.0912485 -2.6995659
-12.89827 -11.164954 -2.7019365
-16.229549 -14.038658 -2.6348155
-22.050583 -19.060427 -2.5500026
-7.2201681 -6.2169046 -2.5529912
-8.5632401 -7.3681526 -2.6080825
-10.536459 -9.0627842 -2.701474
-12.925177 -11.109564 -2.6994333
-16.281466 -13.984508 -2.6353028
-22.110643 -18.984608 -2.549654
-34.270287 -29.404333 -2.3665276
-7.1595993 -6.1213613 -2.5240035
-8.5654058 -7.3207226 -2.6013339
-10.576988 -9.0336008 -2.7037637
-12.958942 -11.064076 -2.6988077
-16.327751 -13.930438 -2.6353028
-22.170713 -18.902142 -2.5489569
-7.1931119 -6.1088395 -2.5286622
-8.6488543 -7.3399563 -2.61888
-10.612873 -9.0035553 -2.7052901
-12.994472 -11.016219 -2.6981821
-16.37022 -13.868225 -2.6343279
-22.20286 -18.802769 -2.5454705
-7.0991964 -5.9865551 -2.4882863
-8.6222658 -7.26577 -2.6031337
-10.638232 -8.9613962 -2.7037637
-13.029827 -10.968246 -2.6975563
-16.403336 -13.798224 -2.6318905
-22.271412 -18.727711 -2.5458193
-7.2148457 -6.0411115 -2.5214152
-8.6341276 -7.224371 -2.5990846
-10.654387 -8.9116125 -2.6999474
-13.080158 -10.932829 -2.7000592
-16.442259 -13.733245 -2.6304281
-22.346018 -18.651068 -2.5465164
-7.1255116 -5.9220171 -2.4825923
-8.6712818 -7.2041531 -2.6026838
-10.717191 -8.8975811 -2.7075799
-13.104936 -10.872206 -2.6969306
-16.502325 -13.685901 -2.6323779
-22.395647 -18.56024 -2.5447733
-7.1938195 -5.9364562 -2.4991567
-8.6946192 -7.1698451 -2.601784
-10.769391 -8.8776016 -2.7129223
-13.115366 -10.803783 -2.6912987
-16.540112 -13.615236 -2.6304281
-22.457226 -18.479412 -2.5444248
-7.2189817 -5.9149823 -2.5007098
-8.6610622 -7.0940475 -2.5846877
-10.789679 -8.8312502 -2.7102511
-13.160292 -10.767739 -2.6931763
-16.585171 -13.560311 -2.6304281
-22.496904 -18.380745 -2.5416358
-34.763103 -28.392536 -2.3522921
-7.2820077 -5.9263735 -2.5157211
-8.6736765 -7.053937 -2.5810885
-10.788438 -8.7706528 -2.7026188
-13.203932 -10.726719 -2.6944275
-16.623156 -13.494827 -2.6289656
-22.545357 -18.295998 -2.5402412
-7.1133232 -5.7479315 -2.4504988
-8.7118921 -7.0346327 -2.5851376
-10.832738 -8.7440386 -2.7060535
-13.247444 -10.685523 -2.6956789
-16.660885 -13.42925 -2.6275034
-22.578056 -18.192184 -2.5367548
-7.2779989 -5.8391247 -2.5001922
-8.7151098 -6.9871144 -2.5788388
-10.875448 -8.7159967 -2.7091062
-13.272329 -10.629336 -2.6931763
-16.710764 -13.373487 -2.6279907
-22.650759 -18.120729 -2.537801
-35.058521 -28.026945 -2.3522921
-7.1109676 -5.6644306 -2.4360051
-8.7028522 -6.9275246 -2.5680411
-10.89966 -8.6730909 -2.7075799
-13.306255 -10.580486 -2.6925502
-16.757345 -13.315074 -2.6279907
-22.688906 -18.02173 -2.5350118
-7.2807069 -5.7582116 -2.4872513
-8.7453279 -6.911603 -2.5734401
-10.134973 -8.0069895 -2.5106649
-13.38342 -10.565799 -2.7006848
-16.79125 -13.246666 -2.6260407
-22.736032 -17.930084 -2.5332689
-6.6823611 -5.247179 -2.2765725
-8.751338 -6.869329 -2.568491
-13.424603 -10.526236 -2.7019365
-16.82571 -13.183565 -2.6245785
-22.826723 -17.872713 -2.5364063
-7.3060212 -5.6978292 -2.4825923
-8.7322245 -6.8051977 -2.5558939
-10.546999 -8.2165298 -2.5988188
-13.486203 -10.498724 -2.7069423
-16.874762 -13.127188 -2.6250658
-22.838676 -17.760231 -2.531177
-7.1761723 -5.556386 -2.431864
-8.7528429 -6.7722902 -2.5549941
-10.533687 -8.147234 -2.588515
-13.479008 -10.417762 -2.6981821
-16.917339 -13.065778 -2.6245785
-22.894224 -17.675529 -2.5304799
-7.2460675 -5.5701556 -2.448946
-8.7656126 -6.733386 -2.5518448
-10.557389 -8.1068268 -2.5873702
-13.465139 -10.332165 -2.68817
-16.953392 -12.999397 -2.6231158
-22.946299 -17.588234 -2.529434
-7.3775721 -5.6303868 -2.4867337
-8.7937107 -6.7062912 -2.5531945
-10.495067 -8.0008926 -2.5652361
-13.501123 -10.2851 -2.68817
-16.992348 -12.935329 -2.6221409
-23.020237 -17.517681 -2.5308285
-4.3745608 -3.3144603 -1.4706099
-8.8186188 -6.676733 -2.5536444
-10.596508 -8.0198946 -2.5831723
-13.549546 -10.247445 -2.6906731
-17.034231 -12.873543 -2.6216536
-23.055805 -17.418007 -2.5280395
-4.4138947 -3.3200724 -1.4799274
-8.7733316 -6.5943913 -2.5338488
-10.54753 -7.9250669 -2.5644729
-13.582075 -10.197714 -2.6900475
-17.079062 -12.814008 -2.6216536
-23.122843 -17.342203 -2.5287368
-4.4084287 -3.2919304 -1.4742333
-8.8322191 -6.590528 -2.5441964
-10.527918 -7.8529887 -2.5530245
-13.579578 -10.121904 -2.6825385
-17.126871 -12.756682 -2.6221409
-23.164064 -17.247099 -2.5266449
-4.3717833 -3.2408578 -1.4581866
-8.8457747 -6.5527005 -2.541497
-10.335956 -7.6537919 -2.4999795
-13.602123 -10.065044 -2.6800354
-17.161722 -12.689736 -2.6206787
-23.217718 -17.161398 -2.5259478
-4.1278963 -3.037791 -1.3732939
-8.8481846 -6.5067739 -2.5356483
-10.463847 -7.6920862 -2.5244031
-13.621255 -10.005808 -2.6769071
-17.193111 -12.620356 -2.6187286
-23.290327 -17.089684 -2.5273421
-60.718666 -44.488178 -1.313887
-4.1057162 -2.9994328 -1.3624235
-8.8755655 -6.4792953 -2.536998
-10.525522 -7.6809764 -2.5327988
-13.608215 -9.9232817 -2.6675208
-17.224222 -12.550913 -2.6167786
-23.343399 -17.003588 -2.5266449
-4.1161618 -2.9850817 -1.3624235
-10.60474 -7.6821942 -2.5453923
-13.601166 -9.8456078 -2.6593862
-17.264711 -12.488386 -2.6162913
-23.370319 -16.898651 -2.5231586
-4.1234207 -2.9684379 -1.3613882
-10.650618 -7.6588831 -2.5499716
-13.596953 -9.770402 -2.6518774
-17.308199 -12.428045 -2.6162913
-23.419455 -16.809999 -2.5221128
-4.1400437 -2.9585202 -1.3634588
-8.9143829 -6.3656116 -2.5288997
-10.640536 -7.5954256 -2.5411944
-13.589163 -9.6930561 -2.6437428
-17.333155 -12.359056 -2.6138539
-23.4715 -16.723522 -2.5214157
-4.1750398 -2.9626627 -1.3717409
-8.8337059 -6.2638745 -2.5001059
-10.676876 -7.5680447 -2.5438657
-13.627679 -9.6525049 -2.6449943
-17.361082 -12.292331 -2.6119039
-23.536587 -16.6525 -2.5224614
-4.18958 -2.9521387 -1.3732939
-8.656848 -6.0954294 -2.4443181
-10.661777 -7.5043464 -2.5343251
-13.675769 -9.6186275 -2.648123
-0.82169521 -0.57771128 0.12333179
-17.416878 -12.240791 -2.6138539
-23.598202 -16.578939 -2.5231586
-4.212523 -2.9463549 -1.377435
-8.8409977 -6.17904 -2.4902081
-10.704001 -7.4783306 -2.5381415
-0.75859153 -0.52939779 0.11358224
-17.446474 -12.170833 -2.6119039
-23.580751 -16.44404 -2.5151403
-4.2227821 -2.9316325 -1.377435
-8.6607637 -6.0081863 -2.4335206
-10.738106 -7.4465146 -2.5400493
-13.284717 -9.2056379 -2.5598938
-0.75064385 -0.5199644 0.1121198
-17.482328 -12.105335 -2.610929
-23.664219 -16.379776 -2.5179293
-4.2536693 -2.9311252 -1.3841642
-8.7828007 -6.047543 -2.4618642
-10.84166 -7.4624166 -2.5583673
-13.271197 -9.1278639 -2.5511336
-0.74263972 -0.51059306 0.11065737
-17.524473 -12.04424 -2.610929
-23.721251 -16.297073 -2.5179293
-36.285805 -24.910583 -2.3066552
-4.2750368 -2.9238935 -1.3877878
-8.8923464 -6.0773249 -2.486609
-10.733094 -7.3326054 -2.5266929
-13.298084 -9.0781422 -2.5501947
-0.72474128 -0.4945704 0.10773251
-17.559849 -11.978518 -2.6099541
-23.777994 -16.214169 -2.5179293
-36.431957 -24.824259 -2.3104234
-4.2964067 -2.9165471 -1.3914113
-8.8506088 -6.0035858 -2.4690628
-10.84312 -7.3523893 -2.5465369
-13.290443 -9.0050793 -2.5426862
-0.72975039 -0.49426395 0.10821999
-17.588406 -11.908246 -2.6080043
-23.817947 -16.119902 -2.5161862
-36.518391 -24.696938 -2.3104234
-4.3177757 -2.9090879 -1.3950348
-8.7324915 -5.8790579 -2.4303713
-13.29557 -8.9409904 -2.5376801
-0.72817636 -0.48949867 0.10773251
-17.623272 -11.842353 -2.6070292
-23.874071 -16.036663 -2.5161862
-61.723228 -41.398148 -1.2972722
-4.3246918 -2.8918512 -1.3939995
-8.8242531 -5.8961768 -2.4501667
-13.313556 -8.8857536 -2.5351772
-0.72822911 -0.4858523 0.10748877
-17.661201 -11.778557 -2.6065416
-23.896749 -15.931124 -2.5127001
-36.606804 -24.386021 -2.3051896
-4.3540754 -2.8895566 -1.4002111
-8.919488 -5.9148822 -2.4708624
-10.785335 -7.1494927 -2.5152442
-13.38072 -8.8632269 -2.5420601
-0.7233001 -0.47892362 0.10651381
-17.695589 -11.712454 -2.6055667
-23.965502 -15.856412 -2.5140944
-4.3867226 -2.8892164 -1.4074581
-8.9113836 -5.867054 -2.4632142
-10.870913 -7.151722 -2.5293641
-13.414989 -8.8220615 -2.542999
-0.71990794 -0.47325104 0.1057826
-17.727697 -11.649347 -2.6045918
-24.007383 -15.763911 -2.5127001
-4.4189153 -2.8894548 -1.4147049
-8.8045616 -5.7527695 -2.4281218
-10.736771 -7.0125728 -2.4927289
-13.300129 -8.6801739 -2.5154665
-0.72654325 -0.47398913 0.10651381
-17.788204 -11.600411 -2.6075168
-24.052851 -15.679859 -2.5120027
-36.855972 -24.007784 -2.3051896
-4.4451804 -2.8845284 -1.4198813
-8.8752775 -5.754868 -2.4420688
-10.729882 -6.9547625 -2.4854782
-13.305479 -8.6175871 -2.5107734
-0.72985971 -0.47252902 0.10675755
-18.011906 -11.656887 -2.6343279
-24.110783 -15.597968 -2.5123515
-4.4860826 -2.8888669 -1.4297165
-8.8969498 -5.7249088 -2.4425187
-10.737581 -6.9066448 -2.4816618
-13.473403 -8.6597376 -2.5367417
-0.72983462 -0.46890539 0.10651381
-18.282988 -11.741977 -2.6679637
-24.136581 -15.495411 -2.5093882
-4.5807881 -2.9272833 -1.4566337
-8.9250927 -5.699059 -2.4447682
-10.69874 -6.8289819 -2.4671605
-13.495223 -8.6073418 -2.5351772
-0.72979313 -0.46528772 0.10627007
-18.464479 -11.767709 -2.6884379
-24.200605 -15.417487 -2.5104339
-4.6333957 -2.9381752 -1.4700923
-8.9136553 -5.6480522 -2.4362199
-10.692657 -6.7726879 -2.4602914
-13.521849 -8.5580692 -2.5345516
-0.71631479 -0.45318571 0.10407643
-18.451757 -11.669226 -2.6806383
-24.234066 -15.320141 -2.5083423
-4.6534343 -2.9281569 -1.4731981
-8.9250669 -5.6117182 -2.4339705
-10.719558 -6.737411 -2.4610546
-13.551638 -8.5108204 -2.5345516
-0.73470479 -0.4612371 0.10651381
-17.712194 -11.115148 -2.5675435
-24.270515 -15.224874 -2.5065992
-4.6996784 -2.9344037 -1.484586
-8.9479074 -5.582593 -2.4348702
-10.763002 -6.7124162 -2.4656341
-13.628204 -8.4927168 -2.5433118
-0.73125571 -0.45552072 0.1057826
-17.730663 -11.040664 -2.5646186
-24.330278 -15.144272 -2.5072963
-4.7197456 -2.9240863 -1.4876919
-8.972311 -5.5544019 -2.4362199
-10.699554 -6.6210866 -2.4457898
-13.526718 -8.3640575 -2.518908
-0.73959565 -0.45714021 0.10675755
-17.748829 -10.966184 -2.5616937
-24.366045 -15.048774 -2.5055532
-4.7595477 -2.9258041 -1.4970094
-8.8903542 -5.4608312 -2.4087758
-13.520473 -8.2950945 -2.5123379
-0.7394945 -0.45351809 0.10651381
-16.548174 -10.144711 -2.3832772
-24.398043 -14.951137 -2.5034614
-4.7862244 -2.9192312 -1.5021858
-8.9500093 -5.4566822 -2.4200234
-9.4461288 -5.7546339 -2.1500359
-13.605269 -8.2851458 -2.5229752
-0.73251617 -0.44590238 0.10529512
-16.985329 -10.335366 -2.441287
-24.477318 -14.882446 -2.5062504
-4.8421521 -2.9313564 -1.5166796
-8.8072653 -5.3275685 -2.3763828
-10.689887 -6.46383 -2.4282355
-0.86961061 -0.52561849 0.08889886
-13.623961 -8.2314777 -2.5210981
-0.73746669 -0.44539523 0.1057826
-17.089277 -10.317056 -2.4510365
-24.492422 -14.780605 -2.5027642
-4.882164 -2.9323418 -1.5259972
-0.87950414 -0.5280416 0.017906168
-7.9017887 -4.7422442 -2.1275871
-0.83922428 -0.50345999 0.051289242
-10.757838 -6.4537468 -2.438539
-0.83043116 -0.49798757 0.084715381
-13.611949 -8.1594963 -2.5135894
-0.74242258 -0.44485888 0.10627007
-17.176277 -10.287936 -2.4583485
-0.86496699 -0.51787722 -0.088201612
-0.86897618 -0.51986563 -0.053068664
-4.9156036 -2.9291263 -1.5332441
-0.78513312 -0.46766186 0.015951499
-8.8760567 -5.2848969 -2.3849311
-0.81694871 -0.48622671 0.049823835
-10.74656 -6.3960738 -2.4309068
-0.81846619 -0.48693618 0.083320886
-13.721845 -8.1603975 -2.5286071
-0.75250262 -0.44733647 0.10748877
-0.85326606 -0.50703532 -0.12186935
-0.81537992 -0.4843297 -0.082972266
-0.83299994 -0.49440259 -0.050765883
-0.8448028 -0.49941587 -0.26296017
-0.81774914 -0.48323044 0.016579786
-0.83894074 -0.49555567 -0.22495104
-0.79112369 -0.46712402 0.048149083
-0.83851427 -0.49510607 -0.18928254
-0.80986607 -0.47799996 0.082275018
-0.81664401 -0.48180854 -0.15017711
-0.74892998 -0.4416818 0.10675755
-0.83793026 -0.49397266 -0.11943197
-0.80333328 -0.47338861 -0.08157777
-0.82095212 -0.48338482 -0.049928509
-0.82212245 -0.48368752 -0.016649596
-0.84654099 -0.49646387 -0.26296017
-0.81253046 -0.47632775 0.016440166
-0.80367619 -0.47094873 -0.2150532
-0.82377017 -0.48253024 0.050033178
-0.83684933 -0.49019149 -0.1885193
-0.81324881 -0.47617695 0.082449332
-0.82514036 -0.48294607 -0.15142858
-0.74190015 -0.43405265 0.10553886
-0.82594073 -0.48302782 -0.11748206
-0.82562149 -0.48264754 -0.083669513
-0.81228673 -0.47447214 -0.049300473
-0.82035172 -0.47879881 -0.016579786
-0.85828757 -0.49933487 -0.26606598
-0.82110274 -0.47750971 0.016579786
-0.83227152 -0.48381025 -0.22225164
-0.80818057 -0.46961743 0.048986461
-0.82837039 -0.48134932 -0.1862296
-0.80801469 -0.4693324 0.081752084
-0.8165713 -0.47411165 -0.14955136
-0.74169374 -0.430464 0.10529512
-0.82075357 -0.47615719 -0.1165071
-0.84453666 -0.48975766 -0.085412621
-0.83640355 -0.48465112 -0.05066121
-0.80125117 -0.46390894 -0.01616093
-0.85667902 -0.49440458 -0.26503071
-0.8175683 -0.47164267 0.016475072
-0.81200904 -0.468247 -0.21640292
-0.82357508 -0.47491658 0.049823835
-0.79942912 -0.46080688 -0.17936046
-0.80446917 -0.46352479 0.08122915
-0.83362699 -0.4801316 -0.15236719
-0.75867504 -0.43678638 0.10748877
-0.83273399 -0.47923005 -0.11796954
-0.83069783 -0.47786555 -0.083843827
-0.8138479 -0.46779424 -0.049195804
-0.80625296 -0.46324176 -0.016230738
-0.81983858 -0.46933627 -0.25312504
-0.80524409 -0.46098131 0.016195834
-0.81186593 -0.46458375 -0.21595301
-0.8304289 -0.47501388 0.050137851
-0.80614573 -0.46093699 -0.18050532
-0.79570341 -0.45478207 0.080183282
-0.82149446 -0.46952283 -0.14986424
-0.76356661 -0.43623757 0.10797625
-0.80846143 -0.46169958 -0.11431345
-0.81886446 -0.46707195 -0.04940515
-0.82697582 -0.47131631 -0.01661469
-0.81803101 -0.4647063 -0.25208977
-0.80684841 -0.45816743 0.016195834
-0.82026172 -0.46559489 -0.21775262
-0.81297356 -0.46127042 0.048986461
-0.81791514 -0.46407419 -0.18279503
-0.80760556 -0.45803836 0.08122915
-0.80938095 -0.45885861 -0.14736128
-0.75472242 -0.42769727 0.10651381
-0.81870437 -0.46376678 -0.11553215
-0.82014239 -0.46420327 -0.082449332
-0.82222813 -0.46519437 -0.04950982
-0.80076325 -0.45268127 -0.016056214
-0.82309532 -0.46360105 -0.25312504
-0.8119275 -0.45731091 0.016265644
-0.79810852 -0.44934407 -0.21145399
-0.81457865 -0.45842996 0.048986461
-0.80763304 -0.45433524 -0.1801237
-0.80927896 -0.45507526 0.08122915
-0.82655525 -0.46460027 -0.15017711
-0.75967169 -0.42700553 0.10700129
-0.811665 -0.45604417 -0.11431345
-0.82696974 -0.46426365 -0.082972266
-0.82741147 -0.46413186 -0.049719162
-0.80059445 -0.44890535 -0.016021309
-0.83314115 -0.46543598 -0.25571322
-0.83105725 -0.46408176 0.01661469
-0.7980485 -0.44546598 -0.21100408
-0.82314986 -0.45947742 0.04940515
-0.80064178 -0.44673029 -0.17821561
-0.80912244 -0.45127729 0.081054844
-0.82472122 -0.45978838 -0.14955136
-0.76643366 -0.42711729 0.10773251
-0.80119169 -0.44630423 -0.11260728
-0.83380753 -0.46428195 -0.0834952
-0.83251721 -0.4631829 -0.049928509
-0.809147 -0.44999564 -0.01616093
-0.83645052 -0.46346143 -0.25623086
-0.82559508 -0.45744666 0.016475072
-0.80463547 -0.4456498 -0.2123538
-0.82474875 -0.45660126 0.04940515
-0.80391401 -0.44488361 -0.17859723
-0.81941003 -0.45327201 0.081926398
-0.83488417 -0.46183184 -0.1511157
-0.76958305 -0.42553389 0.10797625
-0.80266732 -0.44364488 -0.11260728
-0.82670259 -0.45655265 -0.082623646
-0.80782044 -0.44594112 -0.048358425
-0.80545986 -0.44427097 -0.016056214
-0.8329041 -0.45789301 -0.25467795
-0.81316674 -0.44685751 0.016195834
-0.81472641 -0.44752926 -0.2146033
-0.82808816 -0.45468101 0.04950982
-0.80882668 -0.44410506 -0.17936046
-0.81217539 -0.4457593 0.081054844
-0.81744069 -0.44846323 -0.14767416
-0.78324747 -0.42952666 0.10968242
-0.83206254 -0.45610756 -0.1165071
-0.79151911 -0.43370315 -0.078963101
-0.80586851 -0.44120011 -0.048149083
-0.81051433 -0.44337624 -0.016126024
-0.81923211 -0.44665995 -0.25001919
-0.80594242 -0.43923146 0.016021309
-0.80088192 -0.43629253 -0.21055418
-0.82440811 -0.44892219 0.049195804
-0.81726879 -0.44503456 -0.18088694
-0.79622704 -0.43339613 0.079311721
-0.79470867 -0.43239012 -0.14329399
-0.77079111 -0.4192026 0.10773251
-0.83016157 -0.4513039 -0.11601962
-0.79127753 -0.42998651 -0.078788787
-0.82320076 -0.44696152 -0.04909113
-0.80678403 -0.43768364 -0.016021309
-0.81568831 -0.44104105 -0.2484663
-0.81098896 -0.4383173 0.016091119
-0.79382735 -0.4288629 -0.20830467
-0.81542575 -0.44034755 0.048567772
-0.81363481 -0.43938041 -0.17974208
-0.79773498 -0.43061432 0.079311721
-0.80490535 -0.43430349 -0.14485833
-0.7600196 -0.40991297 0.10602634
-0.81425846 -0.43898326 -0.11358224
-0.80855894 -0.43572843 -0.080357596
-0.80892891 -0.4355635 -0.048149083
-0.81006801 -0.43581194 -0.016056214
-0.83595085 -0.44823295 -0.25416031
-0.81251407 -0.43548369 0.016091119
-0.80219048 -0.42977038 -0.21010427
-0.79582971 -0.42618388 0.047311708
-0.80477941 -0.43097663 -0.17745239
-0.80450296 -0.43064791 0.079834662
-0.80815822 -0.43242311 -0.1451712
-0.75619441 -0.40444896 0.10529512
-0.79302782 -0.4239713 -0.11041363
-0.82764709 -0.44229388 -0.082100704
-0.81925368 -0.43744087 -0.048672445
-0.80099851 -0.42733404 -0.015846785
-0.82215887 -0.43714964 -0.24950157
-0.79813713 -0.42419839 0.015776975
-0.80884862 -0.42971063 -0.21145399
-0.80789632 -0.42902368 0.04793974
-0.79934317 -0.42448163 -0.17592591
-0.8183201 -0.43437603 0.081054844
-0.81838751 -0.43422875 -0.14673555
-0.77513868 -0.41110799 0.10773251
-0.7909953 -0.41934091 -0.10992616
-0.82038367 -0.43473735 -0.08122915
-0.79959428 -0.42336348 -0.047416382
-0.79718244 -0.42173031 -0.015742071
-0.81000882 -0.42706919 -0.24536048
-0.81730348 -0.43073317 0.016126024
-0.80172312 -0.42234308 -0.20920448
-0.83059573 -0.43736783 0.049195804
-0.80429429 -0.42351824 -0.17668915
-0.814542 -0.42873308 0.080531903
-0.8024165 -0.42217177 -0.14360686
-0.78359681 -0.41209564 0.10870746
-0.82935333 -0.43597463 -0.11504468
-0.80249512 -0.42167681 -0.079311721
-0.82936114 -0.43542418 -0.04909113
-0.81989986 -0.43009213 -0.01616093
-0.80978245 -0.42334425 -0.24484283
-0.82057446 -0.42880356 0.01616093
-0.81355619 -0.42495537 -0.21190389
-0.84628093 -0.44186115 0.050033178
-0.83709341 -0.43706414 -0.18355827
-0.81780005 -0.4268088 0.080706216
-0.81439358 -0.42485017 -0.14548407
-0.77974987 -0.4066045 0.10797625
-0.85551471 -0.44592229 -0.11845701
-0.84990287 -0.44280863 -0.083843827
-0.84327704 -0.43898231 -0.049823835
-0.82494432 -0.42907298 -0.016230738
-0.85927892 -0.44540808 -0.25933671
-0.83449489 -0.43237624 0.016405262
-0.81849539 -0.42390552 -0.21280369
-0.83540249 -0.43247691 0.049300473
-0.82292271 -0.4260163 -0.1801237
-0.8210544 -0.42486718 0.08088053
-0.84569907 -0.43743309 -0.15080284
-0.77058446 -0.39840981 0.10651381
-0.83414036 -0.4310852 -0.11528841
-0.84436268 -0.43618169 -0.08314658
-0.83770508 -0.43237185 -0.04940515
-0.83710068 -0.43168998 -0.016440166
-0.85552025 -0.44005537 -0.25778377
-0.82340026 -0.42335206 0.01616093
-0.82328969 -0.42311335 -0.2137035
-0.82254457 -0.42254919 0.048463102
-0.81727177 -0.41984048 -0.17859723
-44.018867 -22.603212 4.3291998
-0.83652484 -0.42936176 -0.14892563
-0.77536464 -0.39779946 0.10700129
-0.81959319 -0.42031014 -0.11309476
-0.81566054 -0.41793364 -0.080183282
-0.81772709 -0.41881257 -0.048149083
-0.83133221 -0.42541417 -0.016300548
-0.83819485 -0.42726597 -0.25208977
-0.8444705 -0.43046495 0.016544882
-0.81955254 -0.41758299 -0.2123538
-0.83291322 -0.42420751 0.048986461
-0.8170554 -0.41595146 -0.17821561
-0.83105004 -0.42271075 -0.14767416
-0.76790172 -0.39059058 0.1057826
-0.85644585 -0.43543985 -0.11796954
-0.84198314 -0.42771709 -0.082623646
-0.84707856 -0.42974773 -0.016579786
-0.82933605 -0.41910955 -0.24898393
-0.91565353 -0.46252996 0.017906168
-0.83325458 -0.42072475 -0.21550311
-0.85530877 -0.43167299 -0.1862296
-0.77641886 -0.39134723 0.10675755
-0.83676231 -0.42157996 -0.11504468
-0.83286744 -0.41925293 -0.08157777
-0.88314801 -0.44437051 -0.051812604
-6.995862 -3.503267 -2.0964344
-5.6042876 -2.8051937 -1.4468851
-10.749695 -5.3760095 -2.3362653
-13.267106 -6.629199 -2.3490202
-0.78133166 -0.39040941 0.10724504
-17.450077 -8.7155056 -2.3949764
-23.985083 -11.96898 -2.3451867
-31.268074 -15.596506 6.792037
-5.6424637 -2.7984891 -1.4540836
-10.764876 -5.3367114 -2.3355021
-13.254764 -6.5653119 -2.3427629
-0.78097838 -0.38666204 0.10700129
-17.519533 -8.673913 -2.4003389
-23.11058 -11.432003 -2.255765
-31.287136 -15.469855 6.7844052
-6.8063593 -3.3506215 -2.0327649
-5.6971788 -2.8021245 -1.4657811
-10.720849 -5.2706676 -2.3221457
-44.194092 -21.717455 4.3081083
-13.212633 -6.4899683 -2.3314996
-0.76800102 -0.37707129 0.10505138
-17.70857 -8.6945114 -2.4222753
-22.708326 -11.139443 -2.2128842
-31.341782 -15.367752 6.7851682
-6.8834019 -3.3602362 -2.0524352
-5.727458 -2.7934678 -1.47118
-10.755917 -5.24369 -2.3259618
-44.253326 -21.564682 4.3068881
-13.052939 -6.3578858 -2.299587
-0.78352559 -0.38147408 0.10700129
-17.549608 -8.5405664 -2.3964391
-23.612307 -11.485899 -2.297251
-31.427887 -15.280904 6.7928009
-38.572926 -18.746651 -2.2476203
-6.9698672 -3.3723686 -2.0746937
-5.7652459 -2.7870283 -1.4783784
-6.3071666 -3.047647 -1.361613
-44.301422 -21.397068 4.3042731
-13.0626 -6.3062716 -2.2973969
-0.78664017 -0.37959963 0.10724504
-17.436277 -8.4102612 -2.37694
-31.4788 -15.176799 5.5349646
-23.418947 -11.290921 -2.2745905
-38.638126 -18.611889 -2.2476203
-6.338829 -3.0397801 -1.8836851
-5.7995429 -2.7786763 -1.484677
-6.3266211 -3.0298507 -1.3635212
-44.370449 -21.239714 4.3037505
-13.1665 -6.2998586 -2.3117888
-0.77542478 -0.37085584 0.10553886
-17.300758 -8.2705784 -2.354516
-31.563667 -15.082164 5.540597
-24.4865 -11.700459 -2.3742967
-0.98230606 -0.46895692 -0.057046197
-6.3808088 -3.0325596 -1.8930025
-5.8373728 -2.7717893 -1.4918754
-6.3336115 -3.0060644 -1.3627579
-44.411915 -21.069342 4.3006129
-13.086673 -6.2056165 -2.2939553
-0.77850831 -0.36899704 0.1057826
-17.394102 -8.240737 -2.3632903
-31.551853 -14.941449 5.5293331
-23.234299 -11.002653 -2.249141
-0.89366752 -0.42281663 -0.051812604
-6.3773732 -3.0036843 -1.8888614
-1.1090579 -0.52211964 0.02139665
-5.8787522 -2.7663298 -1.4999737
-6.3298531 -2.9772542 -1.359705
-44.474373 -20.909098 4.2995667
-13.110044 -6.1607347 -2.2942681
-0.77979153 -0.36627746 0.1057826
-17.444324 -8.190093 -2.3662152
-31.603819 -14.831221 5.5293331
-24.638144 -11.55709 -2.3809204
-31.999739 -14.98978 -0.61680299
-6.3638296 -2.9688554 -1.8816146
-5.9201632 -2.760618 -1.5080719
-6.3122492 -2.9407687 -1.3535991
-44.527233 -20.735018 4.2973013
-13.198798 -6.1434879 -2.3058443
-0.78466475 -0.36522859 0.10627007
-17.476408 -8.1308203 -2.3667028
-24.70363 -11.482773 -2.3833609
-39.078518 -18.147943 -2.2580874
-6.3408365 -2.931221 -1.8717794
-5.9585485 -2.7519741 -1.5152704
-6.2565241 -2.8882706 -1.3394792
-44.577629 -20.569443 4.2952089
-13.141235 -6.0609751 -2.292078
-0.7932092 -0.3656745 0.10724504
-17.41234 -8.0235167 -2.3540282
-24.081223 -11.091408 -2.3195629
-39.595222 -18.220148 -2.2842555
-6.3264408 -2.8978066 -1.8645325
-5.9911537 -2.7416997 -1.521119
-6.2665677 -2.8664136 -1.3394792
-44.627419 -20.40377 4.2931175
-13.074276 -5.9748344 -2.2767475
-0.7944808 -0.36290345 0.10724504
-17.205492 -7.8555069 -2.3223424
-23.858786 -10.888168 -2.2944622
-39.295128 -17.916109 -2.2633209
-6.3787379 -2.894866 -1.8769557
-6.0024629 -2.7215748 -1.5215689
-6.2675943 -2.8404694 -1.3375711
-44.68203 -20.240477 4.2915487
-13.136442 -5.9479003 -2.2839434
-0.78308314 -0.35439864 0.10553886
-17.182617 -7.7763085 -2.3157616
-24.154438 -10.921378 -2.3192141
-39.357426 -17.778833 -2.2633209
-7.3960547 -3.3270218 -2.1730449
-6.0363398 -2.7128382 -1.5278676
-6.2572803 -2.8108203 -1.3333733
-44.725269 -20.081583 4.2892823
-13.053369 -5.8582029 -2.2661099
-0.78968769 -0.35423726 0.10627007
-16.818899 -7.5446033 -2.2633576
-24.637791 -11.041665 -2.3620949
-39.026066 -17.473566 -2.240921
-7.4352779 -3.315064 -2.1813271
-6.0773444 -2.7070804 -1.5359658
-6.2378702 -2.7772782 -1.3272674
-44.762497 -19.920197 4.2864938
-13.056479 -5.8076615 -2.263294
-0.7981137 -0.35484245 0.10724504
-17.071884 -7.5866203 -2.2938249
-23.130194 -10.274048 -2.2142789
-7.3708153 -3.2555289 -2.1590683
-6.1099348 -2.6960754 -1.5418144
-6.2511191 -2.7570729 -1.3280307
-13.013404 -5.7341685 -2.2523437
-0.80843085 -0.35605511 0.10846373
-17.001972 -7.484592 -2.2809069
-25.197468 -11.08715 -2.4084618
-7.3803644 -3.2290056 -2.158551
-6.1407351 -2.6840985 -1.5472133
-6.2427144 -2.7273757 -1.3242146
-13.040582 -5.6918721 -2.2535954
-0.80239081 -0.35005584 0.10748877
-16.982504 -7.4053574 -2.2748132
-24.529221 -10.685982 -2.3408289
-7.3620148 -3.1888802 -2.1497512
-6.1625857 -2.6680665 -1.5503626
-6.2670841 -2.7107117 -1.3272674
-13.028717 -5.6299334 -2.2479637
-0.80178571 -0.34646544 0.10724504
-17.135818 -7.401134 -2.2918751
-24.698086 -10.65712 -2.3533792
-38.063065 -16.408304 -2.1722562
-7.3926296 -3.1715405 -2.1554451
-6.2009821 -2.6577446 -1.557561
-6.2855315 -2.6926844 -1.3291756
-13.050105 -5.585197 -2.2482765
-0.81035066 -0.34664738 0.10821999
-17.202984 -7.3554463 -2.2972372
-22.921362 -9.7957048 -2.1808109
-38.483803 -16.430618 -2.1929815
-7.3929877 -3.1411831 -2.1523392
-6.233541 -2.6459813 -1.5634098
-6.2966995 -2.6714938 -1.3295572
-12.991315 -5.5064611 -2.234823
-0.81155574 -0.34381658 0.10821999
-17.181028 -7.2752223 -2.2909
-24.540697 -10.386595 -2.3314161
-7.4466414 -3.1333408 -2.1647625
-6.2768726 -2.6385541 -1.5719579
-6.3403754 -2.6639483 -1.336808
-13.097886 -5.4977765 -2.2498407
-0.83471709 -0.35019752 0.11114486
-17.184351 -7.2059965 -2.2879751
-25.102333 -10.521132 -2.381269
-38.84444 -16.264919 -2.2070074
-7.4789333 -3.1162443 -2.1709743
-6.3112311 -2.6271136 -1.5782566
-6.3786383 -2.6538646 -1.3429137
-13.11882 -5.4527841 -2.2501535
-0.82493538 -0.34271193 0.10968242
-16.974735 -7.0485268 -2.2567768
-25.56583 -10.610631 -2.4217093
-39.089161 -16.207251 -2.217684
-7.4499407 -3.0752096 -2.1595864
-6.3595428 -2.6225142 -1.5881544
-6.4182606 -2.6454175 -1.3494014
-13.156923 -5.4175234 -2.2535954
-0.85543853 -0.35206264 0.11358224
-16.869505 -6.9393334 -2.2397149
-26.054188 -10.712172 -2.4645901
-38.884048 -15.9713 -2.2030299
-7.4624186 -3.0499167 -2.1601038
-8.434413 -3.4437389 -2.1032922
-6.4365449 -2.6267047 -1.3513094
-13.100757 -5.3409882 -2.2407675
-16.882595 -6.8759136 -2.2382526
-26.191067 -10.661729 -2.4740028
-39.357689 -16.00551 -2.2266858
-7.5482321 -3.0542829 -2.1818447
-6.4584169 -2.609369 -1.3539807
-12.842718 -5.1835828 -2.1935244
-16.843897 -6.7917042 -2.2299654
-26.228127 -10.570233 -2.4740028
-39.676403 -15.973959 -2.2415493
-7.5014615 -3.0049284 -2.1652801
-6.4984741 -2.5992048 -1.3604681
-12.932276 -5.1673036 -2.2057261
-16.847221 -6.724771 -2.2272844
-26.15383 -10.434318 -2.4635441
-40.073303 -15.971422 -2.2608089
-7.4903555 -2.9701796 -2.1590683
-8.598649 -3.4061825 -2.1352355
-6.5312376 -2.5859003 -1.3654292
-13.02371 -5.151195 -2.218241
-16.88789 -6.6761642 -2.2297218
-25.867649 -10.215627 -2.4332139
-40.013622 -15.785988 -2.2543192
-7.4983654 -2.9446177 -2.158551
-8.5917559 -3.3705325 -2.1307364
-6.5909543 -2.5842941 -1.3761146
-45.704124 -17.911264 4.2946863
-13.029684 -5.1036553 -2.2163637
-16.874815 -6.6063743 -2.2250907
-25.697275 -10.049965 -2.4140399
-7.4540749 -2.8987308 -2.1430218
-8.6392145 -3.3561378 -2.1397343
-6.6251097 -2.5723715 -1.3814572
-45.789276 -17.769684 4.2971263
-13.079688 -5.0732765 -2.2219954
-16.897772 -6.5474296 -2.2250907
-25.927402 -10.040963 -2.4325168
-40.497433 -15.667277 -2.2756722
-7.4533296 -2.8685317 -2.1399159
-8.6472397 -3.3245599 -2.1388347
-6.6926923 -2.5717645 -1.393669
-13.060434 -5.0134306 -2.2157381
-16.72776 -6.4144917 -2.1997418
-25.076729 -9.6109934 -2.3495445
-40.611561 -15.548671 -2.2790217
-7.4506593 -2.8376839 -2.1362925
-8.4821196 -3.2271371 -2.0951941
-6.7787013 -2.5776963 -1.4096969
-45.819096 -17.414188 4.2884111
-13.087089 -4.9713178 -2.2173023
-16.334316 -6.1983008 -2.1451445
-25.994862 -9.8537674 -2.4321682
-40.43026 -15.317657 -2.2658331
-7.4393163 -2.8021832 -2.1300809
-8.6209955 -3.2455735 -2.1266873
-6.8983598 -2.5942965 -1.4325941
-45.882607 -17.246147 4.2884111
-13.114467 -4.9267912 -2.2188668
-16.37258 -6.1475253 -2.1473379
-23.965876 -8.98909 -2.2393796
-40.49361 -15.17218 -2.2662518
-7.4508624 -2.7768743 -2.1305985
-8.5762205 -3.1928749 -2.1127403
-6.984653 -2.598958 -1.448622
-45.942532 -17.08588 4.2884111
-13.126029 -4.8789177 -2.2179282
-16.644365 -6.180069 -2.1799989
-23.313452 -8.6516705 -2.1755817
-40.943344 -15.177904 -2.2884421
-7.4315095 -2.7401557 -2.1223164
-8.6855001 -3.2008069 -2.1370349
-7.0121064 -2.5813434 -1.4524381
-12.978996 -4.7753391 -2.1903956
-16.692719 -6.1351118 -2.183655
-24.248743 -8.9025879 -2.2599483
-41.240952 -15.132874 -2.302259
-7.4441843 -2.716821 -2.1233516
-7.0575209 -2.5715182 -1.4600705
-12.921335 -4.7029824 -2.177881
-16.831566 -6.1195378 -2.1990106
-41.252224 -14.973822 -2.2999563
-7.4154644 -2.6770439 -2.1124811
-8.5408154 -3.0799353 -2.0960939
-7.1218629 -2.5668371 -1.471519
-13.002725 -4.6812692 -2.1888313
-16.695913 -6.0043178 -2.1785367
-26.284981 -9.4476337 -2.4436727
-41.304241 -14.829742 -2.2999563
-7.3938341 -2.6401002 -2.1036813
-8.6451225 -3.0834913 -2.1190388
-7.1899557 -2.5630584 -1.4837308
-12.842197 -4.5729017 -2.1591089
-16.567148 -5.8927813 -2.1590376
-25.458 -9.0501699 -2.363838
-41.468678 -14.725572 -2.3062365
-7.4066477 -2.6155593 -2.1047165
-8.6337805 -3.0455184 -2.1136403
-7.2247806 -2.5470817 -1.4890735
-13.072351 -4.6035051 -2.1950886
-16.368519 -5.7578444 -2.1305199
-41.546211 -14.589993 -2.3077018
-7.4668016 -2.6075232 -2.1192105
