# .PCD v0.7 - Point Cloud Data file format
VERSION 0.7
FIELDS x y z
SIZE 4 4 4
TYPE F F F
COUNT 1 1 1
WIDTH 1539
HEIGHT 1
VIEWPOINT 0 0 0 1 0 0 0
POINTS 1539
DATA ascii
-1.3301847 7.7982988 -2.1197281
-1.5208796 8.9350767 -2.0924947
-1.8511782 10.887045 -2.1466014
-2.2883706 13.486722 -2.1666176
-3.0057406 17.752123 -2.21071
-4.5102072 26.665962 -2.3661041
-1.3032752 7.8048 -2.1202457
-1.4935266 8.963398 -2.0978935
-1.8163896 10.912807 -2.1504176
-2.2348092 13.455652 -2.1603601
-2.9463475 17.778175 -2.2126598
-4.4044132 26.604885 -2.3593059
-1.2803828 7.8359938 -2.1274927
-1.4631722 8.9743271 -2.0992434
-1.7735492 10.890016 -2.1446934
-2.207474 13.584259 -2.1797581
-3.0552013 18.842564 -2.3437912
-4.337007 26.777433 -2.373251
-6.930963 42.887947 -2.2768238
-1.2502837 7.823246 -2.122834
-1.4296865 8.965909 -2.0960939
-1.7380031 10.911649 -2.1477461
-2.1525979 13.545061 -2.1722493
-3.0671334 19.343262 -2.404726
-4.2519183 26.845543 -2.3779571
-6.7874575 42.951332 -2.2789171
-1.2184926 7.7989321 -2.1150692
-1.4004838 8.9843235 -2.0992434
-1.7026192 10.935108 -2.1511807
-2.0710418 13.331921 -2.1368952
-2.7192705 17.545191 -2.1799989
-4.1563606 26.84841 -2.3769114
-6.6569881 43.101089 -2.2856162
-1.1991316 7.8547015 -2.1290457
-1.372633 9.0122757 -2.1046422
-1.6685692 10.968159 -2.1565235
-2.0600579 13.57343 -2.1744394
-2.9855201 19.717493 -2.4485991
-4.0760164 26.951403 -2.3847554
-1.1594582 7.7766771 -2.1067872
-1.3437437 9.0343599 -2.1086912
-1.6461424 11.080722 -2.1775124
-2.0080283 13.549274 -2.1694334
-2.9088304 19.674772 -2.442018
-3.9880185 27.006859 -2.3884158
-6.3664231 43.217648 -2.2893844
-1.1442662 7.8628817 -2.1290457
-1.3064955 8.9886255 -2.0969937
-1.5863218 10.940681 -2.148891
-1.9645108 13.565632 -2.1709976
-2.7042112 18.719646 -2.3223424
-3.9051082 27.099495 -2.3953884
-1.1203622 7.8819337 -2.1331868
-1.2841368 9.0568027 -2.1118405
-1.5216824 10.745664 -2.1095843
-1.9270889 13.642822 -2.182261
-2.8180463 20.000763 -2.4800413
-3.7119355 26.378359 -2.3305445
-1.0870097 7.8436971 -2.1217985
-1.2453079 9.0091095 -2.0996931
-1.5287338 11.073748 -2.1729329
-1.8843013 13.68469 -2.1878927
-2.7625332 20.11471 -2.4929595
-3.71892 27.113607 -2.3943427
-5.9346037 43.379852 -2.2946179
-1.0596213 7.8474436 -2.1217985
-10.576017 78.42807 1.3813579
-1.217756 9.0423708 -2.1064417
-1.4942539 11.110147 -2.1790388
-1.8475543 13.773414 -2.2010331
-2.6962454 20.153744 -2.4966154
-3.6400895 27.244913 -2.4048011
-5.7963219 43.49929 -2.2998514
-1.036505 7.8836565 -2.1305985
-1.1950539 9.114193 -2.1221881
-1.4506173 11.078311 -2.1717882
-1.8038162 13.813078 -2.206352
-2.64024 20.273268 -2.5102651
-3.549082 27.289062 -2.4075902
-5.6573005 43.618294 -2.3050852
-1.0053004 7.8584828 -2.122834
-1.1607682 9.098978 -2.1176891
-1.4139251 11.098887 -2.1748412
-1.752853 13.797734 -2.2029104
-2.6320722 20.776667 -2.5714433
-3.4092865 26.949446 -2.3765628
-5.5049982 43.637779 -2.3050852
-0.96999609 7.7986813 -2.105752
-1.1311558 9.1203804 -2.1217382
-1.3768655 11.117393 -2.1775124
-1.6928122 13.707704 -2.1875796
-2.571667 20.884237 -2.5836303
-3.3531325 27.269672 -2.4037554
-5.3492465 43.628975 -2.3036196
-0.90777463 7.5124159 -2.0275886
-1.0979118 9.1126652 -2.1190388
-1.3350041 11.096792 -2.1725514
-1.6397737 13.670382 -2.1806967
-2.4534862 20.514648 -2.5368326
-3.2527182 27.237688 -2.3999205
-5.2120214 43.774307 -2.3103187
-0.90584993 7.7227583 -2.0834932
-1.059534 9.0603113 -2.1059918
-1.2880609 11.031184 -2.158813
-1.5982152 13.728999 -2.1891441
-2.3873484 20.570412 -2.5426822
-3.1392794 27.090542 -2.3859756
-0.87932533 7.7297125 -2.0845287
-1.0331689 9.1104269 -2.1167896
-1.2373954 10.92832 -2.1378241
-1.5436319 13.675608 -2.1797581
-2.3417358 20.81139 -2.5714433
-3.0589254 27.228054 -2.3971314
-0.85212445 7.730814 -2.0840108
-0.98689497 8.982255 -2.0861959
-1.2058797 10.993072 -2.1496544
-1.490098 13.627892 -2.1713107
-2.2656295 20.787865 -2.5675435
-2.9530797 27.13953 -2.3884158
-0.83148509 7.7932916 -2.1000578
-0.96727848 9.0961008 -2.1118405
-1.1739213 11.057734 -2.1614842
-1.4475034 13.680157 -2.1788194
-2.1306002 20.203402 -2.494422
-2.8170412 26.757347 -2.3539023
-4.631608 44.140762 -2.3260193
-0.80011863 7.7557912 -2.0891874
-0.93332648 9.0780983 -2.1068916
-1.1475503 11.180897 -2.1847632
-1.3985324 13.673336 -2.1769423
-2.0733445 20.341057 -2.5105085
-2.728457 26.81459 -2.3580859
-7.0824499 70.090355 -1.2296616
-0.77840191 7.8123617 -2.1036813
-0.90375215 9.1026325 -2.1118405
-1.1025094 11.12427 -2.1729329
-1.3593398 13.76463 -2.1907084
-1.9906589 20.229639 -2.4958844
-2.6375725 26.851711 -2.3605261
-4.3260379 44.199856 -2.3274851
-0.75852156 7.8919516 -2.1243868
-0.87226081 9.092 -2.1086912
-1.0593723 11.083102 -2.1641557
-1.3163166 13.796592 -2.1950886
-1.921314 20.212416 -2.4929595
-2.559974 27.031336 -2.3755169
-4.1862173 44.285538 -2.3312531
-0.73252302 7.8963466 -2.1249044
-0.84230942 9.1143942 -2.1131902
-1.0374023 11.246859 -2.1954484
-1.2641692 13.757827 -2.1882055
-1.979407 21.624519 -2.6662576
-2.4638007 26.968248 -2.3692417
-4.0432005 44.427177 -2.3379519
-0.70049179 7.8488264 -2.1114457
-0.81394207 9.1561003 -2.1221881
-0.98564219 11.109612 -2.1679718
-1.2208354 13.815284 -2.1966531
-1.9002506 21.589773 -2.6611392
-2.3999901 27.322029 -2.3995719
-3.894351 44.512653 -2.3417203
-0.66467232 7.7530599 -2.0850463
-0.77716643 9.1025782 -2.1091411
-0.95269221 11.181449 -2.1813285
-1.171598 13.807652 -2.1947758
-1.7262659 20.429228 -2.5173333
-2.2928774 27.191267 -2.3873701
-3.7473147 44.625484 -2.3469539
-0.64378011 7.8304214 -2.1052344
-0.74649829 9.1188307 -2.1122904
-0.89591581 10.96751 -2.1389689
-1.1206671 13.778186 -2.1894569
-2.205965 27.298401 -2.3960855
-3.5915079 44.638294 -2.3469539
-0.61992687 7.8769159 -2.1171398
-0.71877491 9.1738358 -2.1244378
-0.87430173 11.183913 -2.1805654
-1.0768598 13.837158 -2.1982174
-1.5817611 20.417034 -2.5144086
-2.1115897 27.317854 -2.3971314
-3.4356787 44.650558 -2.3469539
-0.59445709 7.906002 -2.1243868
-0.68732721 9.184063 -2.1262374
-0.83262849 11.151656 -2.173696
-1.0335262 13.907811 -2.2088549
-1.5845764 21.42415 -2.6377404
-2.0122538 27.27141 -2.3924251
-0.55704761 7.7712188 -2.0876343
-0.65277523 9.1514177 -2.118139
-0.79021031 11.105538 -2.1641557
-0.97242576 13.733994 -2.1806967
-1.5258204 21.65727 -2.6657703
-1.913294 27.224602 -2.3877187
-0.5312295 7.7923899 -2.0928109
-0.62280232 9.1828041 -2.1248875
-0.75395459 11.145445 -2.1714065
-0.92779142 13.786577 -2.1885185
-1.448494 21.636719 -2.6626017
-1.8135977 27.161539 -2.3816178
-0.51088774 7.9002261 -2.1212809
-0.58473843 9.0915756 -2.1032922
-0.71668649 11.173478 -2.1763675
-0.87701714 13.748334 -2.1819482
-1.3724504 21.633717 -2.6616266
-1.7178874 27.153786 -2.3803978
-0.48130074 7.8691821 -2.1124811
-0.55039895 9.0507679 -2.0933945
-0.66793245 11.015221 -2.1450748
-0.83282799 13.814408 -2.1919601
-1.279462 21.347092 -2.625797
-1.6190572 27.091997 -2.3744709
-0.45205155 7.8399549 -2.1041989
-0.52326 9.1304569 -2.1113906
-0.63328797 11.084126 -2.1580498
-0.78706169 13.86062 -2.198843
-1.2048652 21.283831 -2.6175098
-1.5250309 27.107428 -2.3753426
-2.5778921 46.10862 -2.4202242
-0.42940256 7.9031396 -2.1207633
-0.48951477 9.0679264 -2.0965438
-0.59736902 11.10185 -2.1611028
-0.73740596 13.794114 -2.1878927
-1.1198027 21.016136 -2.5841177
-1.4332407 27.076521 -2.3722048
-0.40250513 7.8910146 -2.1171398
-0.45943922 9.0695009 -2.0965438
-0.5606519 11.10573 -2.1614842
-0.69284207 13.820158 -2.1916471
-1.0402222 20.895012 -2.5687623
-1.336854 27.043552 -2.3688931
-0.36791536 7.7727962 -2.0850463
-0.42860603 9.0885677 -2.1005929
-0.64209533 13.820631 -2.1913342
-0.96534568 20.856873 -2.5636437
-1.2415247 27.028151 -2.3671501
-0.33942899 7.7431531 -2.0767641
-0.3957172 9.0998116 -2.1028426
-0.59740579 13.905679 -2.2044747
-0.89050353 20.812517 -2.5577941
-1.1467417 27.022367 -2.3662784
-0.31484258 7.7712593 -2.0840108
-0.36624464 9.118598 -2.1068916
-0.5485605 13.838498 -2.1935244
-0.82038009 20.787586 -2.5543816
-1.0573001 27.030003 -2.366627
-0.2895028 7.783844 -2.0871167
-0.33865649 9.1918182 -2.123538
-0.41020894 11.186957 -2.1759858
-0.50359559 13.865905 -2.1975915
-0.74488175 20.708986 -2.5443883
-0.96772343 27.035351 -2.3668013
-0.26571149 7.8852067 -2.1140339
-0.30864498 9.2552691 -2.1379349
-0.36965659 11.143192 -2.1672087
-0.44559672 13.575379 -2.1512871
-0.66835105 20.580513 -2.5283015
-0.8738538 27.054495 -2.3681958
-1.5224657 47.650261 -2.4985187
-0.23871194 7.9034657 -2.1186929
-0.271449 9.0926685 -2.100143
-0.33198276 11.185625 -2.1752226
-0.40185192 13.701247 -2.1709976
-0.5958696 20.560894 -2.5256205
-0.7746942 27.057516 -2.3681958
-0.20989814 7.91008 -2.1202457
-0.24068996 9.1305733 -2.1086912
-0.29129195 11.198542 -2.1775124
-0.34783408 13.554524 -2.1475327
-0.52191466 20.477516 -2.5151396
-0.679533 27.032171 -2.3657553
-0.18214992 7.9049716 -2.1186929
-0.19745411 8.7008333 -2.0092628
-0.25051743 11.124906 -2.1630108
-0.30573732 13.790667 -2.1847639
-0.44725159 20.497154 -2.5173333
-0.58216727 27.114157 -2.3727279
-1.0235702 48.063129 -2.5194533
-0.1527656 7.8843393 -2.1129987
-0.17444904 9.0853004 -2.0978935
-0.20929934 11.102194 -2.1584315
-0.25375465 13.714669 -2.1725621
-0.37679616 20.558136 -2.5246456
-0.48758209 27.120007 -2.3730764
-0.85269463 48.3661 -2.5351539
-0.12805595 7.8886428 -2.1140339
-0.14506042 9.1325932 -2.1086912
-0.17404656 11.07924 -2.153852
-0.31044248 20.680347 -2.5395136
-0.40155736 27.065624 -2.3681958
-0.10015114 7.8600669 -2.1062696
-0.11349234 9.1583767 -2.1145399
-0.13551798 11.091559 -2.1561418
-0.23790419 20.651531 -2.5358574
-0.30768129 27.120653 -2.3729022
-0.53299648 48.470547 -2.5403874
-0.072943985 7.8854814 -2.1129987
-0.081442498 9.1489725 -2.1122904
-0.096489057 11.056628 -2.1492727
-0.11704829 13.971351 -2.2129223
-0.16442342 20.479538 -2.5146523
-0.21334499 27.163403 -2.3765628
-0.045141563 7.8373928 -2.1000578
-0.049071394 9.0693045 -2.0938444
-0.057834283 11.045118 -2.1469829
-0.0681559 13.945994 -2.2088549
-0.091966882 20.265598 -2.4883285
-0.1184793 27.152025 -2.3755169
-0.017742146 7.820116 -2.0953991
-0.017587356 9.1590624 -2.1145399
-0.019290034 11.053105 -2.1485093
-0.019488852 13.954048 -2.2101064
-0.021158421 20.206245 -2.4810164
-0.018918239 27.100475 -2.3709848
0.010886034 7.796946 -2.0891874
0.014242421 9.0674772 -2.0933945
0.021302229 11.096294 -2.1569052
0.031506613 13.886864 -2.1994689
0.049249154 20.156569 -2.4749229
0.075641103 27.088423 -2.3699389
0.15478475 49.272141 -2.5822563
0.038123347 7.800724 -2.0902226
0.047770169 9.1238766 -2.1064417
0.059847139 11.060813 -2.1500359
0.080239363 13.932102 -2.2066648
0.12246455 20.047075 -2.4615173
0.16994083 27.048145 -2.3664527
0.32745111 49.371159 -2.5874898
0.065719575 7.8449745 -2.1021285
0.077944972 9.113924 -2.104192
0.098972842 11.119432 -2.1614842
0.1261206 13.896204 -2.2010331
0.18837708 19.987007 -2.454205
0.26412898 27.023483 -2.364361
0.49118367 49.369804 -2.5874898
0.088889971 7.6013169 -2.036906
0.11032369 9.1603632 -2.1149898
0.13496131 11.046409 -2.1473646
0.17425799 13.866051 -2.1963401
0.25785738 19.964394 -2.451524
0.35797554 26.986534 -2.3612232
0.66643184 49.587467 -2.599004
0.12057896 7.8501191 -2.1036813
0.14135402 9.0995188 -2.1010427
0.17308064 10.89665 -2.1183615
0.22658227 13.958149 -2.211045
0.32934102 20.072536 -2.4649296
0.4521144 26.981136 -2.3608747
0.84952992 49.664566 -2.6031907
0.14808784 7.8554454 -2.1052344
0.17676879 9.2061014 -2.1257875
0.21544933 11.11975 -2.1618662
0.27464536 13.923697 -2.2057261
0.40107125 19.9799 -2.4537175
0.54621989 26.97541 -2.3605261
0.17494866 7.8297729 -2.098505
0.20708402 9.1255503 -2.1073413
0.25543311 11.169961 -2.1717882
0.31805596 13.699497 -2.170372
0.47011545 19.948608 -2.4500613
0.64083266 26.993258 -2.3622692
1.1425769 47.429134 -2.486377
0.2004308 7.7576594 -2.0793524
0.23929636 9.1384068 -2.1104908
0.29105693 11.041434 -2.1469829
0.37373656 13.992531 -2.2169895
0.54666871 20.202831 -2.4815037
0.73538536 27.002806 -2.3633151
0.22422235 7.6449137 -2.0493293
0.27000397 9.1511993 -2.1136403
0.32889161 11.016803 -2.1424036
0.42174014 14.044525 -2.2254369
0.60588121 19.944946 -2.4500613
0.8299998 27.012024 -2.364361
0.2565721 7.858449 -2.1067872
0.3032937 9.191102 -2.1230881
0.36073926 10.874373 -2.1149271
0.46976641 14.013353 -2.2207439
0.67167336 19.829628 -2.4361684
0.91971344 27.013103 -2.3647096
1.6601479 48.265179 -2.530967
0.2814917 7.7880049 -2.0881522
0.33115202 9.1179895 -2.1064417
0.40287119 10.98684 -2.1370609
0.51841283 14.070939 -2.23013
0.73883432 19.864981 -2.4407995
1.012949 26.981857 -2.3622692
1.823367 48.343239 -2.5353634
0.30601573 7.7542119 -2.0793524
0.36049929 9.0544682 -2.0920448
0.4391436 10.981521 -2.1362975
0.55447251 13.745345 -2.1788194
0.80970079 19.899967 -2.4454305
1.1077878 26.99408 -2.3636637
1.9960426 48.432362 -2.5403874
0.33768323 7.828311 -2.0995402
0.39184827 9.0473137 -2.0906951
0.4788737 10.96807 -2.1340079
0.62369204 14.171463 -2.246712
0.8770619 19.849422 -2.4395807
1.2027115 27.005974 -2.3650582
2.1869888 48.72401 -2.5560884
0.3641955 7.8097172 -2.0948815
0.43095285 9.1723461 -2.1199389
0.51863384 10.997708 -2.1401138
0.66875386 14.076462 -2.2320073
0.95189101 19.889694 -2.444943
1.2962151 26.985689 -2.3636637
0.38758725 7.7312202 -2.0741758
0.45735505 9.0910673 -2.1014926
0.55334771 10.923284 -2.125994
0.71743894 14.113623 -2.2382646
1.0181428 19.892378 -2.4456742
1.3910143 26.992939 -2.3647096
2.4876285 48.109619 -2.5246868
0.41580305 7.77812 -2.0871167
0.48991749 9.1049843 -2.105092
0.59549701 11.031171 -2.1473646
0.76390421 14.059748 -2.23013
1.0791249 19.734097 -2.4266624
1.4800766 26.980219 -2.3640122
0.44195718 7.759263 -2.0824583
0.51969224 9.0681992 -2.0969937
0.63084751 10.974145 -2.1366794
0.81343722 14.064885 -2.2313814
1.1462696 19.700485 -2.4230065
1.5749497 26.986824 -2.3650582
2.8274167 48.158871 -2.5282457
0.47312209 7.8251643 -2.1005754
0.55039483 9.0507689 -2.0933945
0.66997957 10.985593 -2.1393507
0.85321271 13.91014 -2.2072906
1.2099017 19.613146 -2.4127693
1.6681647 26.965252 -2.3636637
3.0133762 48.435753 -2.5433183
0.49833974 7.7906909 -2.0917757
0.58348793 9.0721292 -2.0987935
0.70908344 10.994943 -2.1416404
0.89729309 13.838085 -2.1963401
1.2689165 19.464199 -2.3949764
1.7620152 26.95529 -2.3633151
3.1808486 48.401028 -2.5420623
0.52649778 7.7830291 -2.0902226
0.61699736 9.0738173 -2.0996931
0.75017589 11.004022 -2.14393
0.95678085 13.962803 -2.2166767
1.3379431 19.425749 -2.3908329
1.8607936 26.94865 -2.3633151
3.3634927 48.464756 -2.5460398
0.51211911 7.197269 -1.9333783
0.64088607 8.9627562 -2.0744987
0.78970844 11.017002 -2.1469829
1.010911 14.034247 -2.2285657
1.4051664 19.413042 -2.389858
1.9505323 26.882376 -2.3580859
3.4957466 47.946762 -2.5194533
0.56758761 7.6019273 -2.0425999
0.67785561 9.036252 -2.0920448
0.83021861 11.041587 -2.1523256
1.0642126 14.087756 -2.237639
1.4759222 19.447607 -2.394733
2.0461781 26.899242 -2.3601775
3.690778 48.296707 -2.5385034
0.60541415 7.744348 -2.081423
0.70674551 9.0203552 -2.0888956
0.86382967 10.97599 -2.1401138
1.1099818 14.072335 -2.2357616
1.5397829 19.43469 -2.3937578
2.1394234 26.883991 -2.3594801
3.8118668 47.794434 -2.5127542
6.7736812 84.558205 -1.480697
0.63721144 7.8173914 -2.1016109
0.73966163 9.0353155 -2.0929446
0.90134418 10.986764 -2.1427851
1.160398 14.084124 -2.2382646
1.6043354 19.389631 -2.3888831
2.2288861 26.880722 -2.3598289
4.0651822 48.819813 -2.5673931
0.66203862 7.7862453 -2.0938461
0.76838034 8.9996681 -2.0852964
0.93182164 10.891613 -2.1248491
1.2154751 14.148871 -2.2492149
1.6730367 19.395779 -2.3903453
2.3213384 26.856897 -2.3584344
4.249743 48.968483 -2.5759759
0.67217702 7.591454 -2.0420823
0.80479258 9.0532236 -2.0983434
0.97192788 10.911759 -2.1294286
1.272419 14.229146 -2.2626684
1.732029 19.29294 -2.3784022
2.4129245 26.824816 -2.3563426
4.4073462 48.806152 -2.5682304
0.71018213 7.7141042 -2.0757289
0.83979899 9.0872269 -2.1068916
1.0067559 10.873113 -2.1225593
1.3167826 14.167578 -2.2535954
1.7953024 19.243294 -2.37304
2.5069242 26.820198 -2.3566911
4.5940928 48.965466 -2.5774415
0.74611413 7.8058085 -2.1010931
0.86127251 8.9775515 -2.0821469
1.04658 10.889073 -2.1263754
1.3555971 14.052786 -2.2360744
1.8555818 19.165779 -2.3642654
2.5997665 26.80335 -2.355994
0.77069157 7.7762423 -2.0938461
0.89797199 9.0444565 -2.0983434
1.0845864 10.885353 -2.1263754
1.3970933 13.997108 -2.2279398
1.9114166 19.082485 -2.3547597
2.6928947 26.79015 -2.3556454
0.80021393 7.8101583 -2.1036813
0.92934066 9.0393276 -2.0978935
1.1150439 10.827016 -2.1156902
1.4577247 14.10611 -2.2460864
1.9745215 19.042133 -2.350616
2.7851634 26.768694 -2.3545995
0.82312202 7.7533836 -2.0891874
0.96089053 9.0360279 -2.0978935
1.1572165 10.846283 -2.1202698
1.519926 14.19888 -2.26173
2.0492377 19.112103 -2.360122
2.8773024 26.746925 -2.3535538
0.84912652 7.7408619 -2.0865991
0.99442726 9.0363207 -2.0987935
1.1866843 10.766072 -2.1053865
1.5610166 14.116916 -2.2495279
2.1151106 19.066977 -2.3554909
2.9706562 26.736717 -2.3535538
5.4665384 49.044567 -2.5862339
0.86984086 7.6821823 -2.0715878
1.0235071 9.0252285 -2.0969937
1.2293591 10.806729 -2.1141639
1.5982029 14.027266 -2.2360744
2.1905048 19.166359 -2.3686528
3.0626121 26.714308 -2.3525076
5.6391835 49.113472 -2.5908394
0.89888901 7.7099566 -2.07987
1.0559083 9.0293436 -2.0987935
1.2649583 10.800643 -2.1137822
2.2550766 19.13888 -2.3662152
3.1520994 26.711922 -2.353205
5.8514471 49.438602 -2.6090522
0.92303336 7.6837549 -2.0736582
1.0860239 9.0139933 -2.0960939
1.2925421 10.71235 -2.0973725
1.7060601 14.098132 -2.2492149
2.3199527 19.115128 -2.3642654
3.2429252 26.680977 -2.3514619
6.0756922 49.842148 -2.6314521
0.95032173 7.6843219 -2.0746937
1.1184437 9.0178823 -2.0978935
1.3420241 10.805187 -2.1164536
1.7625898 14.150897 -2.2586012
2.3861759 19.102974 -2.3637781
3.3330789 26.645771 -2.3493702
6.2799783 50.062405 -2.644222
0.97592223 7.6713748 -2.0721054
1.1491736 9.0081253 -2.0965438
1.3867016 10.854964 -2.1271389
1.8049439 14.089796 -2.2498407
2.4541035 19.10437 -2.3649967
3.4280977 26.649784 -2.3507648
1.0061995 7.6947393 -2.0793524
1.1725061 8.9422283 -2.0821469
1.4199816 10.81502 -2.1202698
1.8409693 13.983527 -2.2338843
2.5241487 19.121273 -2.3681653
3.5169315 26.606049 -2.3479755
6.7473931 50.908325 -2.6913245
1.0320264 7.6835208 -2.0772817
1.2005857 8.9149055 -2.0767481
1.4574647 10.808051 -2.1198881
1.8781147 13.890883 -2.220118
2.5679514 18.943176 -2.3472037
3.6103003 26.597563 -2.3483243
6.9579272 51.125896 -2.7040944
1.0598981 7.6875267 -2.0793524
1.2287644 8.8894262 -2.071799
1.4930328 10.78734 -2.1168351
1.9246944 13.870546 -2.2179282
2.6108177 18.791021 -2.3294108
3.6998298 26.561117 -2.3462327
7.1716952 51.354492 -2.7174926
1.0848432 7.6801448 -2.0783172
1.2628835 8.9181032 -2.0794475
1.5196993 10.718184 -2.1042418
1.9856957 13.969695 -2.234823
2.670316 18.762609 -2.3269734
3.7862079 26.536865 -2.3451867
7.35778 51.441147 -2.7233541
1.1097471 7.6726813 -2.0772817
1.2835002 8.8521519 -2.0650506
1.5597394 10.744173 -2.1103475
2.0394037 14.013859 -2.2429576
2.7559953 18.914726 -2.3469601
3.8695738 26.492622 -2.3423977
7.5595889 51.629894 -2.7346587
1.1465018 7.7453995 -2.0979872
1.3068439 8.8073673 -2.0556028
1.5950742 10.736999 -2.109966
2.0579362 13.819451 -2.2129223
2.8227892 18.932972 -2.3503723
3.9609468 26.50329 -2.3444896
7.7366652 51.644047 -2.7367523
1.1639305 7.6509705 -2.0736582
1.3492322 8.8482866 -2.0664005
1.6245357 10.641234 -2.0924115
2.1283307 13.908711 -2.2285657
2.8765271 18.776285 -2.3323357
4.0642748 26.467485 -2.3427463
8.024745 52.137657 -2.7645948
1.2014663 7.7253351 -2.0948815
1.3773686 8.8360615 -2.0646007
1.666472 10.678464 -2.1008072
2.9544353 18.866665 -2.3447664
4.1501632 26.442053 -2.3417006
8.2317524 52.327789 -2.7761087
1.2116164 7.6240044 -2.0684819
1.418926 8.9084234 -2.0825968
1.6956939 10.634103 -2.0931747
3.0149419 18.822914 -2.3406229
4.2327857 26.396666 -2.3389113
8.4255047 52.426407 -2.7828076
1.2345018 7.5968466 -2.0622702
1.4393615 8.8380213 -2.0673003
1.7359604 10.647496 -2.0969911
2.2565906 13.810424 -2.2163637
3.0665083 18.726078 -2.3298981
4.3248959 26.381733 -2.3389113
8.636939 52.570118 -2.7920189
1.2724088 7.661097 -2.0809052
1.4657218 8.8060312 -2.0610015
1.7724739 10.637498 -2.0962276
2.3080349 13.821946 -2.2194924
3.1430006 18.78183 -2.3381853
4.413003 26.342896 -2.3368199
8.8653755 52.807522 -2.8062541
1.3020502 7.6737514 -2.0855639
1.5049474 8.850811 -2.0726991
1.8092633 10.629312 -2.0958462
2.353615 13.798227 -2.2169895
3.2028525 18.73748 -2.3340418
4.5042644 26.3234 -2.3364711
9.0847473 52.980984 -2.8171401
1.3182731 7.6082482 -2.0689995
1.5425031 8.8839035 -2.0816972
1.7085154 9.8298864 -1.9393828
2.4085481 13.828849 -2.2232468
3.2586875 18.671429 -2.3272171
4.5940728 26.29574 -2.3354251
9.3013306 53.12994 -2.8267698
1.3465071 7.6131115 -2.0715878
1.5745225 8.884222 -2.0830467
1.8854834 10.62802 -2.0981357
2.403213 13.5189 -2.1747522
3.3210545 18.644308 -2.3252673
4.680233 26.248163 -2.3326364
9.5085268 53.219051 -2.8332596
1.3572894 7.5209122 -2.0477762
1.6062208 8.8825073 -2.0839467
1.9190717 10.602056 -2.0943196
2.4644926 13.588174 -2.1872668
3.4010184 18.714632 -2.3355043
4.7675557 26.208143 -2.3305445
9.6770096 53.091225 -2.8282351
1.3936783 7.5712266 -2.0627878
1.6393311 8.8883448 -2.0866458
1.9553579 10.59143 -2.0935564
2.5129776 13.585319 -2.1882055
3.4373887 18.546497 -2.3160052
4.8568115 26.179588 -2.3294985
9.825058 52.856831 -2.8175588
1.4183186 7.5568218 -2.0601997
1.9963146 10.605762 -2.0977542
2.513895 13.329935 -2.1484711
3.4998915 18.522682 -2.3145428
4.9481721 26.162474 -2.3294985
10.087581 53.23431 -2.83954
1.4494017 7.5764923 -2.0669291
12.904162 67.26339 3.5894094
2.026288 10.562097 -2.0905035
2.6361034 13.714871 -2.2119834
3.5806725 18.59417 -2.3250237
5.0402274 26.148954 -2.3298471
10.288505 53.277206 -2.8437269
1.4824948 7.6055174 -2.0762465
1.7128987 8.7712355 -2.0632513
2.0397966 10.435498 -2.0668433
2.6839583 13.705586 -2.2119834
3.6340961 18.523119 -2.3177114
5.1291647 26.119473 -2.3288014
10.457464 53.154743 -2.8391211
1.5203191 7.6571426 -2.0917757
1.7362845 8.7288876 -2.054703
2.0708418 10.401359 -2.0615005
2.7511067 13.792995 -2.227627
3.6905506 18.469444 -2.312593
5.219533 26.097502 -2.3284528
10.627997 53.043503 -2.8351436
1.5378522 7.6063437 -2.0793524
1.7686758 8.7323236 -2.0569522
2.1122105 10.41908 -2.0664616
2.8031652 13.802668 -2.2307556
3.7340281 18.353352 -2.2996747
5.3034372 26.043983 -2.3253152
10.791546 52.900406 -2.8294914
1.571406 7.6349883 -2.0886698
1.7999318 8.7299137 -2.0578523
2.1501567 10.419333 -2.0679879
2.828131 13.680599 -2.2126093
3.7908206 18.305216 -2.2952874
5.3797646 25.955074 -2.3190401
10.990744 52.932812 -2.8332596
1.6016103 7.6464744 -2.0933285
1.8299961 8.7216711 -2.0574024
2.1905465 10.430978 -2.0718043
2.896611 13.76923 -2.2285657
3.8862181 18.441437 -2.3140552
5.4588137 25.881554 -2.3141594
11.170506 52.870674 -2.8320036
1.6109765 7.5595927 -2.0710702
1.8543248 8.6866426 -2.0506537
2.2330997 10.452066 -2.0775285
2.9417601 13.745513 -2.2263756
3.9330957 18.346237 -2.3038182
5.5528803 25.879875 -2.3157282
11.32311 52.682953 -2.8240485
1.6381713 7.5576992 -2.0721054
1.8904266 8.7067776 -2.0569522
2.2578907 10.390492 -2.0668433
2.9750218 13.667604 -2.2154253
4.0136003 18.408039 -2.313324
5.6682529 25.975182 -2.3260124
11.486455 52.549454 -2.8190243
1.6529015 7.4991102 -2.0576115
1.9087967 8.6528864 -2.0457051
2.3085511 10.447725 -2.0798182
3.0122285 13.621017 -2.2094805
4.0441365 18.257021 -2.2960186
5.7610412 25.964964 -2.326884
11.646788 52.448689 -2.8156748
1.6769185 7.4898171 -2.0565763
1.9364247 8.6347628 -2.0430055
2.3410375 10.430433 -2.0779099
3.0649462 13.633548 -2.2132351
4.1148233 18.273781 -2.2999187
5.8379087 25.904903 -2.3232236
11.774399 52.162228 -2.8024862
1.7141995 7.5328937 -2.0700347
1.9734851 8.65835 -2.0502038
2.3459978 10.284383 -2.0504336
3.0773213 13.468705 -2.1882055
4.1714959 18.228344 -2.2960186
5.9078441 25.795027 -2.3152051
11.919778 51.961185 -2.7939029
1.7291628 7.4779286 -2.0565763
2.0010605 8.6400166 -2.0475044
2.3942881 10.329684 -2.0611188
3.139509 13.523303 -2.198843
4.2413983 18.240738 -2.2994308
5.9888248 25.735435 -2.3117189
12.059388 51.740303 -2.7842731
1.7375851 7.3966198 -2.0358706
2.0517366 8.7202387 -2.0681999
2.4240341 10.294509 -2.0557761
3.1558592 13.381524 -2.177568
4.3013992 18.210367 -2.2974811
6.0845747 25.73958 -2.3139849
12.227972 51.647362 -2.7815516
1.7763945 7.445004 -2.0508821
2.0586128 8.6144638 -2.044805
2.4572117 10.274529 -2.0534863
3.2085357 13.395399 -2.1816354
4.3755765 18.239641 -2.303087
6.1832294 25.754993 -2.3172967
12.297016 51.142197 -2.7566397
1.8169308 7.4988384 -2.0674467
2.1029148 8.6659336 -2.0587521
2.4939911 10.269705 -2.0542498
3.2436011 13.336133 -2.1738136
4.4312363 18.191467 -2.2989435
6.2825255 25.771969 -2.3207831
12.372207 50.675976 -2.7338214
1.8324839 7.4493041 -2.055541
2.1312852 8.6509724 -2.0569522
2.5443952 10.320026 -2.0660799
3.2773447 13.272949 -2.1653662
4.4584889 18.029436 -2.2804193
6.3762722 25.765354 -2.3221776
12.452918 50.244762 -2.7128868
1.818693 7.2835464 -2.0115416
2.1548533 8.6170111 -2.0506537
2.559907 10.229189 -2.0496705
3.3044505 13.184784 -2.1528513
4.5523295 18.136986 -2.2960186
6.4652076 25.739073 -2.3218288
12.583417 50.022789 -2.7032571
1.8758996 7.4026217 -2.0462234
2.1925871 8.6396599 -2.0578523
2.5752988 10.140271 -2.0336425
3.3567808 13.198057 -2.1569188
4.6102271 18.099821 -2.2933376
6.5520554 25.704765 -2.3207831
12.757966 49.978558 -2.7032571
1.9022076 7.3979001 -2.046741
2.2256498 8.6432762 -2.0605516
2.6317425 10.21297 -2.0500519
3.4107311 13.216861 -2.1619246
4.6609583 18.035572 -2.2872441
6.6417489 25.681738 -2.3207831
12.9083 49.840916 -2.6982329
1.9436252 7.4510322 -2.0633056
2.2380741 8.5675783 -2.0443552
2.6624141 10.184728 -2.0462358
3.4733517 13.267939 -2.1722493
4.7198548 18.003832 -2.2852941
6.7364049 25.67767 -2.3225262
13.075107 49.768505 -2.6967676
1.972095 7.4535394 -2.0658937
2.2519975 8.4994326 -2.0299582
2.7216005 10.264562 -2.0641718
3.5024121 13.190819 -2.1616118
4.7954192 18.035208 -2.2913876
6.81883 25.627041 -2.3200858
13.158211 49.3829 -2.6783452
2.0001016 7.4540744 -2.0679643
2.2978323 8.5517445 -2.0443552
2.7609801 10.26827 -2.0668433
3.5314903 13.115566 -2.1512871
4.844913 17.968525 -2.2850504
6.917594 25.637707 -2.3232236
13.337816 49.363659 -2.6798105
2.0220537 7.4321342 -2.0638232
2.3005183 8.4440203 -2.0205104
2.7869976 10.222582 -2.0595925
3.5902476 13.150802 -2.1591089
4.8882418 17.880653 -2.276032
7.0070262 25.613409 -2.3232236
13.426685 49.012447 -2.6632726
2.0346241 7.3766117 -2.0503645
2.3382828 8.4659929 -2.027709
2.8106275 10.169269 -2.0508151
3.6514146 13.193399 -2.1681819
4.9294167 17.786963 -2.2662826
7.091073 25.569593 -2.3214803
13.451249 48.437992 -2.6345923
2.0525606 7.3415565 -2.0425999
2.3773725 8.4976025 -2.0371568
2.8657062 10.229343 -2.064935
3.6930161 13.173609 -2.1669304
4.9931984 17.78772 -2.268476
7.1845922 25.56003 -2.3228748
13.619362 48.420036 -2.6360579
2.0990024 7.4127769 -2.0643408
2.4059508 8.4855032 -2.0362568
2.8888974 10.182009 -2.0573027
3.7395086 13.162541 -2.1672435
5.0405979 17.71863 -2.2618952
7.2671251 25.5284 -2.3221776
13.718228 48.126339 -2.6226597
2.1200681 7.3886929 -2.0596819
2.4334061 8.4695606 -2.0344574
2.9363587 10.213372 -2.0656981
3.757565 13.052594 -2.1512871
5.084269 17.637983 -2.2538519
7.3506761 25.48373 -2.3204343
13.775286 47.694397 -2.6017253
2.1566308 7.4183493 -2.0700347
2.4634981 8.4628859 -2.0349073
2.9944961 10.280344 -2.0813446
3.8456905 13.185419 -2.1753781
5.1424713 17.608692 -2.2523894
7.4451823 25.477041 -2.3221776
13.784646 47.109291 -2.572417
2.1830602 7.4126282 -2.0705523
2.4731834 8.3869448 -2.0187106
3.0236981 10.247231 -2.0767653
3.860352 13.065825 -2.1578572
5.2044654 17.592541 -2.2526331
7.5329328 25.447079 -2.3218288
13.847964 46.720036 -2.5537856
2.2315619 7.4808645 -2.0917757
2.5069084 8.393198 -2.02231
3.047641 10.197113 -2.0687513
3.9025421 13.040915 -2.1559801
5.2459064 17.507711 -2.2441022
7.6194305 25.412992 -2.3211317
13.932876 46.411251 -2.5395501
2.2632504 7.4915218 -2.096952
2.5249047 8.3470917 -2.0133121
3.0553508 10.094337 -2.0500519
3.9474638 13.025324 -2.1556673
5.2873855 17.424706 -2.235815
7.7092447 25.390057 -2.3214803
14.029722 46.148315 -2.527827
2.300688 7.5205231 -2.1073048
2.5631599 8.3680391 -2.0205104
3.0911458 10.085487 -2.0504336
4.0155115 13.085114 -2.1678691
5.3551698 17.428917 -2.23874
7.7966614 25.359179 -2.3211317
14.127253 45.892906 -2.5165224
2.3412173 7.5585799 -2.1202457
2.5986981 8.3795176 -2.0254593
3.1199298 10.054012 -2.0462358
4.0722895 13.106862 -2.1738136
5.4218764 17.42907 -2.2411776
7.8898659 25.347029 -2.3225262
14.236267 45.679329 -2.5075207
2.3664334 7.5466747 -2.1192105
2.6133416 8.3239126 -2.0142117
3.1714835 10.095503 -2.056921
4.1192055 13.096334 -2.1744394
5.4486918 17.302114 -2.2272844
7.981883 25.330738 -2.3235722
14.334329 45.435078 -2.4968441
2.4126279 7.6009746 -2.1368101
2.6689432 8.3983135 -2.0344574
3.1995575 10.061921 -2.0523417
4.1169572 12.931293 -2.1494098
5.5090585 17.282988 -2.2272844
8.0581532 25.264755 -2.3200858
14.473409 45.323875 -2.4934945
2.4462383 7.6145773 -2.1430218
2.6773562 8.3240156 -2.0187106
3.1913581 9.9161329 -2.0248652
4.1687326 12.937527 -2.1528513
5.537056 17.163523 -2.214366
8.1438408 25.228891 -2.3193886
14.583635 45.124836 -2.4853301
2.4704123 7.5986428 -2.1409512
2.6883037 8.2590284 -2.0052137
3.2545307 9.9926691 -2.0428011
4.2071342 12.902236 -2.1494098
5.5778246 17.085594 -2.2068105
8.2355747 25.21167 -2.3204343
14.693848 44.929394 -2.477375
2.4901648 7.5738931 -2.1362925
2.6870379 8.1630697 -1.9840684
3.2821152 9.9650412 -2.0393667
4.239996 12.858197 -2.1444039
5.6263666 17.042498 -2.2036417
8.3128815 25.165306 -2.3186915
14.798871 44.747681 -2.4700482
2.5153697 7.5614872 -2.135257
2.6859574 8.0648937 -1.9624729
3.3274338 9.9851856 -2.0458541
4.2398396 12.708404 -2.1218774
5.6801662 17.005806 -2.201448
8.4069834 25.155031 -2.3204343
14.934711 44.635136 -2.4666986
2.5454481 7.5636458 -2.1383629
2.7943606 8.2936974 -2.0205104
3.3572538 9.9586267 -2.0428011
4.3144994 12.783365 -2.1368952
5.7026324 16.876799 -2.1873109
8.5049572 25.155733 -2.3232236
15.045592 44.450302 -2.4593713
2.5537784 7.5016804 -2.1233516
2.794378 8.1990433 -1.9998149
3.3748841 9.896677 -2.0324974
4.3603749 12.771964 -2.1375208
5.7717781 16.886848 -2.191211
8.5836945 25.099495 -2.3207831
15.182537 44.344612 -2.4564407
2.5868692 7.5128126 -2.1290457
2.7810631 8.0676441 -1.9701214
3.4138932 9.8978271 -2.0351689
4.4410338 12.86123 -2.1550415
5.8365302 16.88348 -2.1934047
8.6699486 25.065615 -2.3204343
15.320257 44.242271 -2.4537191
2.6137118 7.5055618 -2.1295633
2.8188286 8.0854893 -1.9768698
3.44842 9.88585 -2.0351689
4.5021801 12.892273 -2.162863
5.8842883 16.83115 -2.189261
8.7613335 25.046484 -2.3214803
15.445543 44.105587 -2.4491136
2.6392555 7.4945703 -2.1290457
2.8651757 8.1270618 -1.9894673
3.4868283 9.884861 -2.0374587
4.5418897 12.861579 -2.1603601
6.377718 18.040133 -2.3493974
8.8487034 25.015751 -2.3214803
15.551415 43.915844 -2.4415772
2.6569743 7.4616532 -2.1223164
2.8581944 8.0178881 -1.9651723
3.4903114 9.7857199 -2.0195224
4.5621834 12.776814 -2.1487842
6.4319611 17.993462 -2.3462288
8.9386616 24.992212 -2.3221776
15.627854 43.646935 -2.4296448
2.6731865 7.4250689 -2.1145515
2.9053285 8.0610275 -1.9782196
3.5311062 9.7919464 -2.0233386
4.6369424 12.844419 -2.162863
6.0669703 16.787275 -2.1916986
9.024498 24.957109 -2.3218288
15.774688 43.577087 -2.4288073
2.7010729 7.4211378 -2.1161046
2.9641361 8.1350622 -1.9989151
3.5538366 9.7482033 -2.0168512
4.6539803 12.752073 -2.1500356
6.1541476 16.844305 -2.2019355
9.1115532 24.925459 -2.3218288
15.904752 43.461735 -2.4254577
2.723624 7.4025998 -2.1135163
2.9487369 8.0058031 -1.9696715
3.6048119 9.7817926 -2.0263917
4.7080402 12.761695 -2.1544156
6.2333322 16.887127 -2.2102227
9.2054167 24.912188 -2.3235722
16.018919 43.30481 -2.4198055
2.7394056 7.3699875 -2.1067872
2.9908981 8.0379887 -1.9800191
3.637913 9.7716265 -2.0267732
4.7317047 12.696036 -2.1459682
6.637466 17.800076 -2.3325794
9.2893658 24.885258 -2.3239207
16.154057 43.228996 -2.4185495
2.7672276 7.3699045 -2.1093752
3.0291948 8.0590353 -1.9876676
3.6346669 9.6596422 -2.006166
4.6846976 12.443641 -2.105921
6.6827626 17.732216 -2.3267298
9.3789835 24.860138 -2.3246179
16.261114 43.056496 -2.4120598
2.803823 7.3849964 -2.1166222
3.0933273 8.1389608 -2.0101628
3.7147253 9.7636929 -2.0305893
4.8195224 12.660848 -2.1456554
6.7420511 17.692766 -2.3247797
9.4629421 24.806978 -2.3228748
16.360382 42.843613 -2.4034767
2.8260236 7.3620462 -2.1129987
3.1175432 8.1130161 -2.0065634
3.7410369 9.7305079 -2.0263917
4.8481531 12.59701 -2.1378336
6.800921 17.661713 -2.3238049
9.5408726 24.75149 -2.3207831
16.46958 42.681889 -2.397615
2.8490272 7.3490319 -2.1119635
3.1465433 8.1080847 -2.0079131
3.7704439 9.7107267 -2.0248652
4.8834624 12.564292 -2.1350179
6.858017 17.635359 -2.3233173
9.6359158 24.753132 -2.3239207
16.509495 42.366508 -2.382961
2.8754928 7.3449407 -2.1135163
3.1833704 8.1230059 -2.0142117
3.7761064 9.6305437 -2.0107453
4.8601418 12.382536 -2.1068597
6.912272 17.592838 -2.3208799
9.7135057 24.697098 -2.3218288
16.589918 42.159134 -2.374378
2.8981273 7.3235741 -2.1104105
3.2540331 8.2187462 -2.040756
3.8164446 9.6294127 -2.0134165
5.0009198 12.605177 -2.1478455
6.9604621 17.535391 -2.3164928
9.8025932 24.670448 -2.3225262
16.66757 41.905037 -2.363492
2.9251099 7.3170004 -2.1114457
3.2515516 8.1253481 -2.0205104
3.8376272 9.5850496 -2.0069292
5.0544462 12.611479 -2.1519127
7.0217252 17.502394 -2.3155177
9.8886566 24.636078 -2.3225262
16.810755 41.839184 -2.3630733
2.9455681 7.2942066 -2.1078224
3.2806709 8.1199408 -2.0218601
3.8710599 9.5715961 -2.0069292
5.1266217 12.669724 -2.1647403
7.0797234 17.479013 -2.3155177
9.9760952 24.605101 -2.3228748
16.866814 41.579624 -2.3515594
2.9639077 7.2700863 -2.1036813
3.3369694 8.1770048 -2.0389564
3.8983295 9.547801 -2.0046394
5.1678185 12.644442 -2.1634889
7.137691 17.446844 -2.3145428
10.054599 24.564514 -2.3221776
16.902822 41.25436 -2.3364866
2.978236 7.2329006 -2.0959167
3.3744054 8.1869259 -2.0443552
3.9436114 9.5631733 -2.0107453
5.1591678 12.498507 -2.141588
7.1909642 17.403477 -2.3121052
10.146379 24.543997 -2.3235722
16.997839 41.077 -2.3297877
3.006427 7.2295971 -2.0979872
3.3969736 8.1607037 -2.040756
3.9377141 9.4551096 -1.9909012
5.2415323 12.57341 -2.1575444
7.2409716 17.352619 -2.3086929
10.231998 24.508427 -2.3235722
17.041018 40.777843 -2.3161802
3.009207 7.1656241 -2.0824583
3.4201512 8.1362219 -2.0376067
3.9889631 9.4847383 -2.0000601
5.292284 12.571424 -2.1603601
7.2968793 17.316261 -2.3072307
10.311289 24.457876 -2.3221776
17.200352 40.758595 -2.3184831
3.0364623 7.1604118 -2.0840108
3.447772 8.1224394 -2.0371568
3.983674 9.3804054 -1.9809792
5.3090901 12.489244 -2.1494098
7.3526044 17.279728 -2.305768
10.396607 24.42173 -2.3221776
17.331532 40.672592 -2.3170178
3.064482 7.1568723 -2.0860815
3.5497999 8.2823057 -2.0803473
3.9575932 9.22931 -1.9519762
5.2840872 12.310897 -2.1218774
7.4128819 17.253956 -2.305768
10.499096 24.425562 -2.3260124
17.506563 40.688892 -2.321414
3.0856142 7.1372643 -2.0834932
3.5740435 8.2591343 -2.0776479
3.9851074 9.204627 -1.9496864
5.3780808 12.410191 -2.1422138
7.4620013 17.202482 -2.3023558
10.57477 24.366835 -2.3239207
17.589594 40.491985 -2.3136683
3.1089623 7.12291 -2.0824583
3.5997329 8.2394648 -2.0758483
4.010921 9.1762705 -1.9466335
5.3952417 12.331619 -2.1318891
7.5124516 17.154507 -2.2994308
10.651772 24.311522 -2.3221776
17.538321 39.991348 -2.2885468
3.1291313 7.1014075 -2.0793524
3.626111 8.2214994 -2.0744987
3.9953713 9.0544453 -1.9237365
5.4095201 12.247661 -2.120626
7.5738974 17.131809 -2.2999187
10.74564 24.283253 -2.3232236
17.653566 39.875095 -2.2854068
3.162209 7.1057749 -2.0840108
3.6191216 8.1286793 -2.0542529
4.0189428 9.0182209 -1.919157
5.4809322 12.287284 -2.1309505
7.6255589 17.087141 -2.2974811
10.817342 24.216484 -2.3204343
17.811001 39.835651 -2.2868721
3.1933253 7.1087928 -2.0881522
3.6568801 8.1331348 -2.0587521
4.1019425 9.1187267 -1.9435806
5.5578494 12.343729 -2.1440909
7.6851621 17.060417 -2.2974811
10.908355 24.193111 -2.3218288
17.885872 39.631237 -2.2787077
3.218478 7.1016817 -2.0891874
3.6934934 8.1422586 -2.0641508
4.1135001 9.0639534 -1.9348032
5.5734296 12.269475 -2.1343923
7.7384052 17.027611 -2.2965062
10.988528 24.156801 -2.3218288
17.969168 39.46629 -2.2726369
3.2444186 7.096241 -2.0907402
3.7261481 8.1423702 -2.0673003
4.132091 9.0252733 -1.9294606
5.6420636 12.311984 -2.1450298
7.7903438 16.984257 -2.2943125
11.056936 24.094879 -2.3193886
18.081614 39.36655 -2.270334
3.2578363 7.0603161 -2.0834932
3.7382078 8.0939302 -2.0583022
4.2088599 9.1088161 -1.9504496
5.6933012 12.310142 -2.1481583
7.848753 16.955156 -2.2940688
11.135958 24.045284 -2.3183427
18.18701 39.234329 -2.2663565
3.288172 7.0611591 -2.0871167
3.7746692 8.0984955 -2.0628011
4.2049551 9.0175581 -1.9340401
5.6886134 12.188165 -2.1303248
7.9028525 16.916861 -2.2926061
11.213071 23.991831 -2.3169482
18.254467 39.022255 -2.2577734
3.2996528 7.0216641 -2.0788348
3.787158 8.0517635 -2.0542529
4.2330613 8.9957199 -1.9325136
5.7530112 12.214696 -2.1384594
7.9584589 16.881998 -2.2916312
11.291656 23.941727 -2.3159022
18.322336 38.813824 -2.2493997
3.3357325 7.0345397 -2.0860815
3.821085 8.0508223 -2.0574024
4.3031759 9.0624676 -1.950068
5.6726546 11.935844 -2.0930934
8.0139322 16.846941 -2.2906563
11.375143 23.902176 -2.3159022
18.450848 38.735199 -2.2485621
3.3485961 6.9984555 -2.0788348
3.8348572 8.007555 -2.0497539
4.375504 9.1323757 -1.9683858
5.7809105 12.054899 -2.1174972
7.0814247 14.753641 -2.009382
7.0876164 14.759938 -1.4324918
18.592861 38.684963 -2.2493997
3.3771996 6.9954257 -2.081423
3.8721137 8.0134192 -2.054703
4.4970684 9.3026428 -2.0084558
5.8031697 11.993748 -2.1103013
8.1244287 16.776289 -2.2887065
7.1234627 14.702833 -1.4293542
7.125102 14.693144 -0.85579765
7.1232104 14.676192 -0.28475344
3.3999076 6.9801192 -2.0803876
3.9086001 8.0173721 -2.059202
4.5475893 9.3239431 -2.0164697
5.802536 11.886436 -2.0949705
8.1838169 16.749611 -2.2889502
11.577578 23.685085 -2.3064895
18.771212 38.367626 -2.2385137
3.4268064 6.9734111 -2.0819407
3.9417243 8.0141706 -2.0619013
4.6078434 9.3643827 -2.0286815
5.439908 11.045616 -1.9501122
8.2352085 16.706697 -2.2870002
11.667239 23.658819 -2.307884
18.871428 38.233814 -2.2345362
3.4562776 6.9717908 -2.0850463
3.9748709 8.0108376 -2.0646007
4.6169362 9.3007603 -2.0183775
8.2872849 16.665409 -2.2852941
11.739099 23.596544 -2.3057923
18.979837 38.117653 -2.2316055
3.4840508 6.9665942 -2.0871167
4.0019398 7.9951706 -2.0641508
4.5904784 9.1669712 -1.9928092
5.8833241 11.738487 -2.0796399
8.340064 16.625736 -2.2838318
12.229589 24.358173 -2.3845811
19.078703 37.983353 -2.227628
3.5113008 6.9572282 -2.0881522
4.0166469 7.9550595 -2.0574024
4.683373 9.2674837 -2.0183775
5.7791958 11.425996 -2.0280166
8.3998442 16.600063 -2.2843192
12.304633 24.295786 -2.3826637
19.122082 37.724327 -2.2165327
3.5215399 6.9173837 -2.07987
4.0457788 7.9402833 -2.0574024
4.7281742 9.275568 -2.0237205
5.830718 11.428625 -2.032084
8.4534044 16.555023 -2.2823691
12.371244 24.217199 -2.3791776
19.280918 37.710705 -2.2196729
3.5430191 6.8998928 -2.0783172
4.0636668 7.9070492 -2.0524535
4.804513 9.3445597 -2.0424197
5.7214308 11.118391 -1.9804606
8.5056906 16.514822 -2.2809069
12.45295 24.168564 -2.3786545
19.363012 37.54731 -2.2140205
3.5715265 6.8960595 -2.0809052
4.0930386 7.896276 -2.0533531
4.8506618 9.3538733 -2.0481439
5.787509 11.150949 -1.9898466
8.5614538 16.48151 -2.2804193
12.519788 24.091354 -2.3753426
19.355707 37.213707 -2.1983197
3.5910997 6.8749914 -2.0783172
4.1205788 7.8819389 -2.0533531
4.9824529 9.5265131 -2.0897403
5.8914437 11.254935 -2.0120604
8.613409 16.440971 -2.2789569
12.575139 23.992794 -2.3699389
19.489212 37.152988 -2.1987383
3.6081805 6.8551288 -2.0757289
4.1516762 7.8810244 -2.0565026
5.0068717 9.5003881 -2.0874505
6.0299897 11.432061 -2.0471017
8.6594543 16.403301 -2.2774947
12.640678 23.924534 -2.3673241
19.686096 37.243435 -2.2077403
3.6278498 6.8316178 -2.072623
4.1691027 7.8475561 -2.0515537
5.061934 9.5201111 -2.0958462
6.2370296 11.720286 -2.1027923
8.7166643 16.372971 -2.2774947
12.718475 23.869724 -2.3662784
19.717218 36.973644 -2.196017
3.6562333 6.8274293 -2.0752113
4.2070446 7.8493967 -2.0560527
5.0895658 9.4920025 -2.0935564
6.4180169 11.959529 -2.1497226
8.7766123 16.340916 -2.2774947
12.795125 23.812893 -2.3650582
19.683449 36.602047 -2.1780133
3.6827955 6.8197246 -2.0767641
4.2358327 7.8405452 -2.0574024
5.1207991 9.470727 -2.0927932
8.8212976 16.294266 -2.2750571
12.872469 23.757576 -2.3640122
19.760927 36.455807 -2.1731985
3.7072396 6.8108678 -2.0777996
4.2771573 7.8513823 -2.0641508
5.1606345 9.4692068 -2.0962276
6.4245486 11.778566 -2.125006
8.8686142 16.245947 -2.2726197
12.955962 23.723497 -2.3648839
19.868912 36.351547 -2.1711049
3.7263424 6.7894182 -2.0752113
4.2867098 7.8039522 -2.0556028
5.1851501 9.4356489 -2.0927932
6.8701997 12.49169 -2.2579753
8.9214373 16.207937 -2.2716448
13.020429 23.644974 -2.3615718
19.949402 36.198013 -2.1660807
3.7509565 6.778059 -2.0757289
4.3365831 7.8298564 -2.0664005
5.2047319 9.3934507 -2.0874505
6.9051366 12.452085 -2.2551594
8.9779634 16.176693 -2.2716448
13.084517 23.566278 -2.3582599
20.100868 36.173542 -2.1688023
3.775533 6.7666121 -2.0762465
4.3724408 7.8299823 -2.0704496
5.2374878 9.375226 -2.0874505
6.9379601 12.408938 -2.251718
9.0324335 16.141794 -2.2711573
13.153068 23.496124 -2.3558197
20.168434 35.998615 -2.1625221
3.8000755 6.7550764 -2.0767641
4.3978367 7.8112755 -2.0695498
5.2740331 9.3637314 -2.0889771
6.9754162 12.374318 -2.2498407
9.0809259 16.096334 -2.2692075
13.21852 23.411327 -2.352159
20.256653 35.861908 -2.1585445
3.8286271 6.7478209 -2.0788348
4.4202642 7.7874026 -2.0673003
5.3170524 9.3596983 -2.0924115
7.0158391 12.340084 -2.2482765
9.1292086 16.05073 -2.2672575
13.286368 23.340799 -2.3497188
20.383993 35.780483 -2.1581256
3.8521533 6.7344184 -2.0788348
4.4468427 7.767766 -2.0664005
5.3418798 9.3274546 -2.0893586
7.0470872 12.29495 -2.2445219
9.18995 16.020609 -2.267745
13.355868 23.273539 -2.3476269
20.415274 35.546307 -2.1482863
3.8679192 6.7075419 -2.0746937
4.4943843 7.7876415 -2.0758483
5.4018936 9.3563566 -2.100044
7.0543809 12.208705 -2.2332587
9.2438307 15.98499 -2.2672575
13.424052 23.204361 -2.345361
20.507215 35.41951 -2.144937
3.898104 6.7056909 -2.0783172
4.5225224 7.7735887 -2.0762982
5.4335308 9.3357477 -2.0996623
7.0880084 12.168642 -2.2304428
9.2955627 15.945773 -2.2662826
13.492931 23.136703 -2.3432693
20.548151 35.20628 -2.136354
3.9234426 6.695375 -2.0793524
4.5492601 7.7602315 -2.0767481
5.4700618 9.3234949 -2.1011887
7.0953236 12.088853 -2.220118
9.3383408 15.897741 -2.263845
13.545333 23.041374 -2.3383887
20.579744 34.993324 -2.1275613
3.9475865 6.6856556 -2.0803876
4.5545077 7.7073951 -2.0668504
5.4969516 9.2985458 -2.0996623
7.11937 12.033411 -2.2144866
9.3917589 15.861629 -2.2633576
13.587078 22.92882 -2.3317647
20.683445 34.890343 -2.1256773
3.9671216 6.6628437 -2.0777996
4.5783935 7.6864252 -2.0655005
5.5219502 9.2631578 -2.0962276
7.1735511 12.024199 -2.2176151
9.4409618 15.818524 -2.2618952
13.657844 22.865856 -2.3301959
20.7169 34.65659 -2.1160476
3.9873743 6.6439853 -2.0762465
4.6125541 7.6796179 -2.0681999
5.5411043 9.2219515 -2.0912669
7.205297 11.982158 -2.2144866
9.4998951 15.785517 -2.2621388
13.721129 22.790731 -2.3274069
20.806833 34.532738 -2.1129074
4.0125403 6.6333323 -2.0772817
4.6339622 7.6576104 -2.0664005
5.559021 9.1790428 -2.0859239
7.2603488 11.983539 -2.2191796
9.5449829 15.742047 -2.2604327
13.782001 22.712036 -2.3242693
20.892193 34.415756 -2.1099765
4.038538 6.6265874 -2.0793524
4.659647 7.6397247 -2.0659504
5.6098833 9.1940756 -2.0935564
7.312427 11.974983 -2.2223082
9.5998793 15.708632 -2.2604327
13.853081 22.659412 -2.3235722
20.968428 34.271057 -2.1055803
4.0626574 6.6140947 -2.07987
4.6880188 7.6292105 -2.0673003
5.6172633 9.1343002 -2.0843976
7.364522 11.970856 -2.2260628
9.6352701 15.649661 -2.2565329
13.926862 22.602438 -2.3227005
21.07987 34.197929 -2.105371
4.0845666 6.6005869 -2.07987
4.7207756 7.6227422 -2.0699997
5.6547589 9.127305 -2.087069
7.4156294 11.960188 -2.2288785
9.692976 15.620996 -2.2572641
14.013038 22.565531 -2.3239207
21.203341 34.13092 -2.1057897
4.1056628 6.5806565 -2.0783172
4.7514844 7.6128278 -2.071799
5.6975322 9.1215048 -2.0905035
7.4719777 11.95303 -2.2326329
9.7442827 15.582018 -2.2565329
14.074803 22.48946 -2.3211317
21.315565 34.032669 -2.1045337
4.1296387 6.5679188 -2.0788348
4.7783155 7.5937133 -2.0713491
5.7492113 9.1331282 -2.0977542
7.5031304 11.910158 -2.2295043
9.8013248 15.546201 -2.2565329
14.117805 22.375372 -2.314682
21.42568 33.944561 -2.1036963
4.156785 6.5576348 -2.0803876
4.7985334 7.567112 -2.0686498
5.7931662 9.1285734 -2.1015704
7.4831872 11.78253 -2.2107322
9.8448906 15.495134 -2.2540956
14.156265 22.26375 -2.3082325
21.425592 33.670322 -2.0915544
4.1742468 6.539659 -2.0788348
4.8288445 7.55937 -2.0708995
5.817585 9.1037121 -2.100044
7.4882412 11.709037 -2.2013459
9.894084 15.459057 -2.253608
14.239037 22.239298 -2.3103244
21.498934 33.552402 -2.0884142
4.1980953 6.5266719 -2.0793524
4.8594198 7.5490241 -2.0726991
5.8759031 9.1246128 -2.1095843
7.4038663 11.488556 -2.1647403
9.9393835 15.411077 -2.2516582
14.312255 22.182766 -2.3096273
21.488091 33.27916 -2.0760629
4.2187495 6.5087371 -2.0783172
4.8921065 7.5418239 -2.0753984
5.8809986 9.0628757 -2.100044
7.5515141 11.628309 -2.1960273
10.00176 15.389611 -2.253608
14.400466 22.14937 -2.3113701
21.59103 33.183868 -2.0748067
4.2435579 6.4972048 -2.0793524
4.9098711 7.5116525 -2.071799
5.9040051 9.0291443 -2.0969911
7.586648 11.593616 -2.194463
10.048899 15.344639 -2.2521458
14.45367 22.062307 -2.3075354
21.621325 32.978016 -2.0666425
4.2683372 6.4855785 -2.0803876
4.9371324 7.4960971 -2.0722492
5.9333286 9.0052004 -2.0962276
7.6248941 11.563766 -2.1938372
10.098022 15.302842 -2.2511706
14.517417 21.991772 -2.3054438
21.756117 32.932343 -2.0685265
4.2930846 6.4738617 -2.081423
4.9643478 7.4804392 -2.0726991
5.9668965 8.9877071 -2.0969911
7.6630287 11.533787 -2.1932113
10.138193 15.247661 -2.2482457
14.602927 21.954227 -2.306838
22.010395 33.065678 -2.0817151
4.3102884 6.4508052 -2.0788348
4.9925942 7.4663057 -2.0735989
5.9873157 8.9505072 -2.0931747
7.7153277 11.525026 -2.1966531
10.197989 15.222072 -2.2497082
14.650627 21.86009 -2.3023059
22.116793 32.975376 -2.0808778
4.3316994 6.4341187 -2.0783172
5.0229836 7.455297 -2.0753984
6.0262012 8.9409504 -2.0958462
7.7499905 11.489834 -2.1950886
10.248837 15.183093 -2.2492208
14.691171 21.755978 -2.2967281
22.106508 32.712635 -2.0691547
4.3584719 6.4253526 -2.0803876
5.0445971 7.4312692 -2.0735989
6.0673032 8.9344759 -2.0992808
7.7867174 11.457812 -2.1941502
10.292848 15.13409 -2.2472708
14.777105 21.719391 -2.2982969
22.204832 32.612148 -2.0676892
4.3841457 6.4148841 -2.0819407
5.0714102 7.4177175 -2.0744987
6.0940213 8.9067602 -2.0977542
7.8380556 11.451489 -2.1979043
10.336244 15.090052 -2.2458086
14.831433 21.636448 -2.2949848
22.380619 32.637173 -2.0739696
4.4119616 6.4098611 -2.0850463
5.0972738 7.3999681 -2.0744987
6.1257539 8.8897343 -2.0985174
7.8712568 11.414302 -2.1960273
10.382086 15.044077 -2.2443459
14.870272 21.539602 -2.2899301
22.510296 32.58186 -2.0754349
4.4288068 6.3864827 -2.0824583
5.1275163 7.388536 -2.0762982
6.1511436 8.860239 -2.0966094
7.9155574 11.393247 -2.1972787
10.43454 15.007743 -2.2443459
14.880526 21.394329 -2.2799942
22.575977 32.434231 -2.0710387
4.4466486 6.3646483 -2.0803876
5.1488113 7.3642025 -2.0744987
6.1887884 8.8483639 -2.0988991
7.9462204 11.352597 -2.1947758
10.480021 14.961481 -2.2428837
14.947108 21.330837 -2.278774
22.393198 31.93334 -2.0440333
4.4743967 6.356988 -2.0829759
5.176733 7.349371 -2.0753984
6.2252889 8.8347321 -2.1008072
7.9858027 11.324789 -2.1947758
10.529897 14.921561 -2.2423961
15.022629 21.280155 -2.2789483
22.735004 32.181229 -2.0649676
4.4999137 6.3460574 -2.0845287
