# .PCD v0.7 - Point Cloud Data file format
VERSION 0.7
FIELDS x y z
SIZE 4 4 4
TYPE F F F
COUNT 1 1 1
WIDTH 1476
HEIGHT 1
VIEWPOINT 0 0 0 1 0 0 0
POINTS 1476
DATA ascii
-26.441475 0.64621061 -3.2475746
-33.991821 0.83667153 -2.9747996
-16.208412 0.40744761 -0.28300825
-7.9254932 0.21168828 -2.1243868
-9.2375879 0.2483474 -2.1334357
-10.999964 0.29957017 -2.1389689
-13.719767 0.37603676 -2.1738136
-26.42728 0.73356068 -3.2461121
-33.984715 0.95521724 -2.9744511
-16.20689 0.46402353 -0.28300825
-7.9363332 0.23831721 -2.1274927
-9.2405615 0.28070971 -2.1343358
-11.012646 0.33646581 -2.1416404
-13.718369 0.42392579 -2.1738136
-26.35313 0.82357317 -3.2373376
-33.977375 1.0677854 -2.9741025
-16.201263 0.51763785 -0.28293839
-7.9393139 0.26614839 -2.1285279
-9.2181559 0.3106294 -2.1293867
-11.013366 0.37497219 -2.1420219
-13.710964 0.46921304 -2.1728749
-26.318514 0.9098624 -3.2334378
-33.993351 1.1870703 -2.9758456
-16.191364 0.57390475 -0.2827988
-7.948041 0.29283059 -2.1311162
-9.2364883 0.34352717 -2.1338856
-11.000291 0.41105232 -2.1397321
-13.71714 0.51736534 -2.1741264
-26.28344 1.0005182 -3.229538
-34.005154 1.3004 -2.9772398
-16.181271 0.63010508 -0.28265917
-7.9373183 0.32018355 -2.1285279
-9.2371807 0.37584817 -2.1343358
-10.990942 0.44912764 -2.1382058
-13.703408 0.56475949 -2.1722493
-26.263918 1.0915933 -3.2275879
-34.0243 1.4200904 -2.979332
-16.17098 0.68624568 -0.28251958
-7.9438734 0.34822476 -2.1305985
-9.2455463 0.40852001 -2.136585
-10.991268 0.48757511 -2.1385872
-13.68162 0.61170793 -2.1691206
-26.267879 1.1836293 -3.2285628
-34.122635 1.5435314 -2.9883962
-16.19693 0.73833042 -0.84972662
-16.168615 0.73986745 -0.28251958
-7.9310308 0.37540409 -2.1274927
-9.2421942 0.43908498 -2.1361351
-11.00715 0.52678382 -2.1420219
-13.655839 0.65593767 -2.1653662
-16.227013 0.78511345 -1.9947575
-16.232658 0.79106587 -1.4218588
-16.16993 0.79649919 -0.28258938
-7.9471064 0.40258223 -2.1321514
-9.2328215 0.47094458 -2.1343358
-11.007302 0.56338274 -2.1424036
-13.645574 0.70319194 -2.1641147
-34.001595 1.7759905 -2.9788089
-59.963306 3.1425455 -3.1468565
-16.179031 0.85356659 -0.2827988
-7.9532938 0.43212652 -2.1342218
-9.2330666 0.50327659 -2.1347857
-11.003203 0.6036154 -2.1420219
-13.650795 0.7536366 -2.1653662
-26.175018 1.4496591 -3.2188132
-34.005131 1.8952307 -2.9796803
-16.175953 0.91004103 -0.2827988
-7.9440222 0.45944008 -2.1321514
-9.2369957 0.53745383 -2.1361351
-11.002989 0.64213473 -2.1424036
-13.63625 0.80059111 -2.1634889
-26.15764 1.5448838 -3.217351
-34.017845 2.0210271 -2.9814234
-16.168518 0.96908003 -0.282729
-7.9403572 0.48843294 -2.1316338
-9.2486782 0.57053381 -2.1392844
-11.010359 0.68306905 -2.1443117
-13.625337 0.85007006 -2.1622374
-26.12435 1.6344533 -3.2139387
-34.006607 2.1395102 -2.981075
-16.173019 1.0260196 -0.28286859
-7.9367661 0.51463675 -2.1311162
-16.245222 1.0562257 0.28416011
-9.236908 0.6021806 -2.1370349
-11.019788 0.72034043 -2.1466014
-13.61456 0.89473104 -2.1609859
-26.166023 1.7287697 -3.2197883
-34.019207 2.2535868 -2.9828181
-16.181501 1.0804456 -0.28307804
-7.9445577 0.54299694 -2.1337044
-16.26956 1.1119967 0.28464878
-9.2309723 0.63254195 -2.1361351
-11.030917 0.75974959 -2.1492727
-13.603634 0.93932986 -2.1597345
-26.088856 1.8105831 -3.2110138
-34.031013 2.3737097 -2.9845614
-16.217525 1.1397271 -0.28377613
-7.9523482 0.57002997 -2.1362925
-16.365307 1.1759516 0.28639397
-9.2423134 0.66573828 -2.1392844
-11.016587 0.79547471 -2.1469829
-13.600272 0.98681009 -2.1597345
-26.078415 1.9013511 -3.2105262
-34.030903 2.4871297 -2.9852586
-16.219431 1.1967717 -0.28388086
-7.9406776 0.5970633 -2.1337044
-16.361101 1.2330666 0.28639397
-9.2379894 0.69784939 -2.1388347
-11.011786 0.83377957 -2.1466014
-13.596746 1.0342749 -2.1597345
-26.067661 1.9920685 -3.2100389
-34.025986 2.6062014 -2.9856069
-16.229111 1.2544601 -0.28412518
-7.9366198 0.62462461 -2.1331868
-16.257025 1.2823083 0.28464878
-9.2413263 0.73055279 -2.1401844
-11.018594 0.87298834 -2.1485093
-13.585175 1.0811069 -2.158483
-26.060913 2.0785019 -3.2100389
-34.040512 2.726877 -2.9876988
-16.230843 1.3087538 -0.2842299
-7.9345045 0.65094209 -2.1331868
-16.252682 1.3362122 0.28464878
-9.2388535 0.76119447 -2.1401844
-11.023464 0.91016918 -2.1500359
-13.571672 1.1253322 -2.1569188
-26.038052 2.1635976 -3.2080889
-34.039227 2.8404002 -2.9883962
-16.258295 1.3652478 -0.28478837
-7.9380765 0.6777398 -2.1347394
-9.2362776 0.7918278 -2.1401844
-11.022342 0.94688249 -2.1504176
-13.577706 1.1711806 -2.158483
-26.046162 2.2558389 -3.2100389
-34.057407 2.9556756 -2.9908364
-16.235502 1.4204235 -0.28447422
-7.9510565 0.7068153 -2.1388805
-9.2315168 0.82388836 -2.1397343
-11.01897 0.98535484 -2.1504176
-13.56173 1.217509 -2.1566057
-26.030218 2.3460312 -3.2090638
-34.078632 3.0774083 -2.9936256
-16.232435 1.477265 -0.28450912
-7.9446936 0.73421007 -2.1378453
-9.2363462 0.85682982 -2.1415341
-10.999825 1.022359 -2.1473646
-13.573133 1.2663093 -2.1591089
-25.990248 2.4339187 -3.205164
-34.075615 3.1970916 -2.9943228
-7.9401593 0.7617535 -2.1373277
-9.2410583 0.88981289 -2.1433337
-11.007914 1.0618807 -2.1496544
-13.5529 1.3121582 -2.1566057
-25.926271 2.5192518 -3.1983392
-34.076145 3.3171771 -2.9953685
-7.9432187 0.7900371 -2.1388805
-9.2320776 0.92148435 -2.141984
-11.00414 1.1002967 -2.1496544
-13.550203 1.3596562 -2.1569188
-16.930595 1.7048212 -2.0893283
-34.068325 3.4365056 -2.995717
-7.9308047 0.81676996 -2.1362925
-9.2154026 0.95069444 -2.1388347
-11.01195 1.1399149 -2.1519439
-13.539725 1.4039721 -2.1559801
-16.988031 1.7675301 -2.0971277
-34.083862 3.5582945 -2.9981575
-7.9376574 0.84408665 -2.1388805
-9.2217169 0.98388821 -2.1410842
-11.006157 1.1762173 -2.1515625
-13.542599 1.4520656 -2.1572316
-25.898956 2.7860901 -3.1983392
-34.103573 3.6747179 -3.0009465
-7.9327421 0.87157834 -2.1383629
-9.2182255 1.0160723 -2.1410842
-10.998079 1.2142009 -2.150799
-13.537447 1.4993297 -2.1572316
-16.263041 1.8069469 -2.0091381
-34.090538 3.79374 -3.0009465
-7.9219737 0.89839298 -2.1362925
-9.2281771 1.0497857 -2.1442335
-10.999409 1.2551681 -2.1519439
-13.520356 1.5452296 -2.1553543
-16.118582 1.8478785 -1.9920764
-34.092236 3.9204841 -3.002341
-7.9205465 0.92764735 -2.1368101
-9.224267 1.0836018 -2.1442335
-10.998633 1.2959341 -2.1527071
-13.514601 1.5947739 -2.1553543
-16.141272 1.9104438 -1.9957327
-34.105339 4.0487008 -3.0047812
-58.041813 6.9107842 -3.0633285
-7.9286008 0.95806199 -2.1399159
-9.2008877 1.1150566 -2.1397343
-10.988196 1.3336092 -2.1515625
-13.51847 1.6454904 -2.1569188
-16.867174 2.0590751 -2.0864034
-34.083088 4.16676 -3.0040841
-7.9328756 0.98668599 -2.1419864
-9.206809 1.1467664 -2.141984
-10.995162 1.3734174 -2.153852
-13.52078 1.6912882 -2.1581702
-16.852375 2.1140099 -2.0854285
-34.135544 4.2941623 -3.0100107
-7.9218955 1.0120082 -2.1399159
-9.2085485 1.1796427 -2.1433337
-10.971074 1.4073735 -2.1500359
-13.518711 1.738982 -2.1587958
-25.728033 3.3186533 -3.1851776
-34.113213 4.4063163 -3.0093133
-58.066616 7.5209093 -3.068562
-7.9163995 1.0394015 -2.1393983
-9.2159662 1.2133057 -2.146033
-10.973882 1.4466852 -2.1515625
-13.50081 1.7846078 -2.1569188
-25.680868 3.4037526 -3.1807899
-34.113426 4.5274653 -3.0107081
-58.012291 7.7198806 -3.0670967
-7.9088936 1.0665122 -2.1383629
-9.2058821 1.2446827 -2.1446834
-10.976546 1.4860363 -2.1530888
-13.482753 1.8301265 -2.1550415
-25.660963 3.4923048 -3.1798151
-34.10136 4.6470461 -3.0110564
-7.9242592 1.0967618 -2.1435394
-9.1997738 1.2749364 -2.1442335
-10.977127 1.5251535 -2.1542337
-13.478567 1.8750994 -2.1553543
-25.625648 3.5740907 -3.1768904
-34.124397 4.7715731 -3.0145428
-7.9224911 1.1233051 -2.144057
-9.1933374 1.3067679 -2.1437836
-10.970063 1.5612701 -2.153852
-13.477806 1.9229743 -2.1562929
-25.609087 3.6629581 -3.1764028
-34.132053 4.8880987 -3.0166347
-57.561993 8.2640514 -3.0476277
-7.9146991 1.1503955 -2.1430218
-9.204381 1.3394924 -2.1473827
-10.947063 1.597003 -2.1504176
-13.475265 1.9682293 -2.1569188
-25.577158 3.7449858 -3.1739655
-34.142384 5.0112638 -3.0190749
-57.534271 8.4548912 -3.0476277
-7.9031968 1.1754987 -2.1409512
-9.205431 1.372476 -2.1487324
-10.955299 1.6353228 -2.1530888
-13.456591 2.0135012 -2.1550415
-25.552153 3.8324721 -3.172503
-34.156204 5.1351609 -3.0218637
-57.405663 8.6407957 -3.0423942
-7.9026542 1.2050418 -2.1419864
-9.1967316 1.4040103 -2.1478326
-10.964757 1.6778435 -2.1561418
-13.445214 2.0622098 -2.1544156
-25.507227 3.9168224 -3.1686032
-34.126255 5.2525311 -3.0208178
-57.302544 8.8401775 -3.038626
-7.8964911 1.2323203 -2.1414688
-9.1876745 1.4371088 -2.1469328
-10.970472 1.7179276 -2.1584315
-13.44574 2.1103554 -2.1556673
-25.480932 4.0084343 -3.1671407
-34.154949 5.3790617 -3.0250013
-57.298958 9.0445089 -3.0400913
-7.9016805 1.2613997 -2.144057
-9.1867056 1.4681835 -2.1478326
-10.956655 1.7549695 -2.1569052
-13.446469 2.1561832 -2.1569188
-25.443979 4.0891247 -3.1642158
-34.159569 5.5020552 -3.0270932
-57.213444 9.2255545 -3.0371604
-7.9069881 1.2891504 -2.1466453
-9.187295 1.5011854 -2.1491826
-10.954649 1.7919277 -2.1576684
-13.427165 2.20119 -2.1550415
-25.425632 4.177279 -3.1637285
-34.164726 5.6191831 -3.0291848
-7.891006 1.3148382 -2.1435394
-9.1762323 1.5322809 -2.1478326
-10.954136 1.8311269 -2.158813
-13.411607 2.2467377 -2.15379
-25.403065 4.2646918 -3.1627536
-34.168484 5.742362 -3.0312767
-7.8901763 1.3430215 -2.1445746
-9.1765909 1.565286 -2.1491826
-10.943807 1.8686949 -2.1580498
-13.411471 2.2948723 -2.1550415
-25.376286 4.3513207 -3.1612909
-34.191429 5.8690133 -3.0351114
-56.523193 9.7226076 -3.005759
-7.8854403 1.3705572 -2.1445746
-9.1655893 1.5947062 -2.1478326
-10.946888 1.9085684 -2.1599579
-13.403788 2.3393342 -2.1550415
-25.357805 4.4347649 -3.1608036
-34.190361 5.9917765 -3.0368547
-7.8903632 1.3983847 -2.1471629
-9.1676426 1.6280537 -2.1496322
-10.936634 1.9441724 -2.1591947
-13.39554 2.3861084 -2.1550415
-25.314812 4.5183706 -3.1573911
-34.18885 6.1145868 -3.0385978
-56.750603 10.159919 -3.0214598
-7.8889866 1.4279833 -2.1481981
-9.1714907 1.6617799 -2.1518817
-10.921707 1.9828413 -2.1576684
-13.396421 2.4369574 -2.1566057
-25.306698 4.6081314 -3.158366
-34.182976 6.2367525 -3.0399921
-56.61475 10.349895 -3.0162263
-7.8668571 1.4523542 -2.1435394
-9.1672554 1.6957409 -2.1523318
-10.926302 2.0230956 -2.1599579
-13.374237 2.4811828 -2.1544156
-17.348326 3.2247181 -2.1665936
-34.188419 6.3611388 -3.0424325
-56.28376 10.492552 -3.0005255
-7.8769274 1.4826648 -2.1476805
-9.163497 1.7264924 -2.1527817
-10.926889 2.0626826 -2.1614842
-13.363996 2.5251536 -2.1541028
-17.403851 3.2947843 -2.1748805
-34.19733 6.4863734 -3.0452216
-56.542988 10.735021 -3.0162263
-7.8738642 1.5091413 -2.1481981
-9.1440182 1.7558941 -2.1496322
-10.91999 2.0989039 -2.1614842
-13.345401 2.5699167 -2.1525385
-25.192732 4.860477 -3.1503227
-34.210842 6.6065416 -3.0483592
-56.603214 10.951298 -3.0214598
-7.8666525 1.536249 -2.1476805
-9.1473942 1.7896729 -2.1518817
-10.908743 2.1362574 -2.1607211
-13.340226 2.6172462 -2.1531644
-25.167822 4.9468498 -3.1493478
-34.222759 6.7328424 -3.0514967
-56.223682 11.081597 -3.0032468
-7.8650317 1.5644515 -2.1487157
-9.1468258 1.8227352 -2.1532316
-10.893519 2.1727846 -2.1591947
-13.323259 2.6622515 -2.1519127
-17.415112 3.486202 -2.1807303
-34.222492 6.8569684 -3.0535886
-56.082829 11.257349 -2.9978039
-7.8538423 1.5907458 -2.1471629
-9.1423168 1.8550403 -2.1536813
-10.893564 2.2123601 -2.1607211
-13.3255 2.7111022 -2.15379
-17.496201 3.5660007 -2.1924298
-34.229588 6.9827499 -3.0563774
-7.8520255 1.6189314 -2.1481981
-9.1376953 1.8873361 -2.1541312
-10.885775 2.2503724 -2.1607211
-13.288876 2.7519929 -2.1494098
-25.095201 5.2061005 -3.1469104
-34.228413 7.1070533 -3.0584693
-55.71347 11.588425 -2.9823124
-7.8501086 1.6471221 -2.1492336
-9.1272373 1.9184197 -2.1532316
-10.88938 2.2907798 -2.1630108
-13.290786 2.8008072 -2.1512871
-17.859335 3.7700627 -2.2411776
-34.230686 7.2322559 -3.0609097
-55.62188 11.772066 -2.9795909
-7.8518672 1.6761293 -2.151304
-9.1262016 1.9514885 -2.1545811
-10.877478 2.3279581 -2.1622477
-13.273202 2.8455243 -2.1500356
-17.547176 3.7681954 -2.2036417
-34.259777 7.3634148 -3.0657904
-7.8403063 1.7022979 -2.1497512
-9.1250477 1.9845759 -2.155931
-10.853939 2.3625734 -2.1591947
-13.278628 2.8952093 -2.1525385
-17.407858 3.8018882 -2.1877987
-34.245541 7.4855208 -3.0668364
-55.491516 12.149829 -2.9770789
-7.8456349 1.7321525 -2.1528571
-9.1275778 2.0185225 -2.1581805
-10.853294 2.4021409 -2.1607211
-13.254941 2.93855 -2.1503484
-34.265877 7.6153889 -3.0710196
-55.495552 12.353887 -2.9795909
-7.8266525 1.7552011 -2.1492336
-9.1113272 2.0466423 -2.155931
-10.845268 2.4381189 -2.1607211
-13.254759 2.9846592 -2.1519127
-16.559237 3.7317822 -2.0842097
-16.500246 3.7245448 -1.4799045
-55.454285 12.537837 -2.9795909
-7.8320904 1.7837199 -2.1523392
-9.1006908 2.0759788 -2.1550312
-10.85435 2.4780028 -2.1641557
-13.252492 3.0303562 -2.1531644
-16.403574 3.7539048 -2.0661731
-16.274181 3.7302721 -1.4607302
-55.346214 12.706469 -2.976032
-7.8317795 1.8109862 -2.1538923
-9.0994511 2.1074657 -2.1563809
-10.840335 2.5126541 -2.1630108
-13.226977 3.0707133 -2.1506615
-16.410372 3.8127775 -2.0686104
-16.215149 3.7733815 -1.4565467
-55.175392 12.860013 -2.9691238
-7.811924 1.8365861 -2.1502688
-9.0935621 2.1412494 -2.1568308
-10.819588 2.5496674 -2.1607211
-13.231014 3.122802 -2.1531644
-17.579834 4.1556997 -2.2180221
-16.263254 3.847466 -1.4621247
-55.166759 13.07138 -2.9712172
-7.8073459 1.8642908 -2.1507864
-9.0917196 2.1743391 -2.1581805
-10.818258 2.5892448 -2.1622477
-13.206586 3.165745 -2.1509743
-17.491871 4.1994262 -2.20876
-16.288469 3.9135211 -1.4656109
-7.8064227 1.892898 -2.1523392
-9.082181 2.2056 -2.1577303
-10.812969 2.6279192 -2.1630108
-13.193536 3.2113554 -2.1506615
-17.41732 4.2458839 -2.2012043
-16.235998 3.9609113 -1.4621247
-54.938347 13.423001 -2.9638903
-7.8035197 1.9210618 -2.1533747
-9.0630741 2.2344906 -2.1550312
-10.811356 2.6675317 -2.1645374
-13.182246 3.2573903 -2.1506615
-17.333023 4.2894897 -2.1924298
-16.229807 4.0194736 -1.462822
-54.875648 13.610845 -2.9630527
-7.8080115 1.9510978 -2.1564806
-9.0533276 2.2656424 -2.1545811
-10.79055 2.7023928 -2.1622477
-13.18229 3.3062716 -2.1525385
-17.316019 4.3494792 -2.1921859
-16.219542 4.0770769 -1.4631705
-54.812313 13.798402 -2.9622154
-7.7955346 1.9769163 -2.1549275
-9.0585852 2.3005886 -2.1577303
-10.781053 2.7400401 -2.1622477
-13.159184 3.3493435 -2.1506615
-17.277647 4.4040179 -2.189261
-16.247684 4.1445036 -1.4670054
-54.639965 13.958026 -2.9555166
-7.7736197 2.0002649 -2.1507864
-9.0618219 2.3351107 -2.16043
-10.779026 2.7796173 -2.163774
-13.139761 3.3932784 -2.1494098
-17.323669 4.480207 -2.1970608
-16.225405 4.1991935 -1.4663082
-54.648907 14.163703 -2.9586565
-7.7684588 2.0278738 -2.151304
-9.0404177 2.3632782 -2.1572804
-10.765459 2.8162327 -2.1630108
-13.135481 3.4411268 -2.1506615
-17.346329 4.5507216 -2.2019355
-16.226063 4.2598524 -1.4677026
-54.575958 14.348271 -2.9574006
-7.7781401 2.0594306 -2.1559627
-9.028347 2.3938224 -2.1563809
-10.766949 2.8568153 -2.1653006
-13.123388 3.486958 -2.1506615
-17.351439 4.616859 -2.2046165
-16.226498 4.3205681 -1.4690971
-54.486942 14.5284 -2.955307
-7.7615762 2.0840645 -2.1533747
-9.0165949 2.4227371 -2.1554811
-10.75691 2.894382 -2.1653006
-13.111753 3.530458 -2.1506615
-17.418449 4.6965957 -2.2150974
-16.234398 4.3834152 -1.4711889
-54.403759 14.699631 -2.953423
-7.7546229 2.1097918 -2.1533747
-9.0156031 2.4562433 -2.1572804
-10.743465 2.9290049 -2.1645374
-13.11269 3.579844 -2.1528513
-17.505348 4.7856369 -2.2282593
-16.223616 4.4382787 -1.4715376
-54.448429 14.915831 -2.9586565
-7.7397604 2.1347928 -2.151304
-9.0107317 2.4887388 -2.1581805
-10.733176 2.9664891 -2.1645374
-13.084882 3.6213818 -2.1503484
-17.402452 4.8228521 -2.2172909
-16.250265 4.506597 -1.4753724
-54.338303 15.089758 -2.9555166
-7.737844 2.1633556 -2.1528571
-8.994483 2.5180757 -2.1563809
-10.730318 3.006053 -2.1660638
-13.070259 3.6665015 -2.1500356
-17.477243 4.9093413 -2.2289906
-16.245943 4.5665288 -1.4764183
-54.177635 15.249053 -2.9496548
-7.7339625 2.191406 -2.1538923
-8.9893875 2.5505188 -2.1572804
-10.715981 3.0424182 -2.1653006
-13.057382 3.7121 -2.1500356
-17.278624 4.9186859 -2.2058353
-16.245235 4.6275735 -1.4778128
-54.001148 15.403015 -2.9429557
-7.7188382 2.2162569 -2.1518216
-8.9841766 2.5829594 -2.1581805
-10.71473 3.0825226 -2.1672087
-13.046242 3.7582033 -2.1503484
-17.324291 4.9971218 -2.2138786
-16.286407 4.7008271 -1.4830421
-53.927868 15.585863 -2.9419091
-7.7129102 2.243727 -2.1523392
-8.9732342 2.6137595 -2.1577303
-10.690711 3.1160572 -2.1645374
-13.034942 3.8042746 -2.1506615
-17.422972 5.0915303 -2.2287467
-16.269899 4.7576532 -1.4830421
-53.842468 15.765034 -2.9402344
-7.7124434 2.2728209 -2.1544099
-8.9677944 2.6461694 -2.1586304
-10.6873 3.1555798 -2.1660638
-13.015899 3.8480718 -2.1497226
-17.302307 5.1218901 -2.2155848
-16.272297 4.8200722 -1.4847852
-53.710514 15.930167 -2.9360473
-7.7007613 2.2986238 -2.1533747
-8.9547682 2.6763408 -2.1577303
-10.679982 3.1939919 -2.1668272
-12.994817 3.8912158 -2.1484711
-17.510597 5.2500987 -2.2445898
-16.263006 4.8791337 -1.4854825
-53.669876 16.122164 -2.9368846
-7.7056346 2.3294017 -2.1569982
-8.937911 2.7053244 -2.155931
-10.672526 3.232388 -2.1675904
-12.99628 3.9411395 -2.1509743
-17.704905 5.3757854 -2.2718885
-16.261126 4.9405069 -1.486877
-53.6171 16.310562 -2.9370942
-7.6900673 2.3540235 -2.1549275
-8.9321394 2.7376471 -2.1568308
-10.661178 3.2696254 -2.1675904
-12.982444 3.9864781 -2.1509743
-17.619621 5.4171367 -2.2633576
-16.266634 5.0042658 -1.4889687
-53.525482 16.487041 -2.93521
-7.6762676 2.3791392 -2.1533747
-8.9318352 2.7716975 -2.1590803
-10.6422 3.3044915 -2.1660638
-12.970335 4.0323577 -2.1512871
-17.61577 5.4833241 -2.2653077
-16.256674 5.0633903 -1.489666
-53.132027 16.569128 -2.9167879
-16.241085 5.0678644 -0.29697016
-7.6642299 2.4047613 -2.1523392
-8.9263134 2.8024693 -2.1599801
-10.638093 3.3439722 -2.1675904
-12.955008 4.0747547 -2.1509743
-17.659971 5.5613875 -2.273351
-16.280706 5.1332874 -1.4935008
-16.456738 5.1919479 -0.90436542
-7.6617374 2.4319172 -2.1538923
-8.9109049 2.8318405 -2.1586304
-10.630687 3.3804212 -2.1683536
-12.935057 4.1181536 -2.1500356
-16.486736 5.2552457 -2.1246703
-16.290169 5.195724 -1.4959412
-53.018017 16.930391 -2.9167879
-16.585274 5.2994161 -0.30391622
-7.6421657 2.455102 -2.1507864
-8.8958988 2.8595855 -2.1572804
-10.618822 3.4175091 -2.1683536
-12.923209 4.1616306 -2.1503484
-17.767185 5.7283702 -2.2921188
-16.294685 5.259901 -1.4980329
-52.961582 17.106115 -2.9167879
-16.791191 5.4298816 -0.30803499
-7.6408987 2.4841526 -2.1528571
-8.8816519 2.8909655 -2.1563809
-10.599361 3.4521232 -2.1668272
-12.904114 4.2077446 -2.1497226
-17.546038 5.7281537 -2.2662826
-16.30274 5.3254061 -1.5004733
-52.841572 17.281504 -2.9136477
-7.6285105 2.5095999 -2.1518216
-8.8807611 2.924999 -2.1586304
-10.590977 3.4903276 -2.1675904
-12.881844 4.2502871 -2.1484711
-17.72197 5.8541174 -2.2916312
-16.295403 5.3860321 -1.5015191
-52.799892 17.472113 -2.9146943
-7.6178703 2.535603 -2.151304
-8.8723459 2.9565949 -2.1590803
-10.575003 3.5260365 -2.1668272
-12.866929 4.2952275 -2.1484711
-17.656239 5.9008417 -2.2857816
-16.28784 5.4466729 -1.502565
-52.662827 17.630951 -2.9105074
-7.6089725 2.562181 -2.151304
-8.8638182 2.9881701 -2.1595302
-10.56263 3.5629289 -2.1668272
-12.844373 4.337585 -2.1472197
-16.727242 5.6553516 -2.1680558
-16.295149 5.5124335 -1.5050054
-52.555561 17.799297 -2.9079955
-7.5999827 2.5887241 -2.151304
-8.8422661 3.0153205 -2.1568308
-10.555702 3.6016803 -2.1679718
-12.832891 4.3836741 -2.1478455
-16.637905 5.6899362 -2.1590376
-16.298429 5.5770216 -1.5070971
-52.428867 17.960623 -2.9044366
-7.6036859 2.6196423 -2.1549275
-8.8335285 3.0468032 -2.1572804
-10.544922 3.6391425 -2.1683536
-12.828712 4.4323134 -2.1497226
-16.565411 5.7298136 -2.1522129
-16.301455 5.6416988 -1.5091888
-52.263947 18.108231 -2.8987844
-7.6017923 2.6487112 -2.1569982
-8.8302002 3.0801849 -2.1590803
-10.524741 3.6733418 -2.1668272
-12.80757 4.4751096 -2.1487842
-17.420357 6.0936971 -2.2660389
-16.311754 5.7090955 -1.5119779
-52.305969 18.327541 -2.9046459
-61.573658 21.598988 -1.138979
-7.5815687 2.6713767 -2.1538923
-8.8157196 3.1096933 -2.1581805
-10.519258 3.7126739 -2.1683536
-12.797459 4.5217633 -2.1497226
-17.485067 6.184916 -2.2772508
-16.302996 5.7699885 -1.5130236
-52.188969 18.491323 -2.901715
-7.5667377 2.6958818 -2.1523392
-8.8084812 3.1417563 -2.1590803
-10.506235 3.7493682 -2.1683536
-12.770435 4.5624204 -2.1478455
-17.375523 6.2144928 -2.265795
-16.335278 5.8456621 -1.5179044
-52.11282 18.669344 -2.901087
-7.5609169 2.7235882 -2.1533747
-8.7906809 3.1683064 -2.1572804
-10.504165 3.7900171 -2.1706433
-12.755235 4.604744 -2.1478455
-17.330547 6.2633076 -2.2626264
-16.326015 5.9067106 -1.5189503
-52.095695 18.858372 -2.9035993
-7.5681801 2.7545924 -2.1580334
-8.7795687 3.1989703 -2.1572804
-10.486005 3.8228123 -2.1694984
-12.744652 4.6512723 -2.1487842
-17.172466 6.2740355 -2.2448335
-16.366219 5.982707 -1.5245281
-52.194607 19.100508 -2.9128103
-7.5530806 2.7789929 -2.1564806
-8.772006 3.230947 -2.1581805
-10.46707 3.8573556 -2.1683536
-12.732044 4.6970987 -2.1494098
-17.170946 6.3415022 -2.2475147
-16.341497 6.0384188 -1.5241796
-52.071419 19.261799 -2.9096701
-7.5306597 2.8006258 -2.1528571
-8.7643261 3.2629073 -2.1590803
-10.459062 3.8959227 -2.1694984
-12.710016 4.7394428 -2.1484711
-17.105932 6.3854394 -2.2419088
-16.372581 6.114944 -1.5290602
-51.914066 19.409872 -2.9046459
-7.5316868 2.8309736 -2.1559627
-8.7419405 3.2893612 -2.1563809
-10.449073 3.9337914 -2.1702616
-12.686004 4.7809916 -2.1472197
-17.059393 6.4360023 -2.23874
-16.395874 6.1889405 -1.5332438
-51.875885 19.602262 -2.9063206
-7.5235653 2.8579354 -2.1564806
-8.7304058 3.3198564 -2.1563809
-10.451792 3.9765279 -2.173696
-12.672929 4.8266511 -2.1478455
-16.997871 6.4806566 -2.2336216
-16.407679 6.2589173 -1.5363814
-51.930298 19.830238 -2.913229
-7.5135441 2.8841784 -2.1564806
-8.7133064 3.3482144 -2.1550312
-10.430518 4.0101671 -2.1721697
-12.654159 4.8701525 -2.1475327
-17.012192 6.554224 -2.2384963
-16.434063 6.3347893 -1.5409135
-51.886845 20.021458 -2.9146943
-7.5088329 2.9124837 -2.1580334
-8.7106485 3.3821356 -2.1572804
-10.405476 4.0422864 -2.1698802
-12.64997 4.9193025 -2.1497226
-17.031759 6.6301317 -2.2441022
-16.448984 6.4065742 -1.5443997
-51.760811 20.180702 -2.9115543
-7.4950237 2.9372673 -2.1569982
-8.7060461 3.4153678 -2.1590803
-10.40044 4.0821705 -2.1717882
-12.618013 4.9576511 -2.1472197
-17.015898 6.6924534 -2.2450771
-16.415396 6.4595761 -1.5433538
-51.671471 20.353941 -2.9105074
-7.4847255 2.9634104 -2.1569982
-8.6904488 3.4443014 -2.1581805
-10.387954 4.1191716 -2.1721697
-12.593287 4.9987507 -2.1459682
-16.85223 6.6960964 -2.226553
-16.477915 6.5506954 -1.5513722
-51.681759 20.566664 -2.915113
-7.4689536 2.9873688 -2.1554451
-8.6657095 3.4695435 -2.1550312
-10.388089 4.1612501 -2.1752226
-12.583097 5.0456176 -2.1472197
-16.729273 6.714951 -2.2133911
-16.480833 6.6185656 -1.5538126
-51.56889 20.730556 -2.9128103
-7.4746017 3.0199356 -2.1601038
-8.6679983 3.5056167 -2.1586304
-10.366221 4.1945405 -2.173696
-12.569067 5.0909963 -2.1478455
-17.459984 7.0791121 -2.313324
-16.468704 6.680552 -1.5548583
-51.444393 20.8894 -2.9098794
-7.4568596 3.0430868 -2.1580334
-8.659934 3.5358152 -2.1595302
-10.340613 4.2262411 -2.1714065
-12.555773 5.1341414 -2.1484711
-17.425388 7.1324658 -2.3118618
-16.467409 6.7470622 -1.5569501
-51.419193 21.078064 -2.9123917
-7.4610176 3.0736852 -2.1621742
-67.80883 27.948772 1.2802038
-8.6511412 3.5675082 -2.16043
-10.333801 4.2635045 -2.1729329
-12.530471 5.1749258 -2.1472197
-17.453588 7.2152376 -2.3189301
-16.500179 6.8244791 -1.5621796
-51.168152 21.184069 -2.902343
-7.4306235 3.0915477 -2.1564806
-8.6392632 3.5961771 -2.16043
-10.333353 4.3055906 -2.1759858
-12.509596 5.2149267 -2.146594
-17.526661 7.3135929 -2.3318481
-16.513025 6.8973927 -1.5656657
-51.075508 21.344391 -2.901087
-7.4465017 3.1286914 -2.1642449
-8.6224327 3.6263072 -2.1595302
-10.32188 4.3431582 -2.1767492
-12.495859 5.2630424 -2.1475327
-17.368036 7.3222632 -2.3142991
-16.51088 6.9642806 -1.5677575
-51.037403 21.548552 -2.9033897
-7.4408708 3.1569273 -2.1657977
-8.6168966 3.6594303 -2.1613297
-10.297624 4.3753214 -2.1748412
-12.486501 5.3104954 -2.149097
-17.486662 7.4442658 -2.3335543
-16.508465 7.0312405 -1.5698493
-50.936157 21.715597 -2.9019244
-7.4298048 3.1828835 -2.1657977
-8.6094427 3.6917884 -2.1626794
-10.28409 4.4120164 -2.1752226
-12.476964 5.3579464 -2.1506615
-17.281843 7.4284372 -2.3096681
-16.524088 7.1061406 -1.5736841
-50.790337 21.86326 -2.8979468
-17.008957 7.3287311 4.9625969
-7.40801 3.2041974 -2.1626918
-8.6007299 3.7218661 -2.1635792
-10.274032 4.4502287 -2.1763675
-12.448253 5.3945799 -2.1487842
-0.92156613 0.39956135 0.12333179
-17.027649 7.3861699 -2.2789569
-16.506493 7.1669512 -1.5743814
-50.743202 22.042709 -2.8994122
-16.986002 7.3821969 4.2758698
-16.983273 7.3880596 4.9625969
-7.3867216 3.2241094 -2.1595864
-8.5859013 3.7510858 -2.1631293
-10.261017 4.4850612 -2.1767492
-12.422108 5.4348292 -2.1475327
-0.82924032 0.36297581 0.11114486
-16.790833 7.3531909 -2.2506831
-16.474075 7.2213273 -1.5736841
-16.952408 7.4310021 3.5978947
-50.55986 22.173178 -2.8933413
-7.3695512 3.2488217 -2.1580334
-8.5763197 3.7826085 -2.1640291
-10.251694 4.5258088 -2.1782756
-16.978733 7.4991364 1.6238856
-12.412944 5.4851155 -2.1494098
-0.80981094 0.35784477 0.10870746
-16.712412 7.3884764 -2.2436149
-16.481562 7.2933006 -1.5768217
-50.41251 22.329222 -2.8895731
-7.3687563 3.2792399 -2.161139
-16.932726 7.5389376 0.3235327
-8.5606184 3.8132217 -2.1635792
-16.995211 7.5738606 0.97512358
-10.23942 4.5631647 -2.1790388
-16.952454 7.5583577 1.6238856
-12.404547 5.533237 -2.1512871
-0.79399186 0.35433856 0.10675755
-16.647152 7.4326887 -2.2384963
-16.492388 7.3670368 -1.5803078
-16.889017 7.5583601 -0.32297423
-7.350215 3.3017771 -2.1590683
-16.968323 7.6258645 0.32471949
-8.5561419 3.8470767 -2.1658287
-10.219847 4.597271 -2.1782756
-12.392361 5.5797477 -2.1525385
-0.79998988 0.36036924 0.10773251
-16.612061 7.4866724 -2.2372777
-16.46294 7.422924 -1.5799593
-16.861027 7.609499 -0.96947134
-16.86253 7.6172681 -0.32297423
-7.3368859 3.3266146 -2.158551
-8.5533094 3.8817525 -2.1685281
-10.209102 4.6353502 -2.1794205
-12.36921 5.6213398 -2.1519127
-0.79511303 0.36151609 0.10724504
-16.578106 7.537611 -2.236059
-16.451435 7.4869518 -1.5813538
-16.874348 7.6865234 -0.9717741
-7.3240571 3.3501227 -2.1580334
-8.5510206 3.9149623 -2.1712275
-10.195458 4.6699972 -2.1798022
-12.332546 5.6540918 -2.1487842
-0.77767074 0.3567023 0.10505138
-16.569258 7.5999932 -2.2382526
-16.46273 7.5580873 -1.5848399
-49.845779 22.905413 -2.8749189
-7.3129077 3.3743904 -2.1580334
-8.522069 3.9359436 -2.1671786
-10.190611 4.7087197 -2.182092
-12.313729 5.6949582 -2.1487842
-0.76387244 0.35344404 0.10334522
-16.557039 7.6644564 -2.2402024
-16.472403 7.6322594 -1.5883262
-49.80579 23.087381 -2.8770125
-7.2934852 3.3979092 -2.1559627
-8.5171089 3.9697814 -2.1694279
-10.164387 4.7418914 -2.1801836
-12.307092 5.746738 -2.1512871
-0.76982874 0.35946786 0.10432017
-16.555365 7.7339678 -2.2436149
-16.467319 7.6998401 -1.590418
-49.720833 23.269775 -2.8770125
-7.2780848 3.4217024 -2.1549275
-8.5077915 4.0034633 -2.1707778
-10.140668 4.7739954 -2.1786571
-12.283383 5.7879791 -2.1506615
-0.77209723 0.36397973 0.10480764
-16.589317 7.8204861 -2.2519019
-16.447548 7.7606754 -1.5911152
-49.603184 23.426136 -2.8749189
-7.2684431 3.4466467 -2.1554451
-8.5032711 4.0358319 -2.1730273
-10.131876 4.810966 -2.1801836
-12.271257 5.8320718 -2.1519127
-0.78164256 0.37165263 0.10627007
-16.454105 7.8305874 -1.5942529
-49.561287 23.607676 -2.8770125
-7.2656875 3.4748983 -2.1580334
-8.4968719 4.0673738 -2.1748266
-10.11502 4.8463035 -2.1801836
-12.250069 5.8718796 -2.1515999
-0.76608646 0.36737582 0.10432017
-17.530813 8.4106436 -2.3874207
-16.476963 7.9121208 -1.5991336
-49.658592 23.867054 -2.8874795
-7.256382 3.5031853 -2.1590683
-8.4696255 4.0925522 -2.1716774
-10.113096 4.8910375 -2.1836183
-12.235579 5.9201779 -2.1528513
-0.75758761 0.36672175 0.10334522
-17.464136 8.4575367 -2.3825459
-16.462193 7.9794145 -1.600528
-49.534851 24.031454 -2.8853862
-7.2417569 3.5289114 -2.158551
-8.4633265 4.1278391 -2.1739271
-10.081846 4.9194217 -2.1805654
-12.226224 5.9710522 -2.1550415
-0.76158923 0.37211016 0.10407643
-17.521904 8.5611477 -2.394489
-16.487936 8.0630856 -1.6057575
-49.271267 24.116425 -2.8749189
-7.2265472 3.551203 -2.1575158
-8.4565859 4.1593227 -2.1757267
-10.065476 4.9528279 -2.1805654
-12.208127 6.0124359 -2.1553543
-0.75857043 0.37375629 0.10383269
-17.358084 8.5525265 -2.3759649
-16.478973 8.1265326 -1.6075004
-49.370129 24.368071 -2.8853862
-7.2078071 3.5717168 -2.1554451
-8.4514761 4.1916699 -2.1779761
-10.059549 4.991415 -2.1828551
-12.191662 6.0546412 -2.1559801
-0.75554901 0.37538651 0.10358895
-17.315681 8.6068811 -2.3742588
-16.451935 8.1811352 -1.6075004
-7.2039347 3.6011739 -2.1580334
-8.4333067 4.2194037 -2.1770763
-10.045576 5.0282569 -2.1836183
-12.159855 6.091856 -2.1541028
-0.75778341 0.37980053 0.10407643
-17.423946 8.7366695 -2.3932703
-16.462458 8.2581635 -1.6113354
-7.1982222 3.6297765 -2.1601038
-8.4115667 4.2453036 -2.1752765
-10.027964 5.0632896 -2.1836183
-12.147331 6.1387196 -2.1556673
-0.75291002 0.38065189 0.10358895
-17.333115 8.7669802 -2.3849833
-16.471188 8.3382397 -1.6151702
-7.1865902 3.6570127 -2.1606214
-8.4001722 4.2764068 -2.1761765
-10.011086 5.1009035 -2.1839998
-12.12827 6.1849928 -2.1562929
-0.74273461 0.37876862 0.10237025
-16.523605 8.4373636 -1.6231885
-7.1686258 3.6794286 -2.1590683
-8.3896408 4.3098397 -2.1775262
-9.9827442 5.1304312 -2.1817102
-12.127685 6.2381363 -2.1600473
-0.75369698 0.38784668 0.10407643
-17.234638 8.872611 -2.3801084
-16.489027 8.496048 -1.6228399
-7.1550922 3.7056782 -2.1590683
-8.3849268 4.3444777 -2.1802256
-0.97880512 0.50736415 0.057778902
-9.9795589 5.1751199 -2.1851447
-0.93025929 0.48261276 0.091687836
-12.097727 6.2789016 -2.1587958
-0.75762433 0.3932184 0.10480764
-15.695496 8.1496801 -2.1714683
-7.1393385 3.7275968 -2.1580334
-0.90927219 0.4749521 0.017906168
-8.3990726 4.3890619 -2.1878741
-0.89923102 0.46990669 0.053173337
-9.9832201 5.2191 -2.1897242
-0.88275069 0.46168724 0.087155737
-12.097842 6.3299747 -2.1625502
-0.75448847 0.39494005 0.10456391
-0.87381005 0.45817715 -0.051707931
-7.2305541 3.8073993 -2.1896091
-0.87584358 0.46119374 0.017277883
-0.92938942 0.48980409 0.055057433
-0.92695284 0.48893344 0.091687836
-12.111729 6.3884902 -2.1688077
-0.7479077 0.39466059 0.10383269
-0.94269794 0.49765939 -0.13088769
-0.8385303 0.44304234 -0.082972266
-0.86169136 0.45547223 -0.051079899
-0.85728061 0.45352346 -0.016928835
-0.86682928 0.46012503 -0.26296017
-0.82830918 0.43986359 0.016370358
-0.8312211 0.44159597 -0.21730271
-0.87131834 0.46289808 0.051707931
-0.82866645 0.44042397 -0.1824134
-0.83736753 0.44523615 0.082972266
-0.88594812 0.47126526 -0.15893744
-0.74477303 0.39633632 0.10358895
-0.86385649 0.45990092 -0.12016319
-0.83705652 0.4458206 -0.082972266
-0.82132143 0.43780813 -0.048777115
-0.84165615 0.44883621 -0.016649596
-0.87543684 0.4686183 -0.26606598
-0.85152799 0.45581996 0.016859025
-0.85036713 0.45538977 -0.22270155
-0.82744479 0.44330019 0.049195804
-0.84442782 0.45258844 -0.1862296
-0.81122571 0.43497539 0.080531903
-0.83911693 0.44993052 -0.15080284
-0.74345464 0.39880389 0.10358895
-0.85533005 0.45900837 -0.11918823
-0.83198476 0.44685435 -0.082623646
-0.83042133 0.44620138 -0.04940515
-0.80838293 0.43472344 -0.016021309
-0.83307445 0.44950238 -0.25364268
-0.8147378 0.43979231 0.01616093
-0.8316254 0.44909564 -0.21820252
-0.82940686 0.44808429 0.04940515
-0.82910401 0.44792068 -0.18317664
-0.79225117 0.42818993 0.078788787
-0.83059067 0.44909868 -0.14955136
-0.75253427 0.40706328 0.10505138
-0.82928067 0.44876453 -0.11577588
-0.67922384 0.36771467 0.12233177
-0.8339237 0.45165348 -0.082972266
-0.82885867 0.44909739 -0.04940515
-0.79279763 0.42991659 -0.015742071
-0.84160191 0.45809439 -0.2567485
-0.81671041 0.44454566 0.016230738
-0.82320708 0.44826788 -0.21640292
-0.82432979 0.44906601 0.049195804
-0.8171134 0.44531974 -0.18088694
-0.79417509 0.43299806 0.079137415
-0.82026815 0.44741046 -0.14798702
-0.74413776 0.40588558 0.10407643
-0.83467931 0.45545995 -0.11675084
-0.83758795 0.45742661 -0.0834952
-0.82895976 0.45309001 -0.04950982
-0.79831022 0.43651885 -0.015881689
-0.82644951 0.45359325 -0.25260741
-0.8150757 0.44753587 0.016230738
-0.78568989 0.43157968 -0.20695497
-0.82450771 0.45290232 0.049300473
-0.80695111 0.44344157 -0.17897885
-0.78218311 0.43000862 0.078091539
-0.8290866 0.45598271 -0.14986424
-0.74438447 0.40956706 0.10432017
-0.82952625 0.45660171 -0.11626337
-0.84969383 0.46770269 0.15361866
-0.80282587 0.44208741 -0.080183282
-0.81512862 0.44923297 -0.048777115
-0.79503042 0.43833736 -0.015846785
-0.82486117 0.45647535 -0.25260741
-0.7978403 0.44152209 0.015916595
-0.78766423 0.43607053 -0.20785476
-0.81768036 0.45287442 0.048986461
-0.79337746 0.43959516 -0.17630751
-0.78416234 0.43466839 0.078440167
-0.8137483 0.45106813 -0.14736128
-0.73955011 0.41010788 0.10383269
-0.80023378 0.44394186 -0.11236355
-0.77551365 0.43040526 0.14047816
-0.83437419 0.46326274 -0.0834952
-0.81014246 0.44999373 -0.048567772
-0.78999996 0.43916649 -0.015776975
-0.81153256 0.45262122 -0.24898393
-0.79804045 0.44527876 0.015951499
-0.80315334 0.44831541 -0.2123538
-0.79168141 0.44209307 0.047521055
-0.79534352 0.44413808 -0.17707075
-0.77749854 0.4343513 0.077917233
-0.81734198 0.45679688 -0.14829989
-0.74677742 0.41753072 0.10505138
-0.79694664 0.44576365 -0.1121198
-0.79124504 0.44275558 0.14360686
-0.81023037 0.45337918 -0.08122915
-0.77894247 0.43622878 -0.04678835
-0.78671777 0.44094375 -0.015742071
-0.80489594 0.45261055 -0.24743101
-0.79822409 0.4490422 0.015986405
-0.79818696 0.44920471 -0.21145399
-0.79883528 0.44975317 0.048044413
-0.78865612 0.44402218 -0.17592591
-0.75688207 0.42630702 0.075999804
-0.78820688 0.44413167 -0.14329399
-0.75742024 0.42695844 0.10675755
-0.79711503 0.44951773 -0.11236355
-0.79657656 0.44939736 0.14485833
-0.77046657 0.43466714 -0.077394299
-0.7948069 0.44876477 -0.047835067
-0.78169185 0.44171986 -0.015672261
-0.8016308 0.45446452 -0.24691339
-0.7844758 0.44492015 0.015742071
-0.78305471 0.44429475 -0.20785476
-0.80420828 0.45648259 0.048463102
-0.7751497 0.43998846 -0.17325458
-0.76058698 0.43189791 0.076522738
-0.79867482 0.45371038 -0.14548407
-0.75937694 0.43156141 0.10724504
-0.79899234 0.45425972 -0.11285102
-0.894593 0.50881922 0.16300473
-0.817536 0.46536911 -0.049300473
-0.77840769 0.44345576 -0.015637357
-0.80507106 0.46013603 -0.2484663
-0.76208645 0.43574476 0.015323212
-0.77134979 0.44121978 -0.20515537
-0.77531308 0.44366664 -0.1736362
-0.76599115 0.4385097 0.077219985
-0.77823049 0.4456965 -0.14204252
-0.74753129 0.42828843 0.1057826
-0.76295686 0.43730316 -0.10797625
-0.80712891 0.4628084 0.14736128
-0.79161096 0.45391041 -0.079834662
-0.78645772 0.45132032 -0.047521055
-0.78032309 0.44816205 -0.015707165
-0.80178612 0.461979 -0.24794866
-0.7796182 0.44938713 0.015707165
-0.76811659 0.44293627 -0.20470546
-0.78205025 0.45097116 0.047311708
-0.77886146 0.44931346 -0.17478105
-0.79206604 0.45711496 0.080008969
-0.77495909 0.4474228 -0.14172964
-0.75634557 0.43685231 0.10724504
-0.77861375 0.44989499 -0.11041363
-0.83979756 0.48524794 0.15361866
-0.77794713 0.44969124 -0.078614481
-0.76240313 0.4410609 -0.046160318
-0.77017891 0.44573894 -0.015532642
-0.79682773 0.46283418 -0.24691339
-0.78331119 0.45498314 0.015811879
-0.78012317 0.45331353 -0.20830467
-0.77874458 0.45269457 0.047207039
-0.77728844 0.45202926 -0.17478105
-0.77152187 0.4488562 0.078091539
-0.78200841 0.45495707 -0.14329399
-0.75489277 0.43935806 0.10724504
-0.78569502 0.45746875 -0.11163233
-0.7527523 0.43846413 0.13797522
-0.77120829 0.44939467 -0.078091539
-0.7868185 0.45867467 -0.047730397
-0.77380002 0.45144776 -0.015637357
-0.79028672 0.46254656 -0.24536048
-0.78171819 0.45771465 0.015811879
-0.79366946 0.46489865 -0.2123538
-0.78922212 0.46247837 0.04793974
-0.77917278 0.45658952 -0.17554428
-0.77002919 0.45141202 0.078091539
-0.78723127 0.46168125 -0.14454547
-0.73794508 0.43294963 0.10505138
-0.78922933 0.46322304 -0.11236355
-0.9215613 0.54110932 0.16926211
-0.77143192 0.45295849 -0.078265861
-0.80587608 0.47356123 -0.048986461
-0.78600919 0.46225572 -0.015916595
-0.81196123 0.47904545 -0.25260741
-0.78183782 0.46145704 0.015846785
-0.78700775 0.46469364 -0.21100408
-0.79620123 0.47030941 0.048463102
-0.78940684 0.46629602 -0.17821561
-0.7718792 0.45612463 0.078440167
-0.79411739 0.46945247 -0.1461098
-0.73130333 0.43249139 0.10432017
-0.79614985 0.47102934 -0.11358224
-0.80242324 0.47492969 -0.08157777
-0.80249965 0.47535351 -0.048881788
-0.77579004 0.45989794 -0.015742071
-0.80696326 0.47990194 -0.25157213
-0.7870965 0.4682731 0.015986405
-0.77700788 0.46245462 -0.20875457
-0.78769028 0.46899867 0.048044413
-0.78946131 0.47005317 -0.17859723
-0.76857078 0.45779645 0.078265861
-0.78738296 0.46918812 -0.1451712
-0.73319942 0.43707442 0.10480764
-0.77404159 0.46160439 -0.11065737
-0.7990495 0.47670698 -0.081403457
-0.7733978 0.46176979 -0.047207039
-0.78447932 0.46875775 -0.015951499
-0.79037052 0.47377667 -0.24691339
-0.78888702 0.47307456 0.016056214
-0.77204669 0.46315908 -0.20785476
-0.78776085 0.47277316 0.048149083
-0.77434874 0.46472391 -0.17554428
-0.7891742 0.47380874 0.080531903
-0.77219319 0.46379694 -0.14266825
-0.74017704 0.4447431 0.10602634
-0.77582836 0.46634889 -0.11114486
-0.77006137 0.4630653 -0.078614481
-0.76493627 0.46034703 -0.04678835
-0.76570839 0.4611761 -0.015602452
-0.78705841 0.47553366 -0.24639574
-0.78723079 0.47582543 0.016056214
-0.76542258 0.46282604 -0.20650508
-0.7826879 0.47345266 0.04793974
-0.77104199 0.46640792 -0.17516267
-0.77217424 0.46727696 0.078963101
-0.77563894 0.46955884 -0.14360686
-0.74201602 0.44938079 0.10651381
-0.78098691 0.47316867 -0.1121198
-0.77184778 0.46781611 -0.078963101
-0.76844764 0.46612188 -0.047102366
-0.76238459 0.46280825 -0.015567547
-0.78539366 0.47827813 -0.24639574
-0.78214979 0.47648966 0.015986405
-0.76380223 0.46549526 -0.20650508
-0.78955698 0.48138034 0.048463102
-0.77108544 0.47011852 -0.17554428
-0.76033282 0.46374461 0.077917233
-0.77230901 0.47123438 -0.14329399
-0.73705411 0.44989967 0.10602634
-0.78271896 0.47796091 -0.11260728
-0.76510948 0.46739137 -0.078440167
-0.77022386 0.47088516 -0.047311708
-0.76076442 0.46546668 -0.015567547
-0.78042656 0.47899556 -0.24536048
-0.7668488 0.4708463 0.015707165
-0.7621727 0.46815863 -0.20650508
-0.7861703 0.48308766 0.048358425
-0.77111256 0.47383496 -0.17592591
-0.76889324 0.47265637 0.078963101
-0.76392871 0.46978825 -0.14204252
-0.7354793 0.45246959 0.10602634
-0.78442687 0.48277131 -0.11309476
-0.76686656 0.47214845 -0.078788787
-0.7583732 0.46728438 -0.046683677
-0.77445388 0.4775658 -0.015881689
-6.8920999 4.2632957 -2.1714919
-0.77370268 0.47878179 0.015881689
-8.0311728 4.971777 -2.1806755
-0.77938515 0.48267427 0.048044413
-0.78447574 0.48582685 -0.17936046
-0.77570713 0.48058406 0.079834662
-0.76564234 0.47453314 -0.14266825
-0.72377264 0.44875783 0.10456391
-0.78948462 0.48969194 -0.11406972
-0.74828428 0.46431759 -0.077045679
-0.78976637 0.49082154 -0.016230738
-6.8722572 4.2842636 -2.169939
-0.82292974 0.51322538 0.016928835
-8.0137682 4.9997802 -2.1806755
-0.81666499 0.5097146 0.050451867
-9.5498543 5.9604616 -2.1881976
-0.77740479 0.48539928 0.080183282
-11.650714 7.2773438 -2.1756909
-0.7222017 0.4512817 0.10456391
-14.838028 9.2754297 -2.1485567
-16.315004 10.202662 -1.6835002
-35.316654 22.102592 -2.1834562
-6.8539891 4.306169 -2.1689036
-8.0045166 5.0329103 -2.182925
-9.5323133 5.995851 -2.1889608
-0.88700277 0.55814296 0.091687836
-11.615208 7.311657 -2.1738136
-0.72398156 0.45591557 0.10505138
-14.795483 9.3208151 -2.1470942
-16.282661 10.261679 -1.683849
-35.313625 22.272612 -2.188062
-6.8389158 4.3300681 -2.1689036
-8.0000668 5.0691671 -2.1865242
-9.5113268 6.0290866 -2.1889608
-11.577938 7.3447509 -2.1716235
-0.72909003 0.4626945 0.10602634
-14.762856 9.3724051 -2.1470942
-16.293835 10.348363 -1.6887296
-35.330051 22.45575 -2.1939235
-6.8123593 4.3466401 -2.1652801
-7.9782872 5.0925198 -2.1851747
-9.5034609 6.0707064 -2.192014
-11.556847 7.385231 -2.1722493
-0.71918899 0.45976359 0.10480764
-14.745074 9.4298658 -2.1490443
-16.287821 10.424505 -1.6918672
-35.309223 22.607239 -2.197273
-6.8190346 4.3827853 -2.1720095
-7.9539051 5.1161232 -2.1833749
-9.4832764 6.1021876 -2.192014
-11.530999 7.4255247 -2.1722493
-0.70422941 0.45367089 0.10285773
-14.698717 9.4726753 -2.1470942
-16.286654 10.500052 -1.6953535
-35.337498 22.799664 -2.2039721
-6.8036952 4.4065604 -2.1720095
-7.9409041 5.1470366 -2.1847248
-9.455328 6.130981 -2.1904874
-11.508323 7.4678807 -2.1728749
-0.70264155 0.45612636 0.10285773
-14.668894 9.5260897 -2.1475818
-16.269951 10.569865 -1.6974453
-35.348122 22.981653 -2.2096243
-6.776947 4.4228921 -2.168386
-7.9261518 5.1768551 -2.1856244
-9.430584 6.1617994 -2.1897242
-11.488798 7.5123315 -2.1741264
-0.70769 0.46292296 0.10383269
-14.632228 9.5750608 -2.1470942
-16.329639 10.689887 -1.7075553
-35.374607 23.174953 -2.2163234
-6.7598519 4.4454618 -2.1678684
-7.9031496 5.2012749 -2.1842747
-9.4139357 6.1979222 -2.1908689
-11.455908 7.548039 -2.1728749
-0.71269959 0.4697603 0.10480764
-14.615289 9.6370068 -2.1495316
-16.2889 10.744625 -1.7072067
-35.350163 23.335701 -2.219882
-6.7539554 4.4754338 -2.1709743
-7.8979387 5.2374473 -2.1878741
-9.400423 6.2361717 -2.1927772
-11.426197 7.5858006 -2.1722493
-0.70278734 0.46675402 0.10358895
-14.589865 9.6898136 -2.1505065
-16.314346 10.84333 -1.7138306
-35.371605 23.527527 -2.2263718
-6.7358637 4.4956617 -2.169939
-7.8724246 5.2581973 -2.1856244
-9.3813229 6.2684011 -2.1931586
-11.407549 7.6280394 -2.1735008
-0.70618558 0.47239318 0.10432017
-14.547752 9.7315197 -2.1490443
-16.321348 10.926186 -1.7183627
-35.389626 23.709173 -2.2324429
-6.7225232 4.5190482 -2.1704566
-7.8500934 5.2810111 -2.1842747
-9.3539715 6.2950926 -2.1916323
-11.382192 7.6658268 -2.1735008
-0.70132256 0.47251403 0.10383269
-14.497235 9.7711439 -2.1466067
-16.324675 11.006983 -1.7225461
-35.406834 23.891193 -2.2385137
-6.7179031 4.5500717 -2.1740801
-7.8445163 5.3171282 -2.1878741
-9.3286915 6.3255 -2.1908689
-11.361901 7.7099481 -2.1747522
-0.699669 0.47495911 0.10383269
-14.482745 9.8350716 -2.1495316
-16.33559 11.097491 -1.7277755
-35.402508 24.068544 -2.2435381
-6.6860223 4.5626054 -2.1689036
-7.8307362 5.3477755 -2.1892235
-9.3130388 6.3624554 -2.1923954
-11.331657 7.7473321 -2.1741264
-0.70128381 0.47963986 0.10432017
-14.454879 9.8900499 -2.1505065
-16.311249 11.168543 -1.7295187
-35.407253 24.252924 -2.2491903
-6.6692553 4.5870786 -2.1689036
-7.8168378 5.3783922 -2.1905735
-9.2993593 6.4032245 -2.1946852
-11.299933 7.786571 -2.1735008
-0.69960535 0.48208487 0.10432017
-14.420268 9.9404478 -2.1505065
-16.511604 11.390591 -1.754968
-35.420029 24.452888 -2.2556798
-6.6611414 4.6158342 -2.1714919
-7.7874646 5.4003406 -2.1878741
-9.2753363 6.4345303 -2.1943038
-11.279176 7.830471 -2.1747522
-0.69783372 0.48464584 0.10432017
-14.377216 9.9887028 -2.1495316
-16.393215 11.393575 -1.7466011
-35.419716 24.635679 -2.2611229
-6.6449885 4.6390581 -2.1714919
-7.7854905 5.4372935 -2.192373
-9.2496004 6.4646182 -2.1935403
-11.249908 7.8655682 -2.1741264
-0.69296932 0.48468179 0.10383269
-14.347267 10.038603 -2.1500192
-16.337021 11.439303 -1.7448579
-35.449059 24.830919 -2.2682405
-6.6343093 4.6644015 -2.1730449
-7.7648697 5.463316 -2.1919231
-9.2329283 6.4986458 -2.1946852
-11.228845 7.9093404 -2.1753781
-0.70100939 0.49395823 0.10529512
-14.31214 10.088619 -2.1500192
-26.690622 18.821188 -2.8573136
-35.443771 25.012083 -2.2734742
-6.6085296 4.68083 -2.169939
-7.7552896 5.4971509 -2.1946225
-9.211791 6.5319691 -2.1950669
-11.21083 7.9553494 -2.1772552
-0.70575583 0.50099844 0.10627007
-14.276837 10.138516 -2.1500192
-26.679987 18.953474 -2.8632405
-35.457172 25.207403 -2.279964
-6.5952945 4.7061138 -2.1709743
-7.7138524 5.5083323 -2.188324
-9.1905308 6.5652256 -2.1954484
-11.170138 7.9852424 -2.1747522
-0.69754392 0.49884003 0.10529512
-14.257502 10.199843 -2.1524565
-26.561823 19.009378 -2.8576624
-35.463131 25.398474 -2.2860346
-6.5913754 4.7381277 -2.1751153
-7.697741 5.5375009 -2.1892235
-9.1723385 6.6007071 -2.1965933
-11.151814 8.0311108 -2.1766293
-0.70546234 0.50823402 0.10675755
-14.221812 10.249547 -2.1524565
-26.472679 19.085669 -2.8552222
-35.490879 25.606251 -2.2935712
-6.5779262 4.7633719 -2.1761506
-7.6767864 5.5631938 -2.1887739
-9.1444731 6.6292276 -2.1954484
-11.123713 8.0699902 -2.1766293
-0.71011013 0.51535749 0.10773251
-14.174704 10.290965 -2.1507504
-26.383327 19.16157 -2.8527818
-35.49176 25.795731 -2.2994328
-53.528393 38.933502 -1.1553494
-6.5550151 4.7817521 -2.1740801
-7.6651917 5.5957003 -2.1910233
-9.1196918 6.6599498 -2.1950669
-11.105046 8.1157608 -2.1785066
-0.71471703 0.52251923 0.10870746
-14.151514 10.349757 -2.1527004
-26.26482 19.21591 -2.847204
-35.530418 26.013853 -2.3078065
-6.5351706 4.8023167 -2.1730449
-7.6409006 5.6189609 -2.1896734
-9.1042957 6.6975603 -2.196975
-11.079828 8.1568193 -2.1791322
-0.70969194 0.52265656 0.10821999
-14.121694 10.403798 -2.1536753
-26.197588 19.307468 -2.847204
-35.526196 26.201736 -2.3134589
-6.5214739 4.8273964 -2.1740801
-7.6243725 5.6479197 -2.1905735
-9.080862 6.7292972 -2.196975
-11.044941 8.1907396 -2.177881
-0.73974895 0.54878503 0.11309476
-14.078915 10.448301 -2.1527004
-26.104435 19.379795 -2.8444147
-35.546745 26.408964 -2.3207858
-6.5076804 4.8524413 -2.1751153
-7.5968027 5.6686707 -2.188324
-9.0588913 6.7621293 -2.1973565
-11.022613 8.2339725 -2.1791322
-14.048716 10.502135 -2.1536753
-26.017483 19.456482 -2.8423233
-35.553482 26.60708 -2.3272755
-6.498426 4.8809285 -2.1777036
-7.5863156 5.702179 -2.1910233
-9.0336609 6.7925324 -2.196975
-11.00959 8.2842731 -2.182261
-14.011971 10.551111 -2.1536753
-25.949413 19.547176 -2.8423233
-35.55608 26.80316 -2.3335557
-6.4767251 4.9000874 -2.1761506
-7.5632572 5.7262726 -2.1901233
-9.0020695 6.8180976 -2.1950669
-10.983753 8.3250408 -2.1828868
-13.984546 10.607152 -2.1551375
-25.852442 19.615963 -2.8391852
-35.522755 26.973 -2.3375332
-6.4580464 4.9214935 -2.175633
-7.560266 5.7656398 -2.1950724
-8.9828987 6.8530488 -2.1962116
-10.948344 8.3585386 -2.1816354
-13.94428 10.653494 -2.1546502
-25.736324 19.669792 -2.8339562
-35.564819 27.201183 -2.3465352
-6.4469576 4.9487119 -2.1777036
-7.5354605 5.7884321 -2.1937227
-8.9589224 6.8843641 -2.1962116
-10.922235 8.3991098 -2.182261
-13.907005 10.702106 -2.1546502
-25.64225 19.740057 -2.831167
-35.589893 27.417807 -2.3544903
-53.708878 41.391262 -1.1835873
-6.4327016 4.9735475 -2.1787388
-7.5131392 5.8110042 -2.1928227
-8.947257 6.9252086 -2.1992648
-10.903693 8.4425402 -2.1841383
-13.874579 10.750593 -2.1551375
-25.547995 19.809912 -2.828378
-35.577686 27.596874 -2.3597238
-53.595661 41.603016 -1.1842854
-6.4161716 4.9948535 -2.1787388
-7.4989591 5.8419852 -2.1946225
-8.9180479 6.9500136 -2.1977382
-10.874157 8.4805498 -2.1841383
-13.840099 10.801404 -2.1556253
-25.460175 19.877357 -2.8259375
-16.185595 12.645569 -1.0764461
-16.142632 12.621079 -0.35766962
-6.3941379 5.0136428 -2.177186
-7.4892526 5.8765469 -2.1977718
-8.887558 6.9762502 -2.1962116
-10.853808 8.5257778 -2.1860156
-13.789824 10.839834 -2.1536753
-16.159672 12.707275 -1.798546
-6.3796301 5.0383263 -2.1782212
-7.4702239 5.9038601 -2.1982217
-8.8770113 7.0181918 -2.1996462
-10.823983 8.563611 -2.1860156
-13.770579 10.902692 -2.1566
-35.618576 28.230934 -2.3819141
-6.3656554 5.0652833 -2.179774
-7.4434714 5.925046 -2.1964221
-8.8512297 7.0506787 -2.1996462
-10.792521 8.6032276 -2.1860156
-13.744856 10.96059 -2.1585498
-25.206621 20.114981 -2.8214056
-35.611629 28.438568 -2.3884039
-6.3464284 5.0862656 -2.1792564
-7.4125843 5.9449725 -2.1937227
-8.8265648 7.081532 -2.1996462
-10.759345 8.6383724 -2.1853898
