# .PCD v0.7 - Point Cloud Data file format
VERSION 0.7
FIELDS x y z
SIZE 4 4 4
TYPE F F F
COUNT 1 1 1
WIDTH 1521
HEIGHT 1
VIEWPOINT 0 0 0 1 0 0 0
POINTS 1521
DATA ascii
19.027466 -0.46169832 -2.3369668
38.944778 -0.95178986 6.1700888
31.494259 -0.76970309 -2.7562132
42.487663 -1.0457959 8.2612667
49.325623 -1.2485636 13.220995
0.67204791 -0.017832944 -0.18013807
35.072147 -0.936773 0.61240494
0.64480007 -0.017335156 -0.1489176
37.2514 -1.001487 1.9529687
11.292433 -0.30556422 -2.1958301
34.367931 -0.93597156 3.0079188
14.154185 -0.38794541 -2.2426448
44.915478 -1.2389123 5.5170255
19.049549 -0.52877474 -2.3398917
31.244421 -0.87273568 -2.7345986
42.519077 -1.1950922 8.268136
47.45195 -1.3586072 12.719922
0.6835674 -0.020526627 -0.18324389
35.084843 -1.0535516 0.61268419
0.64863473 -0.019590957 -0.14981739
37.171818 -1.129208 1.9489912
11.303072 -0.34534007 -2.1981196
34.766724 -1.0682932 3.0431297
14.160719 -0.43512291 -2.2438962
19.067533 -0.59255904 -2.342329
39.727161 -1.2415358 6.2952361
31.109749 -0.97766322 -2.723094
47.543457 -1.5273383 12.745803
0.66998011 -0.022342591 -0.17962041
35.092937 -1.176416 0.61289358
0.65245765 -0.021986255 -0.1507172
37.035904 -1.2544924 1.9420829
11.299902 -0.382754 -2.1977382
34.72715 -1.1823575 3.0399921
14.186752 -0.48549622 -2.2482765
19.105026 -0.66048527 -2.3472037
27.255215 -0.95177305 -2.3859756
45.650085 -1.6100907 10.545705
47.418137 -1.689023 12.71371
0.66989368 -0.024798039 -0.17962041
34.916767 -1.2925444 0.60989183
0.66406131 -0.024698198 -0.15341662
11.310194 -0.42460957 -2.2000279
33.866463 -1.2773408 2.9650383
14.196722 -0.53793877 -2.2501535
39.572212 -1.4994607 4.8623438
19.130375 -0.72822732 -2.350616
30.859276 -1.1854938 -2.701828
40.134384 -1.5488228 7.8071408
45.546516 -1.7736044 10.523211
47.296131 -1.8500026 12.682652
0.68910581 -0.027918281 -0.18479681
35.079628 -1.427341 0.61282384
0.65228361 -0.026654543 -0.1507172
37.465004 -1.5374982 1.9651107
11.320413 -0.46456996 -2.2023175
33.439774 -1.3781559 2.9280841
14.202653 -0.58781815 -2.2514052
19.151377 -0.79933208 -2.3535409
40.183655 -1.6912197 7.8178263
30.064135 -1.2810869 -0.52524763
47.404835 -2.0282938 12.71371
0.69093406 -0.030408477 -0.18531445
33.983665 -1.5015869 0.5937658
0.65218657 -0.028931275 -0.1507172
37.275845 -1.660091 1.9554809
11.330491 -0.50460684 -2.2046072
33.50243 -1.4978999 2.9340107
14.220248 -0.63827682 -2.2545338
38.683949 -1.7430969 4.754611
19.17227 -0.8672545 -2.3564658
39.449104 -1.7913734 6.2545638
30.356644 -1.3784871 -2.6585987
40.044144 -1.8253974 7.7918768
45.871742 -2.1070919 10.601493
29.905668 -1.3789301 -0.52255994
47.482376 -2.1976855 12.736485
0.67924565 -0.032270048 -0.18220863
34.04213 -1.6232506 0.59488273
0.6579212 -0.03148713 -0.15206692
36.994831 -1.7705176 1.9410361
11.320816 -0.54377776 -2.2030807
33.186543 -1.5998697 2.9068182
14.233718 -0.68867457 -2.2570367
38.63797 -1.8761927 4.7497363
19.200846 -0.93571883 -2.3603656
30.343687 -1.4840539 -2.6579015
45.836864 -2.2658548 10.595195
46.903706 -2.3267982 12.583265
0.66562355 -0.033951979 -0.17858516
33.912739 -1.7298136 0.59271866
0.65975934 -0.033768311 -0.15251681
36.074886 -1.8527253 1.8930963
11.330613 -0.58389771 -2.2053704
33.351879 -1.7245507 2.9218092
14.258974 -0.73729956 -2.2614169
39.698082 -2.0596459 4.880868
19.209536 -1.0000054 -2.3618281
39.396542 -2.0577905 6.2483063
45.751255 -2.4137359 10.577198
46.88372 -2.4898937 12.580159
0.66357821 -0.036054268 -0.17806751
34.046268 -1.8557994 0.59516197
0.65379995 -0.035751883 -0.15116711
37.707478 -2.068567 1.9791367
11.342336 -0.62222093 -2.2080419
33.42157 -1.8393003 2.9284329
14.264203 -0.78750372 -2.2626684
39.020714 -2.1611021 4.7984838
19.245565 -1.0692552 -2.3667028
39.420681 -2.1970563 6.2533121
29.970831 -1.6703821 -2.6261768
46.287338 -2.6040721 10.703171
0.65959108 -0.038147289 -0.17703223
35.001816 -2.0304508 0.6119861
0.65172571 -0.037920654 -0.1507172
11.351855 -0.66249555 -2.2103314
33.963905 -1.9880855 2.9765427
14.273199 -0.83798492 -2.2645457
39.100128 -2.3024311 4.8092084
19.273424 -1.138301 -2.3706028
29.984707 -1.7761679 -2.6279199
48.542877 -2.9179885 13.030503
0.66716677 -0.040922549 -0.17910279
33.609348 -2.0674117 0.58776212
0.65158939 -0.040195368 -0.1507172
34.901291 -2.1591125 1.8325961
11.36319 -0.70296544 -2.2130029
38.19241 -2.3694034 3.3478265
14.285959 -0.88878387 -2.2670486
39.004677 -2.4334631 4.7984838
19.320845 -1.2087936 -2.37694
25.046892 -1.5714279 -2.1956275
47.229103 -3.0045073 12.680581
0.67087555 -0.043501154 -0.18013807
33.542061 -2.1808255 0.58671498
0.64950049 -0.042342823 -0.1502673
34.638439 -2.2642517 1.819198
11.366543 -0.74301022 -2.2141476
14.306424 -0.94020021 -2.270803
51.264999 -3.378058 6.3082013
19.32443 -1.2767522 -2.3779149
44.138157 -2.9626045 11.853395
0.6610828 -0.04518402 -0.17754988
35.82053 -2.4545608 0.6267159
0.65129286 -0.044743307 -0.1507172
34.570545 -2.3810313 1.8160578
11.373673 -0.7833569 -2.2160556
34.593178 -2.3886566 3.0337172
14.322762 -0.9914974 -2.2739315
51.153877 -3.5501134 6.2960148
19.34758 -1.3461281 -2.3813272
25.047235 -1.7470804 -2.1966732
42.945644 -3.0181167 9.9392376
44.108276 -3.1152968 11.848219
0.66670167 -0.047906734 -0.17910279
35.779839 -2.5772846 0.62615746
0.65502006 -0.047297169 -0.15161701
34.012222 -2.4618945 1.7871685
11.386535 -0.82418746 -2.2191086
34.552834 -2.5070877 3.0309279
14.338915 -1.0429201 -2.2770603
39.966972 -2.9139521 4.9203529
19.37048 -1.4156812 -2.3847394
24.647545 -1.8056777 -2.1621597
42.934845 -3.1680064 9.9392376
44.282082 -3.2829556 11.897912
0.67038321 -0.050524037 -0.18013807
35.507408 -2.6822803 0.62155002
0.65096462 -0.049289066 -0.1507172
34.537148 -2.6211102 1.8152205
11.397293 -0.8649689 -2.2217801
35.052452 -2.6663711 3.0755517
14.350945 -1.0941674 -2.2795632
39.829884 -3.0437648 4.9047542
19.408966 -1.4866238 -2.3901019
24.406679 -1.8737067 -2.1415908
42.946846 -3.3196602 9.9446363
44.293468 -3.4393039 11.904124
0.66442519 -0.052408077 -0.17858516
32.934219 -2.6035469 0.57666236
0.64884597 -0.051407136 -0.1502673
34.217194 -2.7169888 1.7988917
11.415731 -0.90645695 -2.2259779
35.587128 -2.8320177 3.1233132
14.358852 -1.1451972 -2.2814405
39.894207 -3.1887884 4.9140162
19.407616 -1.5546814 -2.3905892
24.487377 -1.965906 -2.1492605
48.363583 -3.8912416 9.4313078
43.008808 -3.4755168 9.9617319
44.489147 -3.6107738 11.960029
0.67193943 -0.055361547 -0.1806557
33.829716 -2.7931976 0.59250921
0.65837312 -0.054475192 -0.15251681
34.048267 -2.8232093 1.7905179
11.416411 -0.94662434 -2.2267411
35.330818 -2.9357646 3.1016984
14.374454 -1.1969512 -2.2845693
19.413939 -1.6234096 -2.3920517
25.072023 -2.10095 -2.2012053
28.81846 -2.425019 -1.5156494
43.09351 -3.6338117 9.9842281
49.250183 -4.1702809 13.243771
0.65441924 -0.056218572 -0.17599694
34.06282 -2.9321918 0.59676754
0.66206205 -0.057107951 -0.15341662
37.862682 -3.2726059 1.9916974
11.409125 -0.98613113 -2.2259779
14.370188 -1.24712 -2.2845693
19.435841 -1.6935797 -2.3954639
24.373814 -2.1281455 -2.1405451
28.80982 -2.5255992 -1.5156494
49.53553 -4.3686461 13.324523
0.65229487 -0.058330517 -0.17547932
33.566399 -3.0075319 0.58825082
0.67156327 -0.060289875 -0.15566613
38.50349 -3.4634411 2.0260298
11.407568 -1.0261263 -2.2263594
32.384537 -2.9187312 2.8447635
14.373616 -1.2979844 -2.2858207
49.194103 -4.4510441 6.0649505
19.469351 -1.7649974 -2.4003389
24.647997 -2.238806 -2.1652973
42.686714 -3.8998196 9.8960466
0.65401083 -0.060785875 -0.17599694
33.515877 -3.1209741 0.58755273
0.6538859 -0.061004501 -0.15161701
38.554798 -3.6037703 2.0293791
11.435193 -1.0688633 -2.2324655
32.401924 -3.0343573 2.847204
14.368998 -1.3481497 -2.2858207
19.502596 -1.8366698 -2.4052134
23.699814 -2.2361186 -2.0826735
42.742687 -4.0554276 9.9122438
0.65956342 -0.063624918 -0.17754988
33.799362 -3.2664163 0.59271866
0.64397067 -0.062347647 -0.1493675
35.600456 -3.446748 1.8744648
11.441163 -1.1097208 -2.2343736
32.59737 -3.1674821 2.8653324
14.376 -1.399447 -2.2876978
49.161827 -4.7943721 6.0649505
19.535582 -1.9085959 -2.4100883
23.568922 -2.3067999 -2.0718663
42.941601 -4.225595 9.9617319
0.6708709 -0.067080081 -0.1806557
33.744568 -3.3741043 0.59195077
0.64182138 -0.064288564 -0.1489176
35.902191 -3.6025021 1.8910029
11.448939 -1.1508291 -2.2366631
32.661442 -3.2888341 2.8719559
14.402729 -1.4502785 -2.2927039
47.838161 -4.8254838 5.903595
19.548897 -1.9753636 -2.4125259
23.548832 -2.3878508 -2.0708203
45.880554 -4.6846485 12.357574
0.65911508 -0.068112917 -0.17754988
35.805195 -3.706423 0.62832159
9.4223061 -0.97702485 -2.186974
35.882103 -3.7207141 1.8905842
11.443109 -1.188586 -2.2362814
33.189381 -3.4532084 2.9193687
14.409367 -1.5017731 -2.2945809
48.33831 -5.0464444 5.9674549
19.589266 -2.0485449 -2.4183755
23.326778 -2.443511 -2.0519948
33.637306 -3.5947912 0.59048474
9.4248285 -1.0088873 -2.188324
35.932449 -3.8527572 1.8939339
11.456458 -1.2304095 -2.2397161
14.416091 -1.5508156 -2.2964582
46.740398 -5.0363665 5.7722201
19.641573 -2.1198845 -2.4256876
23.064564 -2.4974675 -2.0296829
46.654202 -5.0847464 12.574983
8.0494165 -0.88866383 -2.169939
33.051483 -3.6547565 0.58043218
9.4210672 -1.0434242 -2.188324
35.663994 -3.956244 1.8805358
11.457946 -1.2710419 -2.2408609
34.522881 -3.8357582 3.0389462
14.429943 -1.6058278 -2.299587
19.655373 -2.194283 -2.4283688
22.82206 -2.5518377 -2.0091143
43.177486 -4.8507619 10.031017
45.564064 -5.1349874 12.28614
8.0385876 -0.9158814 -2.1678684
34.349815 -3.9197402 0.60346931
9.4038143 -1.0747546 -2.1851747
34.800682 -3.983496 1.8357362
11.472945 -1.3132626 -2.2446773
14.439949 -1.6579905 -2.3020899
48.229568 -5.5462332 5.9608741
19.679146 -2.2665133 -2.4322684
22.953541 -2.6476958 -2.0214901
45.522835 -5.2913275 12.279929
8.0487728 -0.94551343 -2.1714919
35.666542 -4.196167 0.62685555
9.4135532 -1.1091697 -2.188324
35.948895 -4.2421083 1.8970739
11.476089 -1.354223 -2.2462037
34.245953 -4.047215 3.016983
14.453691 -1.7107072 -2.3052187
48.18626 -5.7117472 5.9579487
19.797276 -2.3501694 -2.4478679
22.724077 -2.7056599 -2.0021417
44.628643 -5.3295436 10.376542
50.23806 -6.0172062 13.55746
8.043335 -0.9747749 -2.1709743
36.842773 -4.4649901 0.64779842
9.4134922 -1.1424919 -2.1892235
37.119507 -4.5116754 1.9596677
11.478846 -1.3972248 -2.24773
35.51643 -4.329411 3.1302855
14.478697 -1.7675009 -2.3102245
20.041164 -2.4500945 -2.4790664
22.714495 -2.784965 -2.0021417
50.025013 -6.1688886 13.505696
8.0302973 -1.0016497 -2.168386
9.4131088 -1.1774701 -2.1901233
11.489482 -1.4392369 -2.250783
14.480279 -1.8190149 -2.311476
47.332691 -5.9543328 5.8575287
20.024172 -2.5225401 -2.4780915
40.217949 -5.0735779 6.4203844
22.601845 -2.8512697 -1.9930775
25.576767 -3.2356324 -1.3511052
44.218174 -5.6017365 10.290161
51.343582 -6.5226226 13.868042
8.0420818 -1.0316411 -2.1725271
33.382572 -4.2882509 0.58748293
9.4166737 -1.2113155 -2.1919231
34.534878 -4.4485273 1.8248502
11.498018 -1.4810896 -2.2534544
41.25531 -5.3215241 3.6392751
14.481677 -1.8705616 -2.3127275
47.480927 -6.141417 5.8784904
20.019182 -2.5929322 -2.478579
40.047195 -5.1941156 6.3959804
22.726112 -2.9475734 -2.0049307
25.585123 -3.3274682 -1.3521519
44.236996 -5.7610855 10.299159
8.0326862 -1.0589494 -2.1709743
35.080276 -4.6308646 0.61764067
9.4065924 -1.2434124 -2.1905735
34.480339 -4.5577908 1.8227569
11.508348 -1.5232772 -2.2565072
14.482892 -1.9221405 -2.3139789
47.655975 -6.3332696 5.902864
20.006073 -2.6622727 -2.4780915
40.182484 -5.3472128 6.4203844
22.81048 -3.039516 -2.0132976
26.685926 -3.565403 -1.4109775
44.077553 -5.8968616 10.266767
41.571079 -5.568922 11.238441
8.0442553 -1.0890558 -2.1751153
32.599594 -4.4134316 0.57421905
9.4217272 -1.2772166 -2.1950724
34.602757 -4.6969266 1.830084
11.512689 -1.5647614 -2.2584155
14.511671 -1.9749516 -2.3196106
47.268867 -6.4414134 5.8575287
20.020739 -2.7318213 -2.4810164
40.65287 -5.5542941 6.4986014
22.428619 -3.0683506 -1.980527
25.977425 -3.5584645 -1.374133
26.742857 -3.6728263 -0.47118008
41.250916 -5.6726789 11.157172
8.0386868 -1.1154599 -2.1745977
35.000408 -4.8629346 0.61680299
9.4249325 -1.3111707 -2.196872
32.857239 -4.5768552 1.7386006
11.503548 -1.6023887 -2.2576523
14.535991 -2.0299661 -2.3246164
40.726952 -5.6948085 5.0492911
19.977659 -2.7970107 -2.4768727
40.633236 -5.696166 6.4986014
22.812939 -3.1980295 -2.0153892
25.583126 -3.5954742 -1.3539313
44.175327 -6.2163005 10.299159
26.381369 -3.7170506 -0.46503684
41.383892 -5.8382249 11.198583
8.0309191 -1.1429689 -2.1735625
32.971848 -4.6984596 0.58133966
9.4260855 -1.3448876 -2.1982217
32.841061 -4.6915202 1.7386006
11.511488 -1.6444774 -2.2603235
14.532727 -2.0812538 -2.325242
40.482815 -5.8048162 5.0215049
20.126932 -2.8895786 -2.4966154
41.363934 -5.9458952 6.6187429
22.486099 -3.2322843 -1.9874995
25.716707 -3.7058342 -1.3616771
26.37615 -3.8102601 -0.46517643
40.491413 -5.856545 10.96254
8.036438 -1.1723894 -2.1761506
32.943375 -4.8117905 0.58113021
9.4136209 -1.3766547 -2.1964221
32.796818 -4.8020773 1.7371352
11.52316 -1.6872096 -2.2637579
34.486263 -5.0555925 3.0494051
14.548827 -2.1354122 -2.3289967
46.904224 -6.8927569 5.8209682
20.053879 -2.9505706 -2.488816
24.102823 -3.5505986 -2.1314809
26.100758 -3.8542244 -1.3827162
41.48354 -6.1479516 11.236888
8.030386 -1.2001492 -2.175633
35.687214 -5.3398576 0.6298573
9.4183931 -1.4109495 -2.1986716
32.835159 -4.9248252 1.7400661
11.524967 -1.7285875 -2.2652845
34.685139 -5.2084866 3.0685792
14.564725 -2.1897085 -2.332751
20.365379 -3.0690675 -2.5287893
24.204546 -3.6519516 -2.1415908
26.0121 -3.9339604 -1.3787386
25.80718 -3.9121842 -0.45561251
40.33876 -6.1222706 10.932517
8.0376053 -1.2299263 -2.1787388
32.877354 -5.0368147 0.58057177
9.4153376 -1.4441129 -2.1991215
32.734856 -5.0266795 1.7356699
11.528566 -1.7702967 -2.2671926
34.773087 -5.3458772 3.0779922
14.564803 -2.2417376 -2.3340025
20.303532 -3.1322677 -2.5224519
24.569708 -3.7948101 -2.1750586
43.685455 -6.7550588 8.5925112
25.89217 -4.0175748 -0.45735776
40.256058 -6.253552 10.915953
8.0294466 -1.2573777 -2.1777036
33.132198 -5.1942878 0.5853886
9.429491 -1.4799913 -2.2036204
32.661865 -5.1322336 1.732739
11.524256 -1.8108326 -2.2675743
34.643997 -5.4498868 3.0682309
14.580305 -2.2962523 -2.3377569
20.633657 -3.2569764 -2.5648625
24.398874 -3.8556719 -2.1611137
43.712029 -6.9154854 8.6024332
40.153854 -6.381299 10.894212
8.0192852 -1.2844812 -2.1761506
33.275768 -5.3358717 0.58825082
9.4319639 -1.514133 -2.2054203
33.148571 -5.3273444 1.7595351
11.531432 -1.8532295 -2.2702456
34.577553 -5.5631881 3.0640473
14.568299 -2.3465047 -2.3371313
39.238674 -6.3271689 4.8801365
20.524176 -3.3131638 -2.5526755
23.740133 -3.8365588 -2.1039395
8.0242853 -1.3140271 -2.1787388
31.784821 -5.21066 0.56221181
9.4304676 -1.5476786 -2.20632
33.015469 -5.424242 1.7534641
11.544266 -1.8966533 -2.2740617
34.475353 -5.6702719 3.0567262
14.595105 -2.40312 -2.3427629
20.602579 -3.3996527 -2.5638874
23.526091 -3.8862824 -2.0861597
41.613861 -6.9115181 11.303145
8.0253668 -1.3429857 -2.1802919
31.494274 -5.2759852 0.55739498
9.4269295 -1.5809098 -2.2067699
33.098755 -5.5566497 1.758907
11.555 -1.9398642 -2.2774963
34.262794 -5.7582183 3.0396438
14.610004 -2.4579849 -2.3465173
20.306755 -3.4236948 -2.5285454
42.402279 -7.1565847 6.8108444
23.826717 -4.0214329 -2.1140497
41.094276 -6.9727106 11.168559
8.0206299 -1.3709913 -2.1802919
31.471722 -5.3852139 0.55732518
9.423274 -1.6141353 -2.2072196
32.787815 -5.6221943 1.7434155
11.544289 -1.9795231 -2.2767329
33.735859 -5.7908187 2.9946711
14.624698 -2.5129826 -2.3502717
40.078011 -6.8938642 4.9932308
20.337721 -3.5019689 -2.5339077
38.160557 -6.577755 6.1331701
23.404142 -4.0341845 -2.0777929
38.305069 -6.6233191 8.9746475
38.408611 -6.6550317 10.444902
8.0119886 -1.3983158 -2.1792564
31.80731 -5.5569849 0.56360805
9.4252615 -1.6483619 -2.2090194
32.744381 -5.7324786 1.7421595
11.537308 -2.0198081 -2.2767329
34.18251 -5.990397 3.0361574
14.635292 -2.5674303 -2.3534005
41.422329 -7.2740612 5.1638484
20.262808 -3.5619409 -2.526108
23.331047 -4.1054964 -2.0725634
37.375916 -6.5971084 8.7622938
38.24057 -6.7634912 10.405561
8.0032558 -1.4255968 -2.1782212
32.142075 -5.7311635 0.56989092
9.4252043 -1.6822793 -2.2103691
32.460712 -5.7996707 1.7281334
11.54565 -2.0628312 -2.2797861
34.177078 -6.1124849 3.0375519
14.637908 -2.6205897 -2.3552775
41.201286 -7.3835902 5.1394744
20.144741 -3.6137226 -2.5129461
23.426392 -4.2066317 -2.082325
43.024303 -7.733541 8.4971066
37.187717 -6.6978273 8.7236023
37.562733 -6.7789087 10.227494
8.0058336 -1.4549066 -2.1802919
31.228668 -5.6808414 0.55404413
9.4307785 -1.7172638 -2.2130685
34.122211 -6.2195153 1.8177327
11.549968 -2.1052327 -2.2820759
33.536163 -6.1187429 2.9824693
14.628672 -2.6716695 -2.3552775
41.327576 -7.5552092 5.1584859
19.885965 -3.6389954 -2.482235
38.206161 -6.9983578 6.1519423
23.348854 -4.2768922 -2.0767469
37.04528 -6.8057652 8.6957083
37.489445 -6.9008927 10.214035
8.0083036 -1.4842513 -2.1823623
31.310888 -5.8087831 0.55585915
9.4247265 -1.7501726 -2.2130685
32.780739 -6.0933056 1.747393
11.554129 -2.1476891 -2.2843654
33.514599 -6.2357683 2.9824693
14.654212 -2.7292273 -2.3609092
33.982933 -6.3351808 4.2444658
20.739567 -3.8700659 -2.5904548
23.666731 -4.420558 -2.10638
43.115929 -8.0611382 8.5261097
37.051949 -6.9407763 8.7029066
37.389183 -7.0174599 10.19333
7.995481 -1.5107619 -2.1802919
32.229622 -6.0956764 0.57254362
9.428134 -1.7848731 -2.215318
32.802441 -6.2158756 1.7496959
11.546562 -2.1880076 -2.2843654
34.334354 -6.512372 3.0574234
14.652359 -2.7818372 -2.3621607
33.956707 -6.453023 4.2439785
19.723568 -3.7517698 -2.4651732
23.357573 -4.4472456 -2.0802333
37.474506 -7.168982 10.223352
7.9939523 -1.5393925 -2.1813271
31.933252 -6.1551557 0.56765699
9.4295006 -1.8192494 -2.2171178
32.305977 -6.2386942 1.7243652
11.550419 -2.2305326 -2.2866549
32.769943 -6.3342247 2.9200659
14.677468 -2.8397205 -2.3677924
34.261391 -6.6349201 4.2849264
21.705942 -4.2074142 -2.7147617
37.564533 -7.2881985 6.0605845
23.359509 -4.532167 -2.0818021
37.545837 -7.3049726 8.830678
37.581989 -7.3256226 10.259587
7.9847393 -1.5665433 -2.1802919
31.978289 -6.2796869 0.56884372
9.4269161 -1.8529048 -2.2180173
32.124409 -6.3142037 1.715782
11.559901 -2.2742486 -2.2900898
32.876648 -6.4739809 2.9315705
14.679095 -2.893229 -2.3696697
34.382145 -6.782907 4.3029633
21.469849 -4.2355704 -2.6869755
37.509151 -7.4066043 6.0555792
22.680943 -4.4827204 -2.0227103
7.9832888 -1.5937696 -2.1813271
31.863165 -6.3668885 0.5671683
9.4226303 -1.8845376 -2.2184672
32.036705 -6.4073801 1.7122234
11.55037 -2.3121848 -2.2897081
32.862812 -6.5845342 2.9322677
14.677168 -2.9434447 -2.3709211
34.550194 -6.9351702 4.3268495
21.545216 -4.3247147 -2.6981876
37.709038 -7.5760832 6.0918717
23.25194 -4.6757455 -2.0750039
38.418812 -7.7535696 10.501842
7.9855332 -1.6217723 -2.1833978
31.716461 -6.447022 0.56493443
9.4220581 -1.9169393 -2.2198169
31.967176 -6.5096059 1.7097113
11.558029 -2.3536084 -2.2927611
32.872036 -6.699841 2.9350569
14.694423 -2.9976273 -2.3753011
34.873207 -7.1203914 4.370235
21.45997 -4.3855867 -2.6894128
37.558506 -7.682332 6.0718484
23.033302 -4.7113023 -2.0568755
38.848068 -7.953167 7.707921
45.606155 -9.3533049 10.748161
7.9854989 -1.6508105 -2.1849504
31.611517 -6.5406766 0.56346846
9.4210348 -1.9510025 -2.2211666
11.547822 -2.3935409 -2.2923794
31.869122 -6.6113796 2.8475523
14.718684 -3.0561309 -2.3809328
34.506077 -7.1709914 4.3273373
21.662205 -4.5057454 -2.7167118
22.591492 -4.7031503 -2.0188756
39.026245 -8.1458998 9.2040968
37.864532 -7.9172106 10.365185
7.9796877 -1.6786751 -2.1849504
31.717644 -6.678174 0.56577212
9.4198875 -1.9850816 -2.2225163
32.69875 -6.8966675 1.7513705
11.531712 -2.432215 -2.290853
31.997904 -6.7546825 2.8611488
14.715657 -3.1091232 -2.3821843
34.612896 -7.3193226 4.3439112
20.543245 -4.3478675 -2.5782681
22.667656 -4.8057556 -2.0272424
39.104328 -8.3047485 9.2292919
37.836666 -8.0493336 10.365185
7.9678144 -1.706697 -2.1833978
31.760616 -6.8030882 0.56695884
9.4186172 -2.0191765 -2.2238662
32.694 -7.014955 1.7524173
11.526559 -2.4752889 -2.2916162
32.171619 -6.9146185 2.8789284
14.708025 -3.1638689 -2.3828101
34.428005 -7.4058681 4.323925
21.735012 -4.6794257 -2.7298737
22.907827 -4.9402938 -2.0502515
40.201225 -8.6918125 9.4956341
7.9674711 -1.735733 -2.1849504
31.876143 -6.9501228 0.56947201
9.4111538 -2.0536838 -2.2238662
33.051781 -7.2124963 1.7729331
11.538946 -2.5201168 -2.295814
31.816393 -6.9545484 2.8492954
14.727768 -3.221945 -2.387816
34.396744 -7.5311532 4.3234372
21.593616 -4.7318625 -2.7142742
22.754213 -4.9903498 -2.0380499
38.982994 -8.5709658 9.2148943
7.9689088 -1.7652053 -2.187021
31.685017 -7.0185966 0.56647021
9.3985834 -2.0836158 -2.2225163
32.796318 -7.2767744 1.7605819
11.537745 -2.5620825 -2.2973404
31.535189 -7.0085087 2.8262863
14.743999 -3.2767661 -2.3921962
34.03054 -7.5693188 4.280539
21.852955 -4.8646951 -2.7488852
22.441072 -5.0038381 -2.0115545
39.597851 -8.8584251 10.872471
7.9724331 -1.7937413 -2.1896091
32.183155 -7.2468848 0.57582474
9.4178686 -2.1224084 -2.2288151
32.731754 -7.3824224 1.7584883
11.525355 -2.5994649 -2.2965772
31.6828 -7.151649 2.8416257
14.759446 -3.3343062 -2.3965762
34.104595 -7.7108254 4.2932134
21.673203 -4.9041452 -2.728411
23.053946 -5.2208052 -2.0680313
38.232601 -8.665184 7.6201482
23.225332 -5.2681408 -1.248108
37.426239 -8.4961643 8.8603716
39.894466 -9.0711231 10.96254
7.9585915 -1.8198372 -2.1875386
32.126472 -7.3520427 0.57526624
9.4142017 -2.1561399 -2.2297149
32.997799 -7.5635667 1.7741891
11.506643 -2.6374869 -2.2946692
31.556664 -7.2390347 2.8325615
14.770822 -3.3911104 -2.4003308
33.446766 -7.6849108 4.2137547
21.60952 -4.9690919 -2.7225614
38.075855 -8.7695065 7.5949616
37.381168 -8.62325 8.8567724
39.937847 -9.2277203 10.983245
7.9484267 -1.8467323 -2.1865032
32.151253 -7.4759154 0.57617372
9.4142094 -2.1907551 -2.2315145
32.89473 -7.6548429 1.7700024
11.518399 -2.6825349 -2.2988667
31.589415 -7.3627119 2.837791
14.762741 -3.443547 -2.4009564
33.36948 -7.7898827 4.2074175
21.452868 -5.0119772 -2.7050121
40.724072 -9.5142584 6.6237493
23.036337 -5.3861599 -2.0697746
39.81675 -9.3389339 10.958399
7.951333 -1.876685 -2.1890914
32.62841 -7.701004 0.58517921
9.4144802 -2.2237539 -2.233314
32.626789 -7.7126455 1.757023
11.52807 -2.7272451 -2.3026831
31.675974 -7.4995584 2.8479011
14.755086 -3.4933929 -2.4015822
33.509583 -7.939858 4.2283792
21.501801 -5.0986629 -2.7132993
22.753765 -5.4039278 -2.0460682
37.109272 -8.8269882 8.8063841
39.862839 -9.4966669 10.98014
7.941309 -1.9021423 -2.1880562
32.632442 -7.8223095 0.58573765
9.3990793 -2.2547846 -2.2315145
32.6152 -7.8302178 1.7578603
11.52039 -2.7679274 -2.3030648
31.883396 -7.6604118 2.8688183
14.773531 -3.5522654 -2.4065881
33.805901 -8.1348019 4.2693272
21.267719 -5.1216335 -2.6860006
22.905207 -5.5244284 -2.0614076
23.067976 -5.5722075 -1.2437118
7.947423 -1.9344342 -2.1916797
32.758984 -7.979722 0.58853
9.4021111 -2.2919877 -2.2342138
32.171047 -7.8484049 1.7354604
11.508261 -2.8096676 -2.3026831
31.862848 -7.779109 2.8695154
14.775764 -3.6101401 -2.409091
33.949402 -8.3010855 4.2912636
21.322077 -5.2174788 -2.6952627
36.893753 -9.0551472 8.7703915
22.769632 -5.5927577 -0.40925893
39.988964 -9.8296318 11.033975
7.949656 -1.9658685 -2.194268
32.613052 -8.0709133 0.58643574
9.4012146 -2.3283067 -2.2360134
31.744087 -7.8617473 1.7138981
11.498383 -2.8498218 -2.3026831
32.054577 -7.9505191 2.8893871
14.796942 -3.6728375 -2.4147227
33.733799 -8.3795195 4.2678647
21.299883 -5.2909179 -2.6947751
22.833708 -5.6888499 -1.2332445
37.020756 -9.2234478 8.8081837
43.999332 -10.978423 12.151037
7.9337249 -1.9898701 -2.1916797
32.465851 -8.1488342 0.58427167
9.391552 -2.3589947 -2.2355635
31.721716 -7.9679441 1.7141075
11.500294 -2.8908079 -2.3049729
32.337189 -8.1345406 2.9172769
14.803838 -3.7267084 -2.4178512
33.948376 -8.5524416 4.2985759
21.428516 -5.3983774 -2.7132993
36.876606 -9.3175201 8.7811899
7.9364438 -2.0185492 -2.194268
33.516129 -8.5306959 0.6036787
9.3836784 -2.3901255 -2.2355635
31.75951 -8.095397 1.7176661
11.497742 -2.9328747 -2.3064992
32.259842 -8.2289267 2.912745
14.799055 -3.7777336 -2.4191029
33.750572 -8.6217356 4.2771268
21.097975 -5.3934956 -2.6738136
41.950577 -10.747666 8.4177303
36.791 -9.4326363 8.7685928
7.9252501 -2.0466578 -2.1932325
32.268776 -8.3392649 0.58175856
9.3729687 -2.4240146 -2.2351139
31.497601 -8.1516981 1.7051057
11.490717 -2.975981 -2.3072627
32.468628 -8.4090509 2.9343596
14.804231 -3.8369052 -2.4222317
33.772549 -8.7593346 4.2839513
21.047321 -5.4628072 -2.6699138
22.329903 -5.8040204 -2.018527
41.851883 -10.893798 9.9842281
7.938252 -2.0810807 -2.1989267
26.903358 -7.0579638 0.48549104
9.3790998 -2.4623108 -2.238713
31.274342 -8.2163382 1.6946384
11.480258 -3.0160728 -2.3072627
32.557056 -8.5594053 2.9451666
14.816813 -3.8981762 -2.4266117
33.509857 -8.8224087 4.254703
20.93886 -5.5166497 -2.6587019
43.873192 -11.567224 7.1862874
22.309507 -5.8819304 -2.018527
7.9346728 -2.1097703 -2.1999619
26.928801 -7.1652002 0.48639858
9.362915 -2.4930289 -2.2369132
25.806944 -6.8763442 1.399673
11.473454 -3.0571389 -2.3080258
33.381737 -8.9009123 3.0225611
14.829837 -3.9570022 -2.4309919
33.463512 -8.9352293 4.2527528
20.846598 -5.5702329 -2.6494398
43.83255 -11.7203 7.1862874
22.288839 -5.9597697 -2.018527
7.9197998 -2.135443 -2.1978915
26.100475 -7.042449 0.47187817
9.361681 -2.5277281 -2.238713
25.764717 -6.9566779 1.3986262
11.457026 -3.0956337 -2.3068807
32.361874 -8.7500849 2.9329648
14.819747 -4.0097761 -2.4316175
33.581577 -9.0924501 4.2717648
20.797354 -5.6310315 -2.6455398
41.953609 -11.382818 8.4497852
41.995041 -11.401929 10.046314
22.058849 -5.9932566 -0.39899692
7.9219933 -2.1642401 -2.2004797
26.076979 -7.128962 0.47187817
9.3457289 -2.5567019 -2.2369132
30.973801 -8.4734726 1.6829152
11.46942 -3.1398299 -2.3114603
31.671652 -8.6762676 2.8730018
14.821609 -4.0630755 -2.4341204
33.532097 -9.1985092 4.2693272
20.671362 -5.6705589 -2.6318905
41.866409 -11.50835 8.4398642
7.929667 -2.1946204 -2.2046208
26.060904 -7.2175322 0.47201779
9.3334427 -2.5866385 -2.2360134
26.391663 -7.3140955 1.4352614
11.475973 -3.182569 -2.3148949
32.464397 -9.0092754 2.9476073
14.827087 -4.1174893 -2.4372492
20.67922 -5.7465167 -2.6353028
42.571884 -11.838241 6.9985662
21.843475 -6.0782642 -1.9836646
7.9186249 -2.2198613 -2.2035854
24.873899 -6.9776864 0.45093527
9.3266897 -2.6181014 -2.2364633
25.275036 -7.0949731 1.3758078
11.448345 -3.2158287 -2.3114603
31.839745 -8.949748 2.8935704
14.839975 -4.1741238 -2.4416294
33.655704 -9.4728689 4.2929697
20.725019 -5.8333464 -2.64359
21.631432 -6.0966196 -1.9662335
21.68601 -6.1201735 -1.1809087
46.797764 -13.22479 13.030503
7.9104352 -2.2488692 -2.2035854
24.848158 -7.0688076 0.45093527
9.31141 -2.6506677 -2.2351139
25.551102 -7.2784219 1.3923459
11.453475 -3.2626078 -2.3148949
31.776073 -9.0576487 2.8907816
14.858768 -4.2382398 -2.4472611
33.693291 -9.6168623 4.3022318
20.69865 -5.9117918 -2.6431026
21.608942 -6.1758614 -1.9662335
7.9025373 -2.2764683 -2.2035854
25.530428 -7.3593264 0.46378025
9.3133345 -2.6863949 -2.2378132
25.609972 -7.3919387 1.3969514
11.453334 -3.3058352 -2.3171847
31.690668 -9.1530323 2.885901
14.85527 -4.2933712 -2.4491384
33.63282 -9.7266951 4.2988195
20.719837 -5.9961472 -2.6484647
42.443436 -12.290803 6.9985662
21.587252 -6.2512527 -1.9662335
40.994488 -11.894485 9.8546562
38.358833 -11.14427 10.703203
7.8908343 -2.3029573 -2.2025502
25.750284 -7.520153 0.46824807
9.307641 -2.7199814 -2.238713
24.368649 -7.1258907 1.3305895
11.449262 -3.3479981 -2.318711
32.021843 -9.3699093 2.9190199
14.851568 -4.3485303 -2.4510155
33.556755 -9.8317585 4.2934575
20.73307 -6.0784888 -2.6528521
21.435297 -6.2884307 -1.9543804
21.427996 -6.2944121 -1.1704414
21.392462 -6.2920861 -0.38922358
7.8901582 -2.3326781 -2.2046208
24.577181 -7.2707624 0.44737497
9.3018265 -2.7535608 -2.2396126
26.067137 -7.7214379 1.4247942
11.450682 -3.3918467 -2.3213823
32.015682 -9.4895563 2.9214604
14.862812 -4.4082098 -2.4553957
33.663059 -9.9906263 4.3114939
20.563295 -6.1067448 -2.6338406
21.352098 -6.3450522 -1.9488024
37.002674 -11.030976 10.346033
7.891221 -2.3629768 -2.2072091
24.651262 -7.3863549 0.44919002
9.2884254 -2.7848945 -2.238713
25.435511 -7.6310182 1.3917179
11.430653 -3.4315348 -2.3198559
33.157848 -9.9541397 3.0288365
14.862469 -4.4646096 -2.4578986
20.465816 -6.1556163 -2.6240909
21.260019 -6.4025869 -1.9425271
40.912464 -12.336618 9.8654537
36.956547 -11.157839 10.343963
7.8899012 -2.3941271 -2.2092795
23.839514 -7.2384534 0.43487906
9.2837486 -2.8206186 -2.2400625
25.158953 -7.6486707 1.3781105
11.423634 -3.4751215 -2.3210008
31.729656 -9.6523066 2.9015887
14.857344 -4.5225048 -2.4597759
33.598297 -10.233571 4.312469
20.490587 -6.2450533 -2.6301844
21.11445 -6.4432478 -1.9313713
39.312656 -12.011583 9.4902353
37.089054 -11.346341 10.392621
7.8663015 -2.4184875 -2.2051384
23.885454 -7.348125 0.43620545
9.284524 -2.8580663 -2.2427619
24.913151 -7.6738062 1.366178
11.428319 -3.5201771 -2.3244352
31.648373 -9.7544518 2.8974056
14.867096 -4.5850797 -2.4641559
43.200245 -13.331408 5.5511494
20.404968 -6.3007855 -2.6221409
7.8633442 -2.4476533 -2.2066913
24.10022 -7.5063825 0.44060344
9.2633276 -2.8869789 -2.2400625
24.84808 -7.7488313 1.3640845
11.432831 -3.5653088 -2.3278699
31.176682 -9.7283649 2.8573136
14.869855 -4.6428347 -2.4672847
43.361866 -13.547241 5.57796
20.248329 -6.3299203 -2.6048355
20.954863 -6.5548081 -1.9209125
7.8547521 -2.4750867 -2.2066913
24.546844 -7.7395902 0.44925985
9.2569113 -2.9204695 -2.2409625
24.923727 -7.8679881 1.3697368
11.442781 -3.6122875 -2.3324494
31.214727 -9.8599367 2.8639376
14.857326 -4.6959028 -2.4679105
20.140944 -6.373611 -2.5938673
20.855875 -6.6038561 -1.9139401
38.383816 -12.176064 9.2967777
38.700581 -12.291417 10.880236
7.8534265 -2.5048382 -2.2087619
24.287264 -7.7510543 0.44500145
9.2466602 -2.952764 -2.2409625
24.998846 -7.9877653 1.375389
11.430103 -3.6522079 -2.3324494
31.206686 -9.9773302 2.8663778
14.870947 -4.7573662 -2.4729164
45.410168 -14.53591 5.8543601
20.092106 -6.4354 -2.5904548
20.438051 -6.550138 -1.8776833
38.39674 -12.327844 9.3102741
7.8427978 -2.5316429 -2.2082443
24.164915 -7.8050551 0.4432562
9.2474232 -2.9886184 -2.2436619
24.776976 -8.0122976 1.3647126
11.421021 -3.6932924 -2.3332126
31.179253 -10.088655 2.8670752
14.88056 -4.8177648 -2.4772964
20.126173 -6.523859 -2.5977674
20.623535 -6.6890564 -1.8968576
20.401854 -6.6250281 -1.1241765
38.431316 -12.487092 9.3291693
20.414917 -6.6371479 -0.37470317
40.24884 -13.093177 11.340933
7.8247304 -2.5560048 -2.2056561
24.236362 -7.9216638 0.44507128
9.2424908 -3.022697 -2.2450116
24.790615 -8.112401 1.3670152
11.441645 -3.7441268 -2.3400817
32.48064 -10.635137 2.9901392
14.901196 -4.8819785 -2.4835539
43.545757 -14.275021 5.626708
20.118366 -6.5990214 -2.5997169
20.45619 -6.7137871 -1.8836099
20.4942 -6.7421136 -0.37658802
47.656639 -15.68714 13.443579
7.8286009 -2.5875461 -2.2092795
24.174389 -7.9949145 0.44444299
9.231883 -3.0549409 -2.2450116
24.213699 -8.0126028 1.3366604
11.441551 -3.7883625 -2.3427529
32.431973 -10.744691 2.9890933
14.955317 -4.9575834 -2.4954429
45.172554 -14.983139 5.8436356
20.081301 -6.6607013 -2.5977674
20.438498 -6.7950215 -1.128782
38.914989 -12.937751 9.4677401
39.34861 -13.097169 11.112137
7.8291383 -2.6165545 -2.2118676
24.030163 -8.035717 0.44227889
9.2143097 -3.0830646 -2.2432117
24.459738 -8.1841135 1.3517332
11.436372 -3.8287764 -2.3442793
33.952869 -11.373652 3.1327257
14.991238 -5.0247273 -2.5042033
45.182854 -15.153052 5.8514352
19.870893 -6.6641364 -2.5733933
40.438271 -13.59327 9.8492565
20.248125 -6.8103132 -0.37288812
39.092571 -13.156105 11.052092
7.8204188 -2.6425023 -2.2118676
25.897738 -8.755827 0.4771837
9.2077274 -3.1148527 -2.2441118
24.408318 -8.2617588 1.3504771
11.434771 -3.8704562 -2.3465691
35.964355 -12.180259 3.3220282
14.995071 -5.0813861 -2.5076447
41.188183 -13.96547 5.3400712
19.851271 -6.7347345 -2.5738807
20.189772 -6.8574347 -1.8654815
20.203878 -6.8661585 -1.1183149
40.759575 -13.859817 9.9392376
39.404854 -13.414506 11.153548
7.7978854 -2.6667719 -2.2082443
23.857599 -8.1589775 0.44011477
9.2078609 -3.1507602 -2.2468112
24.409561 -8.3572617 1.3521519
11.435367 -3.9174311 -2.349622
24.79571 -8.4991388 2.293242
15.039878 -5.1581011 -2.5182824
41.103512 -14.096927 5.3354402
19.808865 -6.7975435 -2.5714433
20.060192 -6.8916159 -1.85572
39.408928 -13.569582 11.168042
7.7775745 -2.6901867 -2.2051384
23.695253 -8.2005854 0.43767145
9.2036161 -3.1870379 -2.2486107
24.091915 -8.3472824 1.3362417
11.430898 -3.9605374 -2.3515301
24.645411 -8.5438738 2.2820859
15.042309 -5.217689 -2.521724
41.059067 -14.250086 5.3364153
19.658176 -6.8264718 -2.5551128
20.034798 -6.9650941 -1.85572
20.154228 -7.0105577 -1.1183149
39.591888 -13.779606 9.6782942
39.450146 -13.745715 11.193925
7.7767792 -2.7218657 -2.2077267
23.658934 -8.2806053 0.43753183
9.1703653 -3.2114158 -2.2432117
24.171953 -8.469635 1.3423127
11.427422 -4.0063043 -2.3538198
35.623646 -12.496166 3.3028538
15.045451 -5.2806368 -2.5254784
40.990341 -14.386747 5.3339777
19.536833 -6.8608479 -2.5424385
19.890066 -6.9926939 -1.8445642
39.541119 -13.924626 9.6782942
39.584129 -13.947537 11.245687
7.7708726 -2.7502842 -2.2087619
24.182613 -8.5635128 0.44779384
9.1713905 -3.2495615 -2.246361
23.920099 -8.4752502 1.3299614
11.431871 -4.0527296 -2.3576362
25.822966 -9.1596098 2.3971314
15.038095 -5.3370872 -2.5273554
40.843803 -14.503674 5.3217912
19.243391 -6.8333468 -2.5073402
19.865536 -7.0620809 -1.8445642
39.458008 -14.042605 9.6692963
38.898273 -13.858701 11.064515
7.7671666 -2.7779899 -2.2103145
24.263285 -8.6827364 0.44981834
9.180747 -3.2871828 -2.2513101
23.989641 -8.5895338 1.3354044
11.423913 -4.0926027 -2.3587809
24.779655 -8.8821602 2.3030033
15.081676 -5.4089327 -2.5376801
40.664696 -14.592105 5.3047295
19.366365 -6.9494195 -2.5263517
19.710754 -7.0807672 -1.8323622
39.436897 -14.182608 9.6755943
38.695786 -13.931339 11.019998
7.7470117 -2.7997918 -2.2072091
24.012455 -8.6829081 0.44569957
9.175293 -3.3195982 -2.25266
24.211163 -8.7643185 1.3494304
11.410279 -4.1304636 -2.3587809
24.570227 -8.8991489 2.2862694
15.104516 -5.4737229 -2.5445633
43.82222 -15.889379 5.7234721
19.308397 -7.0047913 -2.5219643
19.629736 -7.1291232 -1.8271329
19.68022 -7.1513462 -1.0973804
39.412788 -14.329503 9.6818933
38.643284 -14.065005 11.018962
7.7348824 -2.8275039 -2.2066913
23.993269 -8.7707939 0.44590899
9.1728001 -3.3549528 -2.2549093
24.705595 -9.0409641 1.3787386
11.402438 -4.1749563 -2.3603075
24.399006 -8.938427 2.2733703
15.156684 -5.5555587 -2.5567651
19.231644 -7.05301 -2.5151396
19.556103 -7.1797481 -1.8226008
19.58639 -7.198627 -1.0936123
39.290501 -14.448303 9.6647968
40.124153 -14.762814 11.455849
7.7304025 -2.8564956 -2.2082443
23.240725 -8.5923939 0.43250555
9.1531315 -3.3858459 -2.2531099
24.159067 -8.9415045 1.3500584
11.402525 -4.2201848 -2.3633604
24.352709 -9.0180054 2.2719758
15.166836 -5.6194129 -2.5617712
40.889366 -15.157896 5.3544517
19.131218 -7.0958385 -2.5053902
40.31543 -14.961143 6.8108444
19.440002 -7.2180882 -1.814234
40.520027 -15.045117 8.4017019
19.44132 -7.2224379 -1.0869132
7.7216902 -2.8854856 -2.2087619
23.390415 -8.7406654 0.4358564
9.1467323 -3.4198229 -2.2544594
23.764801 -8.8900232 1.3297521
11.410884 -4.270895 -2.3683214
25.024782 -9.3713198 2.3378656
14.913064 -5.5876355 -2.5223496
40.739544 -15.264316 5.3417773
18.983652 -7.1165848 -2.4893034
38.787018 -14.548185 6.5611749
19.299036 -7.2424998 -1.8034266
19.321232 -7.2585249 -1.0816797
39.788071 -14.955354 9.8132648
7.7193098 -2.9138052 -2.2108324
23.475748 -8.8660631 0.4380205
9.1329165 -3.4510412 -2.2540095
23.709034 -8.9588966 1.3282866
11.413185 -4.3149595 -2.3717558
37.784794 -14.292757 3.5343397
15.086591 -5.7097769 -2.554888
38.681046 -14.647216 5.0785394
18.966122 -7.1856213 -2.4902785
39.333374 -14.902083 6.6619191
19.15568 -7.261261 -1.7922707
19.226097 -7.2956305 -1.0777022
39.701828 -15.07338 9.8042669
19.261362 -7.3128581 -0.3596243
40.203938 -15.272042 11.52366
7.7054811 -2.9393554 -2.2097969
23.633055 -9.0151348 0.44151098
9.1323462 -3.4854777 -2.2567091
25.032221 -9.558876 1.4042785
11.39622 -4.3540721 -2.3713744
24.960415 -9.54144 2.3378656
15.108168 -5.7752919 -2.5617712
18.882862 -7.2257724 -2.4824786
39.163048 -14.994086 6.6418948
19.130217 -7.3280826 -1.7922707
40.179623 -15.391336 8.3635397
19.179419 -7.350769 -1.0764461
7.6866779 -2.9614193 -2.2072091
23.153631 -8.9249582 0.43313381
9.1328506 -3.5222428 -2.2598584
24.603672 -9.4937668 1.3820881
11.390877 -4.3953733 -2.3732824
30.463795 -11.761107 2.8569653
15.087916 -5.8279934 -2.5617712
37.210243 -14.380627 4.8981729
18.635345 -7.2057319 -2.4532301
39.254173 -15.186295 6.6662993
19.012899 -7.355536 -1.783555
40.198891 -15.559844 8.3788052
19.105219 -7.3989205 -1.0737246
39.053173 -15.132046 9.6692963
38.867985 -15.075896 11.17063
7.6762943 -2.9882326 -2.2072091
22.96209 -8.9433117 0.43013203
9.1114216 -3.5505626 -2.2576087
24.304287 -9.4758444 1.36712
11.404731 -4.4465184 -2.3793883
30.489374 -11.89344 2.8632405
15.078523 -5.8849344 -2.5636482
37.170918 -14.514761 4.8996358
18.606379 -7.2692924 -2.4527426
18.987108 -7.4218588 -1.783555
18.978838 -7.4262638 -1.0680723
7.6622205 -3.0135953 -2.2061737
22.897236 -9.0102291 0.42950371
9.0989723 -3.582346 -2.2576087
24.252478 -9.5533047 1.3660733
11.396447 -4.4891796 -2.3809147
28.430925 -11.204971 2.6735895
15.010109 -5.9186921 -2.5555136
37.337921 -14.730387 4.9283967
18.562426 -7.3269076 -2.4503052
18.868431 -7.4514995 -1.7748394
18.915651 -7.4777818 -1.0659788
39.113842 -15.486265 11.272087
7.6678128 -3.0467434 -2.2108324
22.932541 -9.1166954 0.43076029
9.0936556 -3.6169665 -2.2594085
24.304346 -9.671874 1.3708882
11.380707 -4.528933 -2.3809147
27.673429 -11.018189 2.6059566
14.959995 -5.9593549 -2.5505078
18.488796 -7.3725419 -2.4439681
37.639874 -15.016787 6.4185071
18.731272 -7.4730196 -1.7643808
18.752178 -7.4889493 -1.0582331
39.29631 -15.717402 11.340416
7.6589231 -3.0742099 -2.21135
9.0882072 -3.6515932 -2.2612078
23.473591 -9.4363232 1.3258792
11.361186 -4.5671673 -2.3801515
27.682859 -11.134051 2.6104887
14.961092 -6.0203876 -2.5542624
38.158581 -15.362865 5.0507531
18.536602 -7.466702 -2.4537175
18.629845 -7.5118203 -1.7574084
18.677765 -7.5349336 -1.0555117
39.051327 -15.761906 9.7223845
39.212547 -15.842897 11.332133
7.6350727 -3.0971775 -2.2077267
23.565079 -9.559206 0.44388452
9.0916567 -3.6898906 -2.2652571
24.454592 -9.9299803 1.3832394
11.360741 -4.615428 -2.3835862
27.649248 -11.23844 2.611186
14.898669 -6.0588107 -2.547379
18.355972 -7.4685197 -2.4332435
18.603508 -7.5768051 -1.7574084
39.543846 -16.113396 8.3001919
18.601936 -7.5837364 -1.0527902
39.112385 -15.953505 9.7520781
40.380444 -16.478952 11.686197
7.6313663 -3.1267397 -2.2097969
23.874037 -9.7865887 0.45037681
9.0672541 -3.7187517 -2.2625577
24.865189 -10.203027 1.4085701
11.357274 -4.6602731 -2.3862574
27.628281 -11.342452 2.6129291
15.0163 -6.1678209 -2.5711572
38.176205 -15.688346 5.0678153
18.097143 -7.4406352 -2.4025323
18.503242 -7.6113782 -1.7504359
39.280388 -16.166151 8.2566872
39.099701 -16.107752 9.7628756
18.493652 -7.6225333 -0.34915283
7.6257606 -3.155575 -2.21135
23.488682 -9.7245274 0.44374487
9.0524178 -3.7496345 -2.2621078
24.641222 -10.211767 1.3978935
11.348193 -4.7028961 -2.387784
27.297728 -11.318253 2.5853879
14.949065 -6.2012777 -2.5633357
38.121208 -15.821508 5.0678153
17.979395 -7.4656973 -2.3903453
37.266941 -15.482213 6.3916001
18.366167 -7.6300573 -1.7399772
39.187458 -16.288095 8.2490549
18.412071 -7.6566658 -1.0450444
39.050434 -16.247131 9.7646751
42.269569 -17.603779 12.269059
7.6289587 -3.1881342 -2.2154911
23.450905 -9.8049164 0.44367507
9.0428686 -3.7827137 -2.2630076
23.363642 -9.7780142 1.3273447
11.331708 -4.7424798 -2.387784
27.36832 -11.459642 2.5958467
15.031178 -6.296927 -2.5811689
38.603996 -16.180079 5.1394744
17.942242 -7.5238056 -2.3888831
18.232861 -7.6494145 -1.7298672
38.913132 -16.333603 8.2032604
18.385233 -7.7208891 -1.0450444
37.987385 -15.960625 9.5127306
41.413639 -17.417194 12.038192
7.591085 -3.2034779 -2.2077267
23.961836 -10.116947 0.45400691
9.0421753 -3.8195646 -2.2661569
24.742264 -10.456631 1.4077326
11.318701 -4.7835345 -2.3885472
28.528301 -12.062563 2.7098463
14.930877 -6.3162642 -2.5677156
41.421051 -17.531023 5.5226316
17.873827 -7.5685878 -2.3832772
37.961895 -16.082598 6.5298882
18.231731 -7.7238932 -1.7323076
18.222103 -7.7273178 -1.0372988
37.891975 -16.076385 9.5028324
41.188999 -17.492178 11.990569
7.5834112 -3.2314708 -2.2087619
23.882227 -10.181707 0.4531692
9.0269957 -3.8503399 -2.265707
24.137943 -10.295706 1.3752844
11.31638 -4.8291793 -2.3916001
28.137871 -12.013429 2.6767271
14.879673 -6.3559279 -2.5627096
41.385162 -17.686426 5.5260439
17.706753 -7.5708404 -2.3645091
18.076429 -7.7326341 -1.7201056
39.433483 -16.876778 8.3375902
18.191347 -7.7893062 -1.0370895
37.839211 -16.210087 9.5037317
41.152073 -17.637802 11.99678
7.5862818 -3.26403 -2.2129028
23.668314 -10.183393 0.44974852
9.0088081 -3.8779418 -2.2643573
24.010139 -10.340399 1.3700508
11.312075 -4.8740897 -2.3942714
27.166313 -11.710906 2.588177
15.030844 -6.4795246 -2.5924323
41.118488 -17.733946 5.4982576
17.685196 -7.6310887 -2.3649967
17.990799 -7.7704053 -1.7145277
40.130672 -17.332838 8.4971066
18.121414 -7.8305736 -1.0345774
37.731586 -16.312279 9.4902353
38.842136 -16.808493 11.340416
7.5771875 -3.2899382 -2.2134204
23.273136 -10.10979 0.44290715
8.9862804 -3.9054811 -2.2621078
23.961063 -10.413594 1.3692133
11.304852 -4.9154892 -2.3961794
27.470804 -11.950347 2.6209474
14.932063 -6.4988437 -2.5792918
41.059971 -17.878952 5.4987454
17.749445 -7.7324162 -2.3771837
37.344402 -16.268816 6.4516706
17.943014 -7.8204699 -1.712436
18.093969 -7.8937812 -1.0345774
37.495811 -16.365934 9.4452448
18.057848 -7.8817749 -0.34391713
7.578043 -3.3217969 -2.2170439
23.158901 -10.151587 0.44137135
8.9839878 -3.939955 -2.2648072
27.454451 -12.045946 1.5712302
11.280433 -4.9517632 -2.3946528
27.1334 -11.916378 2.5927091
15.033417 -6.6023378 -2.6005669
41.080425 -18.05015 5.50947
17.607399 -7.7401066 -2.3615842
37.233139 -16.375216 6.4422851
17.733242 -7.8028135 -1.6950049
39.742214 -17.486994 8.4398642
17.950703 -7.9022379 -1.0278783
37.505539 -16.518459 9.461441
7.5475521 -3.3383126 -2.21135
23.134296 -10.23722 0.4415808
8.9701805 -3.9712911 -2.2648072
23.694208 -10.494881 1.3581182
11.271131 -4.9923244 -2.3961794
27.184813 -12.046651 2.6014245
15.006666 -6.653172 -2.599941
42.842651 -19.003145 5.7546706
17.475039 -7.7548199 -2.3474474
37.204636 -16.51791 6.4472904
17.67449 -7.8470225 -1.6918672
17.660187 -7.848053 -1.0128056
37.497505 -16.671446 9.4740381
17.819674 -7.9263773 -0.34042662
37.067932 -16.495955 10.871435
7.5482011 -3.3701513 -2.2149734
24.354582 -10.879031 0.4655953
8.9598217 -4.004169 -2.265707
24.915516 -11.14003 1.4303418
11.273351 -5.0404525 -2.4003773
27.608189 -12.34974 2.6460483
14.896804 -6.6667829 -2.5849233
17.426121 -7.8060331 -2.3445227
17.748808 -7.9542994 -1.7016286
37.025181 -16.600956 7.8872809
17.760246 -7.9668717 -1.0201325
37.257736 -16.72085 9.4281483
17.653254 -7.9262805 -0.33777386
36.988976 -16.615746 10.865224
7.5381527 -3.3972731 -2.2154911
8.9511185 -4.0378237 -2.2670567
23.791487 -10.737268 1.3679574
11.251222 -5.080121 -2.3996141
27.281637 -12.31813 2.6188557
14.333376 -6.4747787 -2.4910626
37.434086 -16.917871 5.0439286
14.374468 -6.4993839 -1.9369916
37.405182 -16.920534 6.5023556
17.686861 -8.0045128 -1.6984911
17.752758 -8.0418024 -1.0213886
37.128139 -16.818636 9.4101524
17.763903 -8.0505877 -0.34042662
38.278488 -17.355837 11.261735
7.5379581 -3.43048 -2.2191145
8.914978 -4.0609107 -2.261658
25.240446 -11.502733 1.4536836
11.261108 -5.134357 -2.40572
26.997009 -12.308936 2.5958467
15.111111 -6.8929014 -2.6306021
37.133446 -16.946173 5.011755
17.223549 -7.863749 -2.3247797
14.337581 -6.5521531 -1.3791524
39.844986 -18.217228 8.5161877
14.344902 -6.561553 -0.82669884
37.417133 -17.115105 9.4992332
36.777794 -16.838188 10.838307
7.5288444 -3.4596982 -2.2201498
14.168074 -6.5135899 0.27218774
8.9106579 -4.0984445 -2.2643573
25.267063 -11.626893 1.4576612
11.244901 -5.1744542 -2.4061015
27.009626 -12.434464 2.6014245
15.042686 -6.9284077 -2.6230936
37.319889 -17.196806 5.0453911
17.246891 -7.9509258 -2.3318481
17.516958 -8.0791359 -1.6876837
17.56057 -8.1066837 -1.0136429
38.086586 -17.590406 9.6854925
38.27298 -17.692705 11.297969
7.5272379 -3.4908342 -2.2232556
8.8962965 -4.1295233 -2.2643573
25.14662 -11.678008 1.4530556
11.216087 -5.208714 -2.4038119
27.009424 -12.548819 2.605608
14.986167 -6.9658871 -2.6174617
37.252434 -17.323624 5.0444164
17.226231 -8.0144291 -2.332823
38.294426 -17.824446 6.6900773
17.445297 -8.1200533 -1.6835002
17.503199 -8.154438 -1.0119681
37.081749 -17.283625 9.4452448
36.390255 -16.976788 10.759625
7.4992599 -3.5097184 -2.2185969
8.8941813 -4.1663389 -2.2675066
25.246767 -11.831823 1.46122
11.217392 -5.2569976 -2.4080098
26.741764 -12.538142 2.5839934
14.906319 -6.9921494 -2.6077628
37.263615 -17.487286 5.0541658
17.025648 -7.9935217 -2.3094242
38.20694 -17.946251 6.6856971
17.369961 -8.1588764 -1.6789683
17.413174 -8.186594 -1.0084094
36.918911 -17.364851 9.4191504
14.351991 -6.7535338 -0.27686498
36.337761 -17.107 10.761696
7.4904561 -3.537524 -2.2196321
14.332324 -6.7717986 0.27669045
8.8813448 -4.1981926 -2.2679565
25.050035 -11.846447 1.4522183
11.218495 -5.3053541 -2.4122074
26.647408 -12.607553 2.5791128
15.156783 -7.1742907 -2.6559446
36.68565 -17.372572 4.9839692
17.015581 -8.0614033 -2.3118618
37.255123 -17.658171 6.5298882
17.31617 -8.2075119 -1.6765277
36.397243 -17.259333 7.8300385
17.355618 -8.2336302 -1.0067345
37.136234 -17.625639 9.4902353
38.48695 -18.28318 11.417027
7.4920139 -3.5702975 -2.2237732
25.091946 -11.962868 0.48521182
8.8543243 -4.2232962 -2.2648072
25.619925 -12.220078 1.4875973
11.205223 -5.3470182 -2.4133523
26.401861 -12.604356 2.5595899
14.860707 -7.0977473 -2.6083887
36.592541 -17.485113 4.9795818
16.940395 -8.0946751 -2.3052807
36.989632 -17.682787 6.4935956
17.240683 -8.2455559 -1.6719956
17.229492 -8.2475958 -1.0010822
36.792828 -17.612381 9.4173508
38.398235 -18.39735 11.408744
7.4836154 -3.5967965 -2.2248087
14.401238 -6.9246573 0.27892435
8.8437834 -4.254324 -2.265707
26.896742 -12.938745 1.5642172
11.1892 -5.3849983 -2.413734
26.604057 -12.809386 2.5832961
15.022172 -7.2361426 -2.6409268
36.702454 -17.687372 5.0024929
16.877693 -8.1335716 -2.300406
17.145052 -8.2697906 -1.665372
36.51585 -17.621012 7.881175
17.216436 -8.3116312 -1.0019196
36.944813 -17.83596 9.4713392
36.114025 -17.450426 10.747203
7.4681702 -3.6199076 -2.2237732
26.001665 -12.60891 0.50440943
8.8313789 -4.2844787 -2.2661569
27.074215 -13.140693 1.5771966
11.160684 -5.4169297 -2.4114442
26.629541 -12.93061 2.58992
15.907825 -7.7278562 -2.8011158
36.675739 -17.824604 5.0068808
16.77422 -8.1559792 -2.290169
37.429741 -18.207207 6.5924621
17.067368 -8.3021975 -1.6604911
36.457214 -17.742006 7.881175
17.142092 -8.3459463 -0.9991982
36.780716 -17.915321 9.4452448
36.844727 -17.962416 10.983245
7.4520183 -3.6442568 -2.222738
25.932346 -12.687294 0.50392079
8.8356237 -4.3247037 -2.271106
26.192293 -12.825805 1.5284194
11.161102 -5.4653525 -2.415642
26.616447 -13.039262 2.5930576
14.85905 -7.282589 -2.6209035
36.869957 -18.078365 5.0419788
16.816936 -8.2494535 -2.2999187
37.188622 -18.250723 6.5611749
16.995358 -8.3406572 -1.6563078
36.211784 -17.779171 7.8414865
17.059072 -8.3793173 -0.99605805
36.830341 -18.11479 10.997739
7.4444499 -3.6728117 -2.2242911
25.859211 -12.763575 0.5033623
8.8082428 -4.3494792 -2.2679565
26.140203 -12.913616 1.5280007
11.147238 -5.506887 -2.4167869
26.577917 -13.135623 2.593755
15.021236 -7.4272199 -2.6540675
36.14473 -17.879538 4.9513083
16.823618 -8.3257141 -2.3047931
16.944714 -8.3893232 -1.6542161
35.808205 -17.736416 7.7674527
16.972452 -8.4104347 -0.9927085
37.175045 -18.429598 9.5793161
38.376282 -19.041803 11.479142
7.4298534 -3.6979141 -2.2237732
25.835981 -12.864458 0.50378114
8.799983 -4.3836751 -2.2697561
26.048491 -12.981621 1.5252793
11.142004 -5.5527697 -2.4198396
