# .PCD v0.7 - Point Cloud Data file format
VERSION 0.7
FIELDS x y z
SIZE 4 4 4
TYPE F F F
COUNT 1 1 1
WIDTH 1435
HEIGHT 1
VIEWPOINT 0 0 0 1 0 0 0
POINTS 1435
DATA ascii
-9.3576717 -8.4612436 -1.1037403
-9.392395 -8.4866838 -0.66341066
-9.4201775 -8.5058117 -0.22154084
-6.1632266 -5.5493946 -2.2222204
-9.4305534 -8.4883299 0.22147104
-7.398263 -6.6567492 -2.2976501
-8.2558928 -7.425817 -2.1584315
-9.2365093 -8.3020039 -1.9670072
-9.4679747 -8.5040817 -1.5626088
-9.4197674 -8.4578085 -1.1075752
-9.4635859 -8.4911928 -0.66634142
-9.5093632 -8.5262766 -0.22293703
-6.1465564 -5.495656 -2.2092795
-9.5525656 -8.537981 0.22363515
-7.4635959 -6.6685386 -2.3106971
-8.3359413 -7.4453421 -2.1725514
-9.3361702 -8.3328524 -1.982025
-9.5657501 -8.5317593 -1.5738208
-9.5503569 -8.5150414 -1.1194284
-9.5379076 -8.4979639 -0.66948164
-9.548028 -8.501009 -0.22314647
-6.1079164 -5.4228621 -2.1885738
-9.639143 -8.5550241 0.22496152
-7.4139423 -6.5777802 -2.2882023
-8.4103498 -7.459187 -2.1851447
-9.3548517 -8.2910395 -1.9798348
-9.4052572 -8.3298531 -1.5426223
-9.7023449 -8.5899506 -1.1337218
-9.6333294 -8.5228519 -0.67408723
-9.6735287 -8.5523949 -0.22538038
-6.1862211 -5.4538898 -2.2097969
-9.6869497 -8.5371904 0.22538038
-7.4851117 -6.5943708 -2.3030491
-8.4658012 -7.4557366 -2.1927772
-9.3837366 -8.2583351 -1.9798348
-9.5684338 -8.4149561 -1.5645587
-9.6754093 -8.5060415 -1.127098
-9.6840277 -8.5076265 -0.67555261
-9.7393875 -8.5502405 -0.2262181
-6.1630697 -5.395359 -2.1947856
-9.7016439 -8.4901552 0.22503133
-7.4978166 -6.5592232 -2.2998996
-8.4223175 -7.3653955 -2.1748412
-9.3187971 -8.1436405 -1.9601241
-9.6784906 -8.4520149 -1.5777208
-9.6960354 -8.4643574 -1.1260523
-9.7076454 -8.4685192 -0.67513388
-9.7209387 -8.474143 -0.22510114
-6.1687441 -5.3624063 -2.1901269
-9.7463131 -8.4693575 0.22538038
-7.5442071 -6.5534563 -2.3070979
-8.5339537 -7.4106102 -2.196975
-9.3367243 -8.1019964 -1.957934
-10.187856 -8.834343 -1.655717
-10.121471 -8.7736788 -1.1718961
-10.153805 -8.7955055 -0.70402336
-6.2327576 -5.3799734 -2.2061737
-10.217902 -8.8167477 0.23557259
-7.6186833 -6.571631 -2.3228445
-8.5716629 -7.3910341 -2.2000279
-9.7211103 -8.3762436 -2.0323968
-10.317917 -8.8842115 -1.6718037
-10.340791 -8.9007645 -1.1936851
-10.426718 -8.9683914 -0.72077084
-10.431952 -8.9665651 -0.2401102
-5.7014494 -4.886734 -2.0120592
-10.467288 -8.968379 0.24059887
-7.6830173 -6.5804935 -2.3354418
-8.6302185 -7.3891592 -2.2084234
-9.7923145 -8.3782196 -2.041157
-10.621959 -9.0816317 -1.7159206
-10.577777 -9.0406656 -1.2173914
-10.621983 -9.0720291 -0.73207545
-10.62442 -9.0676994 -0.24381012
-6.2848768 -5.3488498 -2.21135
-10.69348 -9.0976486 0.2450667
-7.6836739 -6.5346966 -2.3286932
-8.6843786 -7.3831501 -2.2156742
-9.86516 -8.3810768 -2.0502305
-10.985003 -9.3258562 -1.7692993
-10.834095 -9.1944876 -1.2431895
-10.875979 -9.2235003 -0.74735755
-10.805512 -9.1572571 -0.24723078
-5.6837831 -4.8031693 -1.993942
-10.890151 -9.1996346 0.24883641
-7.6602826 -6.4688592 -2.3147464
-8.7326002 -7.3717866 -2.2213984
-9.8611364 -8.3185682 -2.0433471
-11.120699 -9.3744564 -1.7858734
-11.109896 -9.3620329 -1.2710793
-11.125048 -9.3681622 -0.76222098
-11.063861 -9.3100357 -0.2523967
-11.161202 -9.3620424 0.25428155
-7.6753502 -6.4358196 -2.3124969
-8.7808495 -7.3601766 -2.2271228
-9.9794588 -8.3589325 -2.0618064
-11.399956 -9.5419903 -1.8253592
-11.368661 -9.5124178 -1.2968775
-11.384449 -9.5188799 -0.7777124
-11.323401 -9.4611216 -0.25756261
-6.3034396 -5.2518272 -2.1984091
-11.40893 -9.5021935 0.25916824
-7.69028 -6.4027534 -2.3102474
-8.7989435 -7.3232012 -2.2252147
-10.082996 -8.3859406 -2.077137
-11.526175 -9.5828171 -1.840471
-11.668448 -9.6942167 -1.3272076
-11.632747 -9.65769 -0.79236645
-11.668627 -9.684042 -0.26468319
-5.7999144 -4.7998109 -2.0172358
-11.773189 -9.7396326 0.26670769
-7.6949515 -6.363555 -2.3052983
-8.923048 -7.3765421 -2.2504015
-10.069631 -8.3184891 -2.0686896
-11.70024 -9.6620951 -1.8631387
-11.995582 -9.8989477 -1.3606755
-11.944472 -9.8462639 -0.27019817
-6.0217481 -4.9498401 -2.0886698
-12.111334 -9.9519053 0.27361882
-7.5789776 -6.2254443 -2.2643573
-8.9778051 -7.3718276 -2.2580338
-10.239179 -8.4015856 -2.0977864
-11.938055 -9.7885981 -1.895556
-12.267397 -10.051478 -1.3875195
-12.20334 -9.9954329 -0.82669884
-12.300638 -10.067956 -0.27745837
-5.8617215 -4.7824087 -2.0270708
-12.338129 -10.066321 0.27794704
-7.6671109 -6.2531419 -2.284153
-9.0367212 -7.3649216 -2.2660477
-10.251524 -8.3490305 -2.094032
-12.086069 -9.8396111 -1.9135926
-12.293136 -10.001052 -1.3864735
-12.31893 -10.014894 -0.83203709
-12.345018 -10.032524 -0.27766779
-5.8573642 -4.744894 -2.019824
-12.368725 -10.015999 0.27780741
-7.5884938 -6.1428499 -2.2540095
-9.085269 -7.3518548 -2.2717719
-10.262173 -8.2982903 -2.0902774
-12.282631 -9.9249983 -1.9389415
-13.462502 -10.874516 -1.5140696
-13.471237 -10.873799 -0.90729618
-5.9100199 -4.7534771 -2.0322473
-13.44465 -10.809778 0.30112383
-7.6752052 -6.1688199 -2.2733555
-9.1093473 -7.3188667 -2.2713904
-10.221761 -8.2067661 -2.0761983
-12.338877 -9.8994579 -1.9423537
-14.117425 -11.32233 -1.5832711
-14.179266 -11.363801 -0.95230514
-14.02104 -11.228952 -0.31354994
-5.9371433 -4.7412567 -2.0358706
-14.248074 -11.374089 0.3182272
-7.541327 -6.0180054 -2.2274654
-9.1962271 -7.3359981 -2.2866549
-10.271973 -8.1882715 -2.0805786
-12.43857 -9.9082737 -1.9525908
-14.758031 -11.743279 -0.98841703
-14.746788 -11.730123 -0.32890806
-5.9521437 -4.7193027 -2.0353529
-14.790266 -11.726824 0.32946652
-7.6666183 -6.0764899 -2.2585087
-9.2448645 -7.3221374 -2.2923794
-10.376503 -8.2154779 -2.0962222
-12.448008 -9.8484964 -1.9489347
-14.532154 -11.489165 -1.6207482
-21.802813 -17.231188 -1.4564052
-6.142302 -4.8369875 -2.0948815
-7.6265259 -6.0014839 -2.2405124
-9.3061275 -7.3205709 -2.3015382
-10.457921 -8.2207098 -2.1068597
-12.540068 -9.8503532 -1.957953
-14.800527 -11.621792 -1.646372
-21.847116 -17.142647 -1.4553584
-6.2793779 -4.9095201 -2.1357749
-7.6535716 -5.9796252 -2.2423122
-9.3470974 -7.3001261 -2.3053544
-10.567531 -8.2473526 -2.1231289
-12.649512 -9.865118 -1.9696525
-14.830006 -11.561481 -1.6451519
-21.793381 -16.977907 -1.4478221
-6.3163157 -4.9029708 -2.1425042
-7.5743098 -5.875236 -2.2130685
-9.4218941 -7.303103 -2.3171847
-10.6431 -8.2467117 -2.132515
-12.622658 -9.7735052 -1.9601468
-16.068304 -12.432442 -1.7774541
-21.82386 -16.873482 -1.4457285
-6.4337192 -4.956419 -2.1761506
-7.554101 -5.8153396 -2.2009211
-9.4719381 -7.286479 -2.3229089
-10.687347 -8.2184849 -2.1353307
-12.949589 -9.9509449 -2.0052383
-16.080576 -12.347981 -1.7737937
-21.876051 -16.786085 -1.4451005
-6.4303555 -4.9163795 -2.1689036
-7.5831056 -5.7935309 -2.2031708
-9.5269604 -7.2760124 -2.3301597
-10.704833 -8.169673 -2.1328278
-12.877063 -9.8203516 -1.9884202
-15.993654 -12.192729 -1.7595001
-21.905914 -16.687836 -1.4432166
-6.4536343 -4.8985739 -2.1709743
-7.5898571 -5.7589288 -2.1995716
-9.5632524 -7.2510128 -2.3328309
-10.73344 -8.1353226 -2.1331406
-12.855755 -9.736845 -1.9801333
-16.237879 -12.289528 -1.7816377
-22.206419 -16.800674 -1.4593359
-6.4297333 -4.8469119 -2.1575158
-7.636374 -5.7523322 -2.2072196
-9.5841084 -7.2168975 -2.3320675
-10.779136 -8.1108704 -2.1365821
-12.97058 -9.7527571 -1.9925638
-16.367731 -12.30265 -1.7913991
-22.239374 -16.703871 -1.4576612
-6.4326935 -4.8140211 -2.1528571
-7.5929909 -5.6802835 -2.1892235
-9.5258999 -7.1210995 -2.3118417
-10.862939 -8.11765 -2.1478455
-13.082378 -9.7690773 -2.004751
-16.509583 -12.319313 -1.8022064
-22.294645 -16.63003 -1.4576612
-6.4641252 -4.8041873 -2.1580334
-7.6268525 -5.6642008 -2.1932726
-9.6566544 -7.1690497 -2.3377919
-10.894381 -8.0820351 -2.1484711
-13.16424 -9.7588158 -2.012063
-16.54874 -12.263314 -1.8020321
-22.281937 -16.499809 -1.4530556
-6.4979572 -4.794209 -2.1637273
-7.6528511 -5.6421709 -2.1950724
-9.6231451 -7.0922022 -2.3236721
-11.076812 -8.1575851 -2.1788194
-13.191831 -9.7080984 -2.0110881
-16.074671 -11.825308 -1.7459038
-22.104448 -16.249216 -1.4377736
-6.5598497 -4.8046007 -2.1787388
-7.6095986 -5.5693836 -2.1770763
-9.6522417 -7.0592031 -2.3244352
-11.27904 -8.245944 -2.2129223
-13.251282 -9.6807308 -2.0149879
-16.932167 -12.360734 -1.8341054
-22.189674 -16.186924 -1.4394484
-6.5899158 -4.7896132 -2.1828799
-7.4186735 -5.3880053 -2.1167896
-9.530283 -6.9165339 -2.2889447
-11.333169 -8.2219505 -2.2176151
-13.404001 -9.7171469 -2.0327806
-17.200024 -12.459892 -1.8581605
-22.119419 -16.011797 -1.4310745
-6.6042933 -4.7631674 -2.1818447
-7.3024111 -5.2627902 -2.0780978
-9.2931271 -6.6950226 -2.2263594
-11.374452 -8.1884327 -2.2198052
-13.47812 -9.6992912 -2.0388744
-17.243412 -12.399777 -1.8581605
-22.178425 -15.936815 -1.4312838
-6.5980639 -4.725493 -2.1745977
-7.3990593 -5.2952514 -2.1005929
-9.3360348 -6.6790185 -2.2313204
-11.43529 -8.1747932 -2.2263756
-13.699174 -9.7895775 -2.0673916
-17.208229 -12.288109 -1.8499678
-22.117342 -15.781978 -1.4239569
-6.5554485 -4.6621599 -2.1554451
-7.4769382 -5.3135848 -2.1176891
-9.2941132 -6.6025429 -2.2160556
-11.463945 -8.1379728 -2.2266884
-13.806123 -9.7933807 -2.0783601
-17.244009 -12.227519 -1.8494449
-22.159779 -15.701618 -1.4233288
-6.5322275 -4.6113958 -2.1425042
-7.323462 -5.1661344 -2.0690999
-9.3106861 -6.5655346 -2.2145293
-11.52458 -8.1206608 -2.2329459
-0.82281357 -0.57957143 0.12357552
-13.882425 -9.7748442 -2.0846972
-17.294731 -12.172985 -1.8503164
-22.103365 -15.546039 -1.4162111
-6.5198073 -4.5686107 -2.1331868
-7.3286796 -5.1315966 -2.0655005
-9.3448067 -6.5408745 -2.2172008
-11.528573 -8.0634012 -2.2282526
-0.79229391 -0.55394632 0.11870075
-13.838363 -9.6717367 -2.0729976
-17.242853 -12.042212 -1.8400321
-22.088718 -15.420765 -1.4118149
-6.5127163 -4.5281415 -2.1254222
-7.384953 -5.1326761 -2.0762982
-9.2510042 -6.4248276 -2.1893425
-11.600242 -8.0503778 -2.2363873
-0.75508225 -0.52401477 0.11285102
-13.891611 -9.6369543 -2.0759225
-17.21274 -11.932001 -1.8323622
-22.085979 -15.298764 -1.4080467
-6.5268922 -4.5042825 -2.1249044
-7.3154812 -5.0447283 -2.0515537
-9.3121672 -6.4192376 -2.1985013
-11.659184 -8.0311251 -2.242332
-0.73083824 -0.50323081 0.1089512
-14.016773 -9.6478777 -2.0893283
-17.091785 -11.760041 -1.8151054
-21.997709 -15.124262 -1.3990449
-6.5537305 -4.4891152 -2.1285279
-7.3555593 -5.0345712 -2.0578523
-9.259985 -6.3356962 -2.1809468
-0.73259038 -0.50067657 0.1089512
-14.122486 -9.6481609 -2.1000526
-17.078438 -11.663228 -1.8093531
-22.789452 -15.551741 -1.445938
-6.6029115 -4.4890203 -2.1393983
-7.4262834 -5.0450015 -2.0726991
-9.2008362 -6.2481894 -2.1618662
-11.710064 -7.9462051 -2.2413933
-0.73597628 -0.49923083 0.10919494
-14.165936 -9.6054907 -2.1015153
-17.142134 -11.619192 -1.8117934
-22.787373 -15.434012 -1.4423791
-6.6105342 -4.4605412 -2.1368101
-7.5601826 -5.0974894 -2.105092
-9.3951588 -6.3323431 -2.2023175
-11.362528 -7.6525884 -2.1697464
-0.72783446 -0.49000689 0.10773251
-14.182911 -9.544899 -2.0990777
-17.42725 -11.723881 -1.8375916
-22.801329 -15.327634 -1.4398669
-6.611618 -4.4277625 -2.1321514
-7.4499855 -4.9854488 -2.0695498
-9.1397972 -6.1139402 -2.1374426
-11.45322 -7.6556907 -2.1819482
-0.73119098 -0.48856613 0.10797625
-14.222743 -9.4997463 -2.1000526
-17.47967 -11.670716 -1.8388119
-22.801525 -15.212483 -1.4365175
-6.6270323 -4.4046578 -2.1321514
-7.588212 -5.0415969 -2.1032922
-9.4358654 -6.2644281 -2.2015543
-11.415999 -7.5761609 -2.1700592
-0.72619039 -0.48174921 0.10700129
-14.166486 -9.3943834 -2.0871346
-17.536909 -11.620635 -1.8405551
-22.845186 -15.132374 -1.4360987
-6.5577569 -4.3273292 -2.1052344
-7.6887369 -5.0697885 -2.1262374
-9.3352852 -6.1531496 -2.1733146
-11.495167 -7.5710344 -2.1800709
-0.72289342 -0.47593674 0.10627007
-13.972019 -9.1953669 -2.0537424
-17.59734 -11.572488 -1.8426466
-22.894529 -15.050342 -1.4358894
-6.5719562 -4.3022065 -2.1047165
-7.7471528 -5.0695953 -2.137485
-9.4925146 -6.2069969 -2.2046072
-11.539374 -7.5396557 -2.1831996
-0.72288859 -0.47232464 0.10602634
-14.156936 -9.2464066 -2.0761664
-17.627617 -11.504458 -1.8416008
-23.006422 -15.003423 -1.4394484
-6.6015134 -4.288713 -2.1093752
-7.7558751 -5.0348001 -2.1347857
-9.4301319 -6.1193204 -2.1851447
-11.54905 -7.4885836 -2.1800709
-0.73960698 -0.47938931 0.10821999
-14.172404 -9.1825819 -2.0734851
-17.635895 -11.422276 -1.8382889
-23.045237 -14.914342 -1.4386109
-6.5937133 -4.2509871 -2.1021285
-7.8159952 -5.0351367 -2.1464829
-9.4745426 -6.1012459 -2.1904874
-11.708013 -7.53374 -2.2051005
-0.73125857 -0.47036135 0.10675755
-14.342958 -9.2221632 -2.0937154
-17.655546 -11.347719 -1.8361971
-23.087078 -14.827332 -1.4379829
-6.6849961 -4.2768764 -2.1264575
-7.8942752 -5.046658 -2.1631293
-9.5784998 -6.1209955 -2.2095683
-11.809161 -7.5406623 -2.2191796
-0.72620291 -0.46353367 0.1057826
-14.40351 -9.1901951 -2.0978591
-17.671534 -11.271021 -1.8337568
-23.169006 -14.765979 -1.4398669
-6.7129312 -4.2618003 -2.1305985
-7.8731227 -4.9964371 -2.1527817
-9.531827 -6.0444174 -2.1939218
-11.860794 -7.5183835 -2.2241855
-0.7260592 -0.46006045 0.10553886
-14.341672 -9.0839596 -2.0844533
-17.596289 -11.13681 -1.8219036
-23.170586 -14.659167 -1.4369361
-6.7351985 -4.2446661 -2.1331868
-7.8822722 -4.9637303 -2.150532
-9.6216011 -6.0567021 -2.20995
-11.898672 -7.4842944 -2.2263756
-0.72598004 -0.45646667 0.10529512
-14.380017 -9.0380678 -2.0854285
-17.612879 -11.065679 -1.8198119
-23.197933 -14.563329 -1.4354707
-6.7499743 -4.2211294 -2.1331868
-7.9416509 -4.9644227 -2.1622295
-9.6160431 -6.0064383 -2.2038438
-11.777652 -7.3537765 -2.199156
-0.73759389 -0.46036312 0.10675755
-14.423382 -8.9987373 -2.0873783
-17.61758 -10.983054 -1.8163255
-23.249489 -14.488433 -1.43568
-6.7679505 -4.1995788 -2.1342218
-7.9200439 -4.9106359 -2.1514318
-9.5201397 -5.9004374 -2.1771307
-11.755821 -7.2804003 -2.1900828
-0.73927623 -0.45765659 0.10675755
-14.430949 -8.9301443 -2.0837224
-17.652637 -10.915261 -1.8158028
-23.305836 -14.405216 -1.4358894
-6.7915239 -4.1798077 -2.1368101
-7.8906627 -4.8543687 -2.1388347
-9.5818415 -5.8901796 -2.1862895
-11.681435 -7.1752315 -2.1713107
-0.7374863 -0.45299527 0.10627007
-14.524623 -8.9181471 -2.0927405
-17.609114 -10.803562 -1.8074358
-23.372099 -14.328056 -1.4367268
-6.8077211 -4.1570816 -2.1373277
-7.8784585 -4.8071451 -2.1307364
-9.6874895 -5.9109488 0.59474587
-9.5654707 -5.8342061 -2.1778939
-11.785689 -7.1827273 -2.1860156
-0.73744637 -0.44925642 0.10602634
-14.621642 -8.9040823 -2.1020026
-17.468019 -10.633255 -1.7891331
-23.428799 -14.250529 -1.4371455
-6.792449 -4.1152754 -2.1280103
-7.9376955 -4.8072391 -2.1424339
-9.7729902 -5.9164019 0.59872341
-9.6126499 -5.8170457 -2.1839998
-0.89670324 -0.54242128 0.091687836
-11.870292 -7.1804118 -2.1972787
-0.7372334 -0.44578129 0.1057826
-14.510079 -8.7703238 -2.0817723
-17.453865 -10.541315 -1.7839037
-0.79278255 -0.47823709 -0.01616093
-6.829236 -4.1066661 -2.135257
-0.8792274 -0.52850217 0.017906168
-7.9594393 -4.7825131 -2.1437836
-0.90059853 -0.54092056 0.055057433
-9.6066418 -5.7699738 -2.1782756
-0.81308854 -0.48816663 0.082972266
-11.925771 -7.1572299 -2.2029104
-0.74899858 -0.44933257 0.10724504
-14.516772 -8.7053232 -2.0783601
-17.475058 -10.475183 -1.7825093
-0.84642941 -0.50697899 -0.051707931
-0.82190102 -0.49189764 -0.016719406
-6.8601208 -4.0927005 -2.1404335
-0.81236786 -0.4844605 0.016509976
-7.8974109 -4.7078037 -2.1226382
-0.81669402 -0.48665437 0.049823835
-9.6267242 -5.7364049 -2.1782756
-0.80451727 -0.47920793 0.081926398
-11.519566 -6.85887 -2.1234417
-0.7488566 -0.44570008 0.10700129
-0.85129452 -0.50646698 -0.12162561
-0.81170142 -0.48271978 -0.082623646
-0.837892 -0.49789953 -0.051079899
-0.83736855 -0.4971931 -0.016998643
-6.8627281 -4.0618415 -2.1368101
-0.78995931 -0.46736687 0.016021309
-7.9305701 -4.6901278 -2.1271372
-0.80463356 -0.47566932 0.048986461
-0.83487487 -0.49354684 -0.1885193
-0.80618501 -0.47639692 0.081926398
-0.82829732 -0.48926869 -0.15236719
-0.74186116 -0.43803662 0.1057826
-0.81202853 -0.4792763 -0.11577588
-0.79973578 -0.47164455 -0.08122915
-0.80177295 -0.47265741 -0.048777115
-0.81153113 -0.47802836 -0.016440166
-0.84636748 -0.49675956 -0.26296017
-0.8226285 -0.48282641 0.016649596
-0.81351447 -0.47728619 -0.21775262
-0.81662613 -0.47891998 0.049614493
-0.79264241 -0.46466884 -0.17859723
-0.81995857 -0.48049009 0.08314658
-0.80963135 -0.47424832 -0.14861277
-0.74681139 -0.43745103 0.10627007
-0.81369644 -0.47643903 -0.11577588
-0.84264994 -0.49299681 -0.085412621
-0.80694842 -0.47173148 -0.048986461
-0.81664789 -0.4772104 -0.016509976
-0.84809631 -0.49380213 -0.26296017
-0.84167552 -0.48986667 0.016998643
-0.82536483 -0.48018107 -0.22045203
-0.82865089 -0.48209283 0.050242521
-0.8112309 -0.4717688 -0.1824134
-0.81301844 -0.47261819 0.082275018
-0.82494539 -0.47935915 -0.1511157
-0.75012618 -0.43570808 0.10651381
-0.81878769 -0.47558984 -0.11626337
-0.84264237 -0.48905253 -0.085238315
-0.83105105 -0.48193717 -0.050347198
-0.80273819 -0.46533129 -0.016195834
-0.86311084 -0.49871913 -0.26710126
-0.82078427 -0.47407135 0.016544882
-0.81513906 -0.47062081 -0.21730271
-0.83197474 -0.4803409 0.050347198
-0.80768973 -0.46613201 -0.18126856
-0.79904896 -0.46095917 0.080706216
-0.83166432 -0.47958127 -0.15205432
-0.75328678 -0.4342095 0.10675755
-0.8341189 -0.48080274 -0.11821327
-0.83044755 -0.47830039 -0.083843827
-0.83956891 -0.48316348 -0.050765883
-0.81641036 -0.46964657 -0.016440166
-0.82789028 -0.47471306 -0.25571322
-0.79459316 -0.45543647 0.015986405
-0.81500435 -0.46694633 -0.21685281
-0.82671374 -0.47346345 0.049928509
-0.81612706 -0.46721154 -0.18279503
-0.79365659 -0.45434779 0.080008969
-0.80924702 -0.46308509 -0.14767416
-0.7547226 -0.43170911 0.10675755
-0.82372916 -0.47099084 -0.1165071
-0.83557194 -0.47737539 -0.084192447
-0.82672894 -0.47174922 -0.01661469
-0.81954813 -0.46594685 -0.25260741
-0.80842704 -0.4594371 0.016230738
-0.80993259 -0.46010575 -0.2150532
-0.81281251 -0.46155414 0.048986461
-0.81100464 -0.46034038 -0.18126856
-0.80051476 -0.45438617 0.080531903
-0.82124734 -0.46596485 -0.14955136
-0.75629979 -0.42894 0.10675755
-0.81336176 -0.46111542 -0.11480093
-0.84771746 -0.48020169 -0.085238315
-0.82040876 -0.46435407 -0.04940515
-0.81278843 -0.45985368 -0.016300548
-0.83303076 -0.46958023 -0.25623086
-0.81010544 -0.45647115 0.016230738
-0.79633218 -0.44852695 -0.21100408
-0.81963933 -0.46165451 0.049300473
-0.802342 -0.45172757 -0.17897885
-0.80911994 -0.45535791 0.08122915
-0.82122815 -0.4619832 -0.1492385
-0.75786686 -0.42616513 0.10675755
-0.80285436 -0.4514626 -0.11309476
-0.82159662 -0.46162438 -0.082449332
-0.82550782 -0.46344292 -0.049614493
-0.79694992 -0.44722751 -0.015951499
-0.83289731 -0.46587214 -0.25571322
-0.82732338 -0.46256509 0.016544882
-0.80461955 -0.44968662 -0.21280369
-0.8124485 -0.45406204 0.048777115
-0.80212176 -0.44810694 -0.17859723
-0.81584418 -0.45558643 0.081752084
-0.81930584 -0.45733172 -0.14861277
-0.76620996 -0.42751852 0.10773251
-0.80261362 -0.4478305 -0.11285102
-0.8353045 -0.46568865 -0.083669513
-0.83401924 -0.46459082 -0.050033178
-0.80366993 -0.44750071 -0.016056214
-0.8310594 -0.4612326 -0.25467795
-0.81836098 -0.45399851 0.016335452
-0.81633174 -0.45268646 -0.21550311
-0.81752223 -0.45315987 0.048986461
-0.80196363 -0.44435292 -0.17821561
-0.81735045 -0.45287848 0.081752084
-0.829458 -0.45939782 -0.15017711
-0.77457023 -0.42882121 0.10870746
-0.81806678 -0.45271572 -0.11480093
-0.8334378 -0.4608418 -0.083320886
-0.81990224 -0.45298386 -0.04909113
-0.8087281 -0.4466261 -0.016126024
-0.83612931 -0.46004626 -0.25571322
-0.80600208 -0.44328645 0.016056214
-0.81115466 -0.44593614 -0.2137035
-0.82792944 -0.45497003 0.04950982
-0.81219077 -0.44613644 -0.1801237
-0.80852735 -0.44412407 0.080706216
-0.80862629 -0.443995 -0.1461098
-0.77439648 -0.42502448 0.10846373
-0.83364379 -0.45735258 -0.11675084
-0.79668468 -0.43671465 -0.079486035
-0.79878461 -0.43750322 -0.047730397
-0.80685157 -0.44173831 -0.016056214
-0.81915414 -0.44680291 -0.25001919
-0.8146441 -0.44415849 0.016195834
-0.79909474 -0.43549952 -0.21010427
-0.81548285 -0.44443092 0.048672445
-0.8223632 -0.44799474 -0.1820318
-0.80665004 -0.43925223 0.080357596
-0.79810321 -0.43441734 -0.14391972
-0.76199943 -0.41459349 0.10651381
-0.82477283 -0.44874763 -0.11528841
-0.79470336 -0.43202761 -0.079137415
-0.7967968 -0.4328056 -0.047521055
-0.81541812 -0.44273588 -0.016195834
-0.81553423 -0.44132572 -0.2484663
-0.81259477 -0.43955171 0.016126024
-0.79882026 -0.43192056 -0.20965438
-0.81870896 -0.44267434 0.048777115
-0.80311865 -0.43406358 -0.17745239
-0.80459636 -0.43468082 0.080008969
-0.80301553 -0.43364576 -0.14454547
-0.75987643 -0.41017842 0.10602634
-0.808788 -0.43658069 -0.11285102
-0.80840689 -0.43601042 -0.080357596
-0.80701864 -0.43489838 -0.048044413
-0.80631876 -0.43433937 -0.015986405
-0.82890761 -0.44501558 -0.25208977
-0.817572 -0.43874577 0.016195834
-0.80368268 -0.43111151 -0.21055418
-0.80264723 -0.4303757 0.047730397
-0.80109316 -0.42954242 -0.17668915
-0.795497 -0.42636302 0.078963101
-0.81663781 -0.43751046 -0.14673555
-0.76298237 -0.40859345 0.10627007
-0.79805619 -0.42719698 -0.11114486
-0.82390195 -0.44084719 -0.081752084
-0.82254714 -0.43975303 -0.048881788
-0.79724693 -0.42586917 -0.015776975
-0.82875091 -0.4412114 -0.25157213
-0.80321079 -0.42743447 0.015881689
-0.80862355 -0.43013406 -0.21145399
-0.81472546 -0.43319723 0.048358425
-0.80952144 -0.4304302 -0.17821561
-0.80401778 -0.42732388 0.079660349
-0.81118208 -0.43095031 -0.14548407
-0.77317005 -0.41058272 0.10748877
-0.80480266 -0.42720079 -0.11187606
-0.82015586 -0.43516701 -0.08122915
-0.80290174 -0.42565307 -0.047625724
-0.79696155 -0.42214763 -0.015742071
-0.82003552 -0.43290451 -0.2484663
-0.80823499 -0.42649481 0.015951499
-0.79805452 -0.42094442 -0.20830467
-0.83036661 -0.43780264 0.049195804
-0.80407244 -0.42393929 -0.17668915
-0.81431741 -0.42915949 0.080531903
-0.7899614 -0.41614705 -0.14141677
-0.77108568 -0.40603155 0.10700129
-0.82561171 -0.43455958 -0.11455719
-0.79169482 -0.41653085 -0.078265861
-0.82029343 -0.43121204 -0.048567772
-0.8125931 -0.42680195 -0.016021309
-0.81811845 -0.42824775 -0.24743101
-0.83275241 -0.43572283 0.016405262
-0.80297273 -0.41996241 -0.20920448
-0.84604949 -0.44230419 0.050033178
-0.82990503 -0.43386409 -0.1820318
-0.81934232 -0.42815968 0.08088053
-0.81942374 -0.42802021 -0.14642268
-0.76369983 -0.39874381 0.1057826
-0.84120238 -0.43902245 -0.1165071
-0.83730567 -0.43680286 -0.082623646
-0.83596271 -0.43573114 -0.04940515
-0.85132325 -0.44336 -0.016754311
-0.86247492 -0.44763774 -0.26037198
-0.8378185 -0.43465486 0.016475072
-0.82173336 -0.42612821 -0.2137035
-0.83872229 -0.43475252 0.04950982
-0.82792848 -0.42915753 -0.18126856
-0.82083184 -0.42529702 0.08088053
-0.8489781 -0.43969274 -0.15142858
-0.77566439 -0.40155128 0.10724504
-0.82686239 -0.42787263 -0.11431345
-0.84590387 -0.43753901 -0.083320886
-0.83570427 -0.43189341 -0.049300473
-0.81555295 -0.42111859 -0.016021309
-0.84857237 -0.43666887 -0.25571322
-0.82688284 -0.42532513 0.016230738
-0.82841504 -0.42593041 -0.2150532
-0.82957649 -0.42634428 0.048881788
-0.81719851 -0.41998291 -0.17859723
-0.83648914 -0.42971262 0.082275018
-0.84172148 -0.43221489 -0.14986424
-0.78235954 -0.4015604 0.10797625
-0.82481843 -0.42317164 -0.11382597
-0.82437891 -0.42276436 -0.081054844
-0.82120913 -0.42077664 -0.048358425
-0.8259179 -0.42282546 -0.016195834
-0.8312363 -0.42390168 -0.25001919
-0.84090728 -0.42864865 0.016475072
-0.82302523 -0.41935241 -0.2132536
-0.83291322 -0.42420751 0.048986461
-0.82922888 -0.42233106 -0.18088694
-0.82740515 -0.42122039 0.08122915
-0.82569456 -0.4201681 -0.14673555
-0.77851796 -0.39599049 0.10724504
-0.85821533 -0.4363395 -0.11821327
-0.82414675 -0.41883716 -0.08088053
-0.81740338 -0.41505119 -0.048044413
-0.85421187 -0.43336666 -0.016719406
-0.81719464 -0.41315287 -0.24536048
-0.91557282 -0.46268979 0.017906168
-8.3005018 -4.1928864 -2.1469328
-0.93779606 -0.47350958 0.055057433
-0.84471822 -0.42651296 -0.18393987
-0.91069031 -0.45962396 0.08924748
-0.77812296 -0.39237669 0.10700129
-0.8526426 -0.42976716 -0.11723832
-0.84695542 -0.42671549 -0.082972266
-0.9026944 -0.45440274 -0.052963994
-7.0654478 -3.5412002 -2.1176574
-8.294178 -4.1534152 -2.1415341
-0.87429172 -0.43762165 -0.19004577
-11.831954 -5.9172559 -2.0952835
-0.7777124 -0.38877034 0.10675755
-14.662397 -7.3263869 -2.0125504
-18.458914 -9.2193737 -1.8051698
-25.223192 -12.586819 -1.4773395
-7.0794969 -3.5173733 -2.118175
-8.2852154 -4.1146193 -2.1356852
-9.9030275 -4.9137516 -2.148891
-11.839124 -5.8718424 -2.0930934
-0.77721852 -0.38530785 0.10651381
-14.688391 -7.2786055 -2.0127943
-18.512411 -9.1654863 -1.8072613
-25.279116 -12.510193 -1.478177
-7.0945878 -3.4955869 -2.1192105
-8.271553 -4.0719042 -2.1284869
-9.8637457 -4.8514266 -2.1366794
-11.850683 -5.8261251 -2.0915291
-0.77143252 -0.37909031 0.10553886
-14.692328 -7.2167864 -2.0098693
-18.537136 -9.0973034 -1.8065642
-25.439569 -12.473732 -1.4848759
-7.1073518 -3.4695604 -2.1192105
-8.2689075 -4.0330157 -2.1239879
-9.9061689 -4.8272839 -2.1420219
-11.976738 -5.8336844 -2.1099885
-0.77995598 -0.37973613 0.10651381
-14.71511 -7.1611495 -2.009382
-18.573938 -9.0310421 -1.8069128
-25.567753 -12.420551 -1.4896908
-7.1043687 -3.4359152 -2.1145515
-8.2748594 -3.9984438 -2.1217382
-9.9264956 -4.7943807 -2.1427851
-12.022944 -5.8017702 -2.1143684
-0.78134251 -0.37687489 0.10651381
-14.780598 -7.1261344 -2.0147443
-18.630476 -8.9782658 -1.8093531
-25.675739 -12.362419 -1.493459
-7.1250296 -3.4152703 -2.1171398
-8.2740145 -3.9642451 -2.118139
-9.9166069 -4.7469859 -2.1370609
-0.97051603 -0.46436894 0.094128199
-12.022517 -5.7524896 -2.1109269
-0.79333293 -0.37942064 0.10797625
-14.805939 -7.0779366 -2.0149879
-18.719236 -8.9406519 -1.8149312
-25.788689 -12.311625 -1.4976459
-7.141551 -3.3941121 -2.1186929
-8.2930832 -3.9378464 -2.119489
-9.9518042 -4.7233343 -2.1412585
-0.96845049 -0.45944011 0.093779579
-11.997901 -5.6893282 -2.1031051
-0.78209597 -0.3706975 0.10627007
-14.857462 -7.0389624 -2.0186441
-18.71637 -8.8631773 -1.8117934
-25.871223 -12.240328 -1.4999486
-7.1463633 -3.3658714 -2.1166222
-0.99326718 -0.46760795 0.019162742
-8.3050156 -3.9080422 -2.1190388
-9.975337 -4.6919122 -2.1427851
-0.94841158 -0.44588444 0.091687836
-12.003387 -5.6406889 -2.1006021
-0.78518182 -0.36880934 0.10651381
-14.885537 -6.9887447 -2.0191314
-18.718334 -8.7842474 -1.8090045
-25.989744 -12.185556 -1.5043448
-7.1598191 -3.341722 -2.1171398
-0.92965442 -0.43370262 0.017906168
-8.3274364 -3.8831482 -2.1212883
-0.95212919 -0.44398519 0.055057433
-9.9987717 -4.6603804 -2.1443117
-12.100004 -5.6346149 -2.1140556
-0.79726255 -0.37109235 0.10797625
-14.884645 -6.9250145 -2.0157192
-18.759724 -8.7239008 -1.8100505
-26.126312 -12.138515 -1.5097878
-7.1731935 -3.3175201 -2.1176574
-8.3331928 -3.8522408 -2.119489
-10.014979 -4.6254492 -2.1443117
-12.111449 -5.5911465 -2.1128042
-0.78767407 -0.36345622 0.10651381
-14.887697 -6.8664751 -2.0130382
-18.800917 -8.6633654 -1.8110963
-26.188189 -12.061841 -1.5110439
-7.1911807 -3.2969351 -2.1197281
-8.3359585 -3.81826 -2.1167896
-9.9945621 -4.5758677 -2.1366794
-12.145263 -5.5554085 -2.1153071
-0.78532732 -0.35905367 0.10602634
-14.88991 -6.804564 -2.0101132
-18.823795 -8.5943747 -1.8103991
-26.284641 -11.995229 -1.514184
-7.1961799 -3.2673609 -2.1176574
-8.3563337 -3.7923598 -2.1185889
-9.9844446 -4.5270438 -2.130955
-12.170941 -5.5133047 -2.1162457
-0.78657579 -0.35631034 0.10602634
-14.913572 -6.7525468 -2.0101132
-18.871834 -8.5368271 -1.8121423
-26.404869 -11.933356 -1.5185802
-7.207541 -3.2422214 -2.1176574
-8.3772879 -3.7649019 -2.1203887
-9.9930229 -4.488946 -2.1294286
-12.134244 -5.4457102 -2.1065466
-0.78787655 -0.35342482 0.10602634
-14.941841 -6.6994677 -2.0106006
-18.89061 -8.4660101 -1.8110963
-26.522924 -11.875399 -1.5229765
-7.2170496 -3.2162578 -2.1171398
-8.393939 -3.7372217 -2.1212883
-9.9978685 -4.4492493 -2.1271389
-12.131519 -5.3936901 -2.1027923
-0.79636145 -0.35389718 0.10700129
-14.972395 -6.6504893 -2.0115755
-18.941896 -8.4097185 -1.8131881
-26.61899 -11.807032 -1.5261166
-7.2353024 -3.1941671 -2.1192105
-8.4104986 -3.7094731 -2.1221881
-10.029507 -4.4214501 -2.1305733
-12.143041 -5.3481283 -2.1015408
-0.80667615 -0.35511422 0.10821999
-14.999151 -6.5997834 -2.012063
-18.967487 -8.3419476 -1.8128394
-26.751469 -11.754213 -1.5313503
-7.2499475 -3.1704392 -2.1202457
-8.4031115 -3.6729772 -2.1172395
-10.052076 -4.389554 -2.1320999
-12.158898 -5.3070402 -2.101228
-0.79875189 -0.3484683 0.10700129
-15.017316 -6.5484209 -2.0115755
-19.022064 -8.286828 -1.8152797
-26.856222 -11.69414 -1.5351183
-7.2604213 -3.1463799 -2.1202457
-8.4248238 -3.6474931 -2.119489
-10.064775 -4.3554182 -2.1317184
-12.186416 -5.2684846 -2.1027923
-0.80543017 -0.34804025 0.10773251
-15.029149 -6.4912424 -2.0101132
-19.056755 -8.22686 -1.815977
-26.955568 -11.625634 -1.538468
-7.2642584 -3.1179705 -2.118175
-8.4464598 -3.6219027 -2.1217382
-10.074504 -4.3179388 -2.1305733
-12.208364 -5.227469 -2.1034181
-0.82306492 -0.35225615 0.10992616
-15.055366 -6.4403019 -2.0106006
-19.07803 -8.157156 -1.8152797
-27.076797 -11.565997 -1.5430734
-7.2750988 -3.0925927 -2.118175
-8.4644308 -3.5946839 -2.1230881
-10.089516 -4.2827454 -2.1305733
-12.222898 -5.1832819 -2.1027923
-0.82063419 -0.34783164 0.10943868
-15.099689 -6.3970022 -2.0135255
-19.088043 -8.0827379 -1.8135366
-27.186905 -11.500979 -1.5470511
-7.287631 -3.0679288 -2.1186929
-8.4637318 -3.5613046 -2.1199389
-10.122501 -4.2551079 -2.1343896
-12.229093 -5.1381292 -2.100915
-0.81446213 -0.34203389 0.10846373
-15.128139 -6.349966 -2.0145004
-19.134512 -8.0237675 -1.8152797
-27.298574 -11.441643 -1.5512379
-7.3013301 -3.0452321 -2.1197281
-8.477911 -3.5324879 -2.1203887
-10.132932 -4.2200069 -2.1336262
-12.254251 -5.098443 -2.1021667
-0.83031446 -0.34528652 0.11041363
-15.142881 -6.2940769 -2.0135255
-19.197815 -7.9755588 -1.8187661
-27.463785 -11.398342 -1.5583556
-7.3101292 -3.0189912 -2.1192105
-8.4913797 -3.5050979 -2.1208386
-10.13308 -4.1786251 -2.1305733
-12.274741 -5.0592861 -2.1027923
-0.84613842 -0.3485803 0.11236355
-15.16734 -6.245337 -2.0140131
-19.236591 -7.913044 -1.8198119
-27.56424 -11.333029 -1.5619144
-7.3229337 -2.9929087 -2.1197281
-8.5137959 -3.4761505 -2.1230881
-10.148329 -4.1414552 -2.1305733
-12.301394 -5.0151 -2.1040437
-15.202241 -6.1915417 -2.0154753
-19.269156 -7.8439918 -1.8201605
-27.72596 -11.275258 -1.5686134
-7.3225913 -2.9629805 -2.1166222
-8.5312986 -3.4486017 -2.1244378
-10.166363 -4.1074758 -2.1313365
-12.311498 -4.9691715 -2.1027923
-15.216395 -6.1354718 -2.0145004
-19.277941 -7.7692294 -1.8184173
-27.802198 -11.193333 -1.5707068
-7.3436494 -2.9417121 -2.1197281
-8.5288115 -3.4130063 -2.1208386
-10.191575 -4.0763407 -2.1336262
-12.321433 -4.9232311 -2.1015408
-15.237719 -6.0823188 -2.0145004
-19.334553 -7.7137017 -1.8212065
-27.896763 -11.118399 -1.5738469
-7.3359151 -2.9089386 -2.1145515
-8.547328 -3.3875811 -2.1226382
-10.209394 -4.0421858 -2.1343896
-12.341365 -4.8837981 -2.1021667
-15.265189 -6.0346737 -2.0154753
-19.376183 -7.6520233 -1.8226008
-28.00036 -11.052227 -1.5776151
-7.3706951 -2.8944817 -2.1217985
-8.5518446 -3.3548753 -2.1208386
-10.219086 -4.0068741 -2.1336262
-12.37305 -4.8464551 -2.1046696
-15.28986 -5.9827981 -2.0159631
-19.41391 -7.5886927 -1.8236468
-28.128069 -10.9893 -1.5826395
-7.372251 -2.8639512 -2.1192105
-8.5616865 -3.3242981 -2.1203887
-10.224552 -3.9658425 -2.1317184
-12.39073 -4.8010726 -2.1046696
-15.295841 -5.923655 -2.0140131
-19.447714 -7.5237541 -1.824344
-28.462505 -10.999895 -1.5991776
-7.3767939 -2.8361177 -2.1176574
-8.5883665 -3.2984869 -2.1239879
-10.240166 -3.930831 -2.1320999
-12.396346 -4.753551 -2.1027923
-15.339695 -5.8760738 -2.0169377
-19.470137 -7.4543982 -1.8239954
-28.683544 -10.970394 -1.6094354
-7.3866487 -2.8103504 -2.1176574
-8.5925417 -3.2657161 -2.1221881
-10.264837 -3.8992453 -2.1343896
-12.405478 -4.7074442 -2.1015408
-15.374961 -5.8281245 -2.0188875
-19.510942 -7.3920355 -1.8253897
-28.863626 -10.923939 -1.6173905
-7.398221 -2.7852316 -2.118175
-8.6020651 -3.2350166 -2.1217382
-10.278384 -3.8633926 -2.1343896
-12.425533 -4.6655011 -2.1021667
-15.391495 -5.7730217 -2.0184002
-19.54409 -7.3266816 -1.8260871
-29.069921 -10.88615 -1.626811
-7.4151402 -2.7620871 -2.1202457
-8.618784 -3.2070105 -2.1230881
-10.288127 -3.8261216 -2.1336262
-12.452853 -4.6262293 -2.1040437
-15.404109 -5.7164974 -2.0174253
-19.58449 -7.2639623 -1.8274815
-29.201387 -10.819305 -1.6320447
-7.4156723 -2.7328463 -2.1176574
-8.6335831 -3.178252 -2.1239879
-10.295894 -3.7881498 -2.1324816
-12.476341 -4.5854573 -2.1052952
-15.431422 -5.665432 -2.0184002
-19.632174 -7.2037911 -1.8295733
-29.550264 -10.831415 -1.6494201
-7.4179077 -2.7042973 -2.115587
-8.6568928 -3.1542742 -2.1271372
-10.314588 -3.7542036 -2.1336262
-12.480341 -4.5400071 -2.1034181
-15.46132 -5.6182957 -2.0198627
-19.672184 -7.1406517 -1.8309678
-29.743734 -10.790578 -1.6582127
-7.4395547 -2.6842732 -2.1192105
-8.6623507 -3.1220546 -2.1257875
-10.326981 -3.7199783 -2.1336262
-12.488678 -4.4937396 -2.1021667
-15.495782 -5.5696626 -2.0218124
-19.710752 -7.0807691 -1.8323622
-7.4579763 -2.6615341 -2.1217985
-8.6585102 -3.086565 -2.1221881
-10.343602 -3.6852255 -2.1343896
-12.50801 -4.4514427 -2.1027923
-15.500166 -5.5102186 -2.0198627
-19.769144 -7.0239291 -1.8354999
-30.213608 -10.722946 -1.6801937
-7.4581137 -2.6322699 -2.1192105
-8.6692314 -3.05632 -2.1221881
-10.356402 -3.6490967 -2.1343896
-12.534653 -4.4116888 -2.1046696
-15.519304 -5.4560828 -2.0198627
-19.808578 -6.9601622 -1.8368943
-30.40539 -10.671646 -1.6887769
-7.4636078 -2.6049485 -2.118175
-8.6940393 -3.0326917 -2.1257875
-10.36166 -3.610342 -2.132863
-12.556676 -4.3726969 -2.105921
-15.541063 -5.4058928 -2.0203502
-19.828989 -6.8896666 -1.8365457
-30.674564 -10.652018 -1.7017562
-7.4776835 -2.5820754 -2.1197281
-8.7008877 -3.0010519 -2.1248875
-10.373576 -3.5759611 -2.132863
-12.553185 -4.3224072 -2.1027923
-15.563592 -5.3529019 -2.0208375
-19.860455 -6.8230028 -1.8372431
-30.821121 -10.582487 -1.707827
-7.4925818 -2.5565202 -2.1212809
-8.709466 -2.9700348 -2.1244378
-10.401482 -3.5429778 -2.135916
-12.565203 -4.2750988 -2.1021667
-15.612254 -5.308763 -2.0247374
-19.906788 -6.761323 -1.8393347
-31.098019 -10.550302 -1.7210158
-7.4941382 -2.5278826 -2.1192105
-8.7184467 -2.9374709 -2.1239879
-10.417506 -3.5079036 -2.1366794
-12.598772 -4.2375059 -2.1052952
-15.616553 -5.2464523 -2.0227876
-19.949158 -6.6981311 -1.8410778
-31.134655 -10.441692 -1.7210158
-7.5084147 -2.5035408 -2.1207633
-8.7286472 -2.9070199 -2.1239879
-10.425961 -3.470278 -2.135916
-12.613485 -4.1935043 -2.1052952
-15.638539 -5.1931591 -2.0232751
-19.99511 -6.6359849 -1.8431696
-31.239164 -10.355563 -1.7247839
-7.5116038 -2.4755023 -2.1192105
-8.7424431 -2.8777514 -2.1248875
-10.423092 -3.4289548 -2.132863
-12.635554 -4.1519165 -2.1065466
-15.652802 -5.1372967 -2.0227876
-20.025721 -6.5686359 -1.8438668
-31.787582 -10.414347 -1.7530454
-7.5055027 -2.4444821 -2.1150692
-8.7617016 -2.8502314 -2.1271372
-10.446199 -3.3961949 -2.1351528
-12.657486 -4.1102247 -2.1077983
-15.670638 -5.0826302 -2.0227876
-20.063694 -6.5036082 -1.8452613
-31.937746 -10.340243 -1.7593256
-7.5323806 -2.4241846 -2.1202457
-8.7771626 -2.8214209 -2.1284869
-10.457992 -3.3597074 -2.1351528
-12.656707 -4.0611911 -2.1052952
-15.699625 -5.0315328 -2.02425
-20.112837 -6.4420414 -1.8477017
-32.141048 -10.282248 -1.7685367
-7.5444784 -2.3990474 -2.1212809
-8.7795277 -2.7884057 -2.1266873
-10.484626 -3.3279331 -2.1382058
-12.67834 -4.0193706 -2.1065466
-15.717093 -4.9766994 -2.02425
-20.18079 -6.3862209 -1.8518852
-32.172935 -10.168789 -1.7683275
-7.5509634 -2.3721204 -2.1207633
-8.7817707 -2.7554064 -2.1248875
-10.488686 -3.2889647 -2.1366794
-12.703604 -3.9786325 -2.1084239
-15.730578 -4.9206243 -2.0237625
-20.214369 -6.319304 -1.852931
-32.215858 -10.058802 -1.7687461
-7.5591974 -2.3457477 -2.1207633
-8.8025045 -2.7281969 -2.1275871
-10.500102 -3.2523346 -2.1366794
-12.724963 -3.9365995 -2.1096754
-15.751453 -4.8668528 -2.02425
-20.236303 -6.248704 -1.852931
-32.224056 -9.9380445 -1.7672807
-7.5654931 -2.3187807 -2.1202457
-8.821291 -2.7003078 -2.1298366
-10.507635 -3.2145135 -2.135916
-12.73107 -3.8898511 -2.1084239
-15.783536 -4.8164749 -2.0262001
-20.265615 -6.180357 -1.8536284
-32.484005 -9.8941698 -1.7796321
-7.5790882 -2.294035 -2.1217985
-8.8208704 -2.6682189 -2.1275871
-10.522552 -3.1789484 -2.1366794
-12.732552 -3.8441854 -2.1065466
-15.810823 -4.7675457 -2.0276623
-20.298512 -6.1130257 -1.8546741
-32.554886 -9.7979059 -1.7817255
-7.5903549 -2.2699995 -2.122834
-8.8226624 -2.6351812 -2.1257875
-10.536798 -3.1451619 -2.1374426
-12.745893 -3.7997169 -2.1065466
-15.827368 -4.7123299 -2.0276623
-20.349226 -6.0547695 -1.8574631
-32.573566 -9.6796627 -1.780888
-7.5963807 -2.2429416 -2.1223164
-8.839283 -2.6065726 -2.1275871
-10.547712 -3.1083622 -2.1374426
-12.751498 -3.7529707 -2.1052952
-15.84753 -4.6581731 -2.0281496
-20.370235 -5.9837003 -1.8574631
-32.522835 -9.5411634 -1.7762825
-7.6078725 -2.2174926 -2.1233516
-8.8445845 -2.5746143 -2.1266873
-10.543418 -3.0671372 -2.1343896
-12.787285 -3.7150502 -2.1090496
-15.863694 -4.6028256 -2.0281496
-20.422651 -5.917872 -1.8602523
-32.586636 -9.4364653 -1.7779572
-7.6029525 -2.1858585 -2.1197281
-8.8703756 -2.5485661 -2.1307364
-10.569685 -3.0328076 -2.1374426
-12.797018 -3.667069 -2.1084239
-15.89493 -4.5517983 -2.0300996
-20.447014 -5.8476424 -1.8606008
-32.524982 -9.2895403 -1.7727237
-7.614253 -2.1603584 -2.1207633
-8.874032 -2.5144458 -2.1293867
-10.591542 -2.9991004 -2.1397321
-12.794533 -3.6180792 -2.105921
-15.92297 -4.4967427 -2.0315621
-20.47497 -5.7784023 -1.861298
-32.561058 -9.1770344 -1.7729331
-7.6273293 -2.135329 -2.1223164
-8.8673086 -2.480804 -2.1257875
-10.598165 -2.9610538 -2.1389689
-12.814072 -3.5777555 -2.1071725
-15.930144 -4.4417825 -2.0305872
-20.544922 -5.720787 -1.8658301
-32.498951 -9.0433054 -1.7679088
-7.638092 -2.1110528 -2.1233516
-8.8796701 -2.4508729 -2.1266873
-10.611711 -2.9269366 -2.1397321
-12.826482 -3.533004 -2.1071725
-15.941725 -4.3850994 -2.0300996
-20.617571 -5.6674161 -1.8707108
-32.534168 -8.930872 -1.768118
-7.636095 -2.0818391 -2.1207633
-8.8956928 -2.4219093 -2.1284869
-10.602918 -2.8847249 -2.135916
-12.84255 -3.4892418 -2.1077983
-15.968429 -4.3325434 -2.0315621
-20.652613 -5.5995789 -1.8721054
-32.603699 -8.8276901 -1.7702116
-7.6414504 -2.0546696 -2.1202457
-8.9116201 -2.3928638 -2.1302865
-10.620507 -2.8497312 -2.1374426
-12.85465 -3.4443946 -2.1077983
-15.991127 -4.2788296 -2.0325372
-20.672031 -5.5274582 -1.8721054
-32.522396 -8.6839352 -1.7641405
-7.6485758 -2.0279832 -2.1202457
-8.9255705 -2.3632386 -2.1316364
-10.637983 -2.8146501 -2.1389689
-12.858956 -3.3974838 -2.1065466
-16.013643 -4.2250094 -2.0335121
-20.729731 -5.4654231 -1.8755915
-32.788151 -8.6323957 -1.7769107
-7.6705599 -2.0051827 -2.1243868
-8.9149103 -2.3271456 -2.1271372
-10.642042 -2.7760146 -2.1378241
-12.878385 -3.3545685 -2.1077983
-16.020609 -4.1670861 -2.0325372
-20.744827 -5.3920269 -1.8752429
-32.802616 -8.5138836 -1.7760731
-7.6793838 -1.9788753 -2.1249044
-8.9343023 -2.298928 -2.1298366
-10.661177 -2.741292 -2.1397321
-12.897668 -3.3115616 -2.1090496
-16.038902 -4.1121235 -2.0330245
-20.778961 -5.3235412 -1.8766375
-32.410316 -8.2914162 -1.7532547
-7.6918626 -1.9534837 -2.1264575
-8.9441614 -2.2682064 -2.1302865
-10.655456 -2.7002022 -2.1366794
-12.912979 -3.2674859 -2.1096754
-16.053158 -4.0561156 -2.0330245
-20.816736 -5.2558484 -1.8783807
-32.435184 -8.1772633 -1.7530454
-7.6855154 -1.9233408 -2.122834
-8.9520245 -2.236969 -2.1302865
-10.661005 -2.6620421 -2.135916
-12.916639 -3.2204792 -2.1084239
-16.067219 -4.0000544 -2.0330245
-20.84269 -5.1850758 -1.8790778
-32.583714 -8.0938358 -1.7595351
-7.6940579 -1.8969637 -2.1233516
-8.9597778 -2.205709 -2.1302865
-10.685485 -2.6285636 -2.1389689
-12.923965 -3.1744325 -2.1077983
-16.100365 -3.9486694 -2.0354621
-20.884777 -5.1143408 -1.8811696
-32.507004 -7.9544125 -1.7538828
-7.702836 -1.8692063 -2.1238692
-8.9598484 -2.1725831 -2.1284869
-10.695047 -2.5893791 -2.1389689
-12.935513 -3.1270394 -2.1077983
-16.106331 -3.8905795 -2.034487
-20.945112 -5.0516791 -1.8850043
-33.937885 -8.1728354 -1.8294559
-7.7205877 -1.845001 -2.1269751
-8.9563789 -2.1370132 -2.1257875
-10.704021 -2.5520329 -2.1389689
-12.946351 -3.0818665 -2.1077983
-16.120481 -3.8315241 -2.034487
-20.962618 -4.9785357 -1.8850043
-33.942886 -8.0487814 -1.8281999
-7.7175789 -1.8158274 -2.1243868
-8.9808569 -2.1097491 -2.1298366
-10.701396 -2.511961 -2.1366794
-12.968569 -3.0393636 -2.1096754
-16.145357 -3.7779396 -2.0359495
-21.003149 -4.91078 -1.887096
-32.438141 -7.5724654 -1.7457184
-7.7238693 -1.7888786 -2.1243868
-8.9900646 -2.078826 -2.1302865
-10.713924 -2.4754772 -2.1374426
-12.971399 -2.9922998 -2.1084239
-16.158445 -3.7215619 -2.0359495
-21.035696 -4.8410096 -1.8884906
-34.068321 -7.8277273 -1.8319679
-7.7357183 -1.7631922 -2.1259398
-8.9934664 -2.0465672 -2.1293867
-10.7225 -2.4380608 -2.1374426
-12.966355 -2.9435043 -2.105921
-16.182953 -3.6677682 -2.0374119
-21.087442 -4.7754722 -1.8916281
-34.165565 -7.7246141 -1.8357362
-7.7415228 -1.7375315 -2.1259398
-8.9925976 -2.0150278 -2.1275871
-10.73819 -2.4042082 -2.1389689
-12.985683 -2.9026442 -2.1074855
-16.195028 -3.6140828 -2.0374119
-21.130388 -4.7115865 -1.8940685
-34.097424 -7.5904427 -1.830712
-7.7456546 -1.7100796 -2.1254222
-9.0052862 -1.9848858 -2.1289368
-10.738847 -2.3650184 -2.1374426
-13.009241 -2.86027 -2.1096754
-16.203665 -3.5566778 -2.0369244
-21.177843 -4.6446328 -1.8968576
-34.190041 -7.4858966 -1.8342707
-7.7515769 -1.6830316 -2.1254222
-9.0159674 -1.9542648 -2.1298366
-10.735524 -2.3250246 -2.1351528
-13.011423 -2.8131688 -2.1084239
-16.239265 -3.5051239 -2.0398493
-21.213406 -4.5748749 -1.8986006
-34.262825 -7.3766012 -1.8367828
-7.7555141 -1.6555613 -2.1249044
-9.0246401 -1.9231848 -2.1302865
-10.758936 -2.2908096 -2.1382058
-13.021164 -2.7677326 -2.1084239
-16.24752 -3.4475927 -2.0393617
-21.260431 -4.5074096 -1.9013897
-34.335262 -7.2668734 -1.839295
-7.7669182 -1.6296694 -2.1264575
-9.0236702 -1.8900752 -2.1284869
-10.770711 -2.2540441 -2.1389689
-13.019143 -2.7198424 -2.1065466
-16.271114 -3.3932843 -2.0408242
-21.315042 -4.4413018 -1.9048759
-34.36042 -7.146976 -1.839295
-7.7744513 -1.6029377 -2.1269751
-9.0263948 -1.8577793 -2.1275871
-10.766975 -2.2140605 -2.1366794
-13.024689 -2.6735861 -2.105921
-16.286751 -3.3372674 -2.0413115
-21.365549 -4.3740635 -1.9080135
-34.447777 -7.0397954 -1.8426445
-7.7837858 -1.5765568 -2.1280103
-9.0404654 -1.8278044 -2.1293867
-10.78426 -2.1784062 -2.1385872
-13.045561 -2.6304474 -2.1077983
-16.294407 -3.2796118 -2.0408242
-21.404127 -4.3041701 -1.9101051
-34.487804 -6.9226518 -1.843482
-7.7854528 -1.5486227 -2.1269751
-9.0506124 -1.796997 -2.1302865
-10.772541 -2.136929 -2.1347711
-13.054663 -2.5848935 -2.1077983
-16.325232 -3.2265623 -2.0432615
-21.438568 -4.2332888 -1.9118483
-34.613659 -6.8223076 -1.8489249
-7.7889156 -1.5210665 -2.1264575
-9.0644817 -1.7668825 -2.132086
-10.779935 -2.0993125 -2.1347711
-13.048092 -2.5362926 -2.1052952
-16.328598 -3.1680479 -2.0422866
-21.48451 -4.1644936 -1.9146372
-34.645107 -6.7029495 -1.8493435
-7.8017654 -1.495325 -2.1285279
-9.0591097 -1.7330337 -2.1293867
-10.796839 -2.0635157 -2.1366794
-13.064629 -2.4922109 -2.1065466
-16.351257 -3.1132545 -2.0437491
-21.541979 -4.0976639 -1.9184722
-34.719307 -6.5916677 -1.852065
-7.8012424 -1.4670115 -2.1269751
-9.0612736 -1.7006838 -2.1284869
-10.803976 -2.0258148 -2.1366794
-13.073248 -2.4465945 -2.1065466
-16.362026 -3.0561585 -2.0437491
-21.571819 -4.025372 -1.9198667
-34.820648 -6.4850616 -1.856252
-7.8120151 -1.4408202 -2.1285279
-9.0709877 -1.6697491 -2.1293867
-10.799397 -1.9859562 -2.1343896
-13.08948 -2.4023716 -2.1077983
-16.380404 -3.0004597 -2.044724
-21.628855 -3.957937 -1.9237015
-34.882366 -6.3706594 -1.8583454
-7.8074923 -1.4118253 -2.1259398
-9.080596 -1.638767 -2.1302865
-10.790805 -1.9454625 -2.1313365
-13.090011 -2.3552635 -2.1065466
-16.402502 -2.9453681 -2.0461864
-21.630774 -3.8802977 -1.9226557
-34.916183 -6.2509685 -1.8589733
-7.8161774 -1.3852376 -2.1269751
-9.0862608 -1.6070596 -2.1302865
-10.78013 -1.9047092 -2.127902
-13.090369 -2.308187 -2.1052952
-16.432234 -2.8915346 -2.0486238
-21.667734 -3.8089073 -1.9247475
-34.937794 -6.1290412 -1.8589733
-7.8190618 -1.3576148 -2.1264575
-9.0937366 -1.5756655 -2.1307364
-10.800256 -1.8694115 -2.1305733
-13.106133 -2.2638235 -2.1065466
-16.461788 -2.8375251 -2.0510612
-21.70446 -3.7373114 -1.9268392
-34.962914 -6.0077233 -1.8591827
-7.8313699 -1.3316098 -2.1285279
-9.0854626 -1.5432161 -2.1275871
-10.8222 -1.8343271 -2.1336262
-13.109674 -2.2196896 -2.105921
-16.486767 -2.7855654 -2.0530112
-21.752735 -3.6674874 -1.9299767
-35.033852 -5.9003725 -1.8619041
-7.8452711 -1.3072201 -2.1311162
-9.0984831 -1.5127709 -2.1293867
-10.816603 -1.7964988 -2.1313365
-13.12124 -2.1745603 -2.1065466
-16.500307 -2.7286501 -2.0534985
-21.811958 -3.6031253 -1.9341602
-34.979347 -5.7657089 -1.8579265
-7.8402529 -1.2782724 -2.1285279
-9.1017857 -1.4806912 -2.1289368
-10.811182 -1.7568415 -2.1290469
-13.12875 -2.1287482 -2.1065466
-16.513649 -2.6716702 -2.0539861
-21.848005 -3.5307791 -1.936252
-35.070244 -5.6550188 -1.8616948
-7.8408518 -1.2502866 -2.1274927
-9.1126709 -1.4498291 -2.1302865
-10.817249 -1.7190899 -2.1290469
-13.128296 -2.0816693 -2.1052952
-16.526796 -2.6146307 -2.0544736
-21.852322 -3.4532542 -1.9355546
-35.204205 -5.5506077 -1.8677659
-7.8432598 -1.2226133 -2.1269751
-9.102272 -1.4156128 -2.1266873
-10.821242 -1.6810181 -2.1286652
-13.123772 -2.0340118 -2.1034181
-16.547594 -2.5587492 -2.0559361
-21.91544 -3.3848555 -1.9400867
-35.298367 -5.4392533 -1.8717432
-7.857029 -1.1966821 -2.1295633
-9.1071577 -1.3838313 -2.1266873
-10.840631 -1.6452991 -2.1313365
-13.134698 -1.98878 -2.1040437
-16.556425 -2.500967 -2.0559361
-21.958643 -3.3130915 -1.9428759
-35.28159 -5.3106456 -1.8698592
-7.8688016 -1.1703852 -2.1316338
-9.1157885 -1.3526068 -2.1275871
-10.828831 -1.6048578 -2.127902
-13.14156 -1.942922 -2.1040437
-16.568981 -2.4437377 -2.0564234
-22.009495 -3.2422328 -1.946362
-35.3671 -5.19733 -1.8734181
-7.8594556 -1.1409698 -2.1280103
-9.1146688 -1.3199403 -2.1262374
-10.828538 -1.5662075 -2.1267571
-13.144351 -1.8964731 -2.1034181
-16.589201 -2.3875868 -2.0578859
-22.06801 -3.1721885 -1.9505454
-35.345482 -5.0681815 -1.8713245
-7.8672171 -1.1140679 -2.1290457
-9.1288681 -1.2894789 -2.1284869
-10.841715 -1.5294933 -2.1282835
-13.15089 -1.8505788 -2.1034181
-16.609228 -2.3313203 -2.0593483
-22.086842 -3.0962436 -1.9512427
-35.4856 -4.9619193 -1.8778143
-7.8691435 -1.0863348 -2.1285279
-9.1313829 -1.257339 -2.128037
-10.860602 -1.4935114 -2.130955
-13.149443 -1.8035883 -2.1021667
-16.648733 -2.2776334 -2.0632482
-22.156736 -3.0272181 -1.9564722
-35.573948 -4.8477287 -1.8815826
-7.8690591 -1.0583446 -2.1274927
-9.1183338 -1.2231251 -2.1239879
-10.863804 -1.4553308 -2.1305733
-13.159574 -1.7581998 -2.1027923
-16.652647 -2.2189798 -2.0627606
-22.210617 -2.9556394 -1.9603069
-35.547089 -4.7177405 -1.8792796
-7.8841982 -1.0323765 -2.1305985
-9.1322098 -1.1925501 -2.1262374
-10.870764 -1.4176563 -2.130955
-13.181301 -1.7142913 -2.1052952
-16.660292 -2.1608374 -2.0627606
-22.256367 -2.8826978 -1.9634446
-35.638615 -4.6033511 -1.8832572
-7.8858371 -1.0046049 -2.1300809
-9.1440487 -1.1616497 -2.128037
-10.873699 -1.3794543 -2.1305733
-13.183286 -1.6677766 -2.1046696
-16.671671 -2.1031654 -2.0632482
-22.309778 -2.8104739 -1.9672793
-35.749588 -4.4908695 -1.8882815
-7.8777928 -0.97564536 -2.1269751
-9.1403122 -1.1287683 -2.1262374
-10.888191 -1.3426881 -2.1324816
-13.189028 -1.6217479 -2.1046696
-16.698614 -2.0473769 -2.0656855
-22.351097 -2.736455 -1.9700685
-35.761078 -4.3655758 -1.888072
-7.8830681 -0.9483732 -2.1274927
-9.1519356 -1.0977817 -2.128037
-10.890862 -1.3044418 -2.1320999
-13.194608 -1.575696 -2.1046696
-16.713543 -1.9900137 -2.0666604
-22.423824 -2.6659391 -1.9756464
-35.895103 -4.2548251 -1.8943526
-7.895925 -0.92197043 -2.1300809
-9.1499052 -1.0651547 -2.1266873
-10.9129 -1.2684574 -2.1355343
-13.21965 -1.5319054 -2.1077983
