# .PCD v0.7 - Point Cloud Data file format
VERSION 0.7
FIELDS x y z
SIZE 4 4 4
TYPE F F F
COUNT 1 1 1
WIDTH 1464
HEIGHT 1
VIEWPOINT 0 0 0 1 0 0 0
POINTS 1464
DATA ascii
-8.6960945 -1.3260306 -2.0308583
-10.28274 -1.5661352 -2.0218122
-12.481365 -1.8965415 -1.9995456
-16.174355 -2.4519188 -2.0086505
-23.264942 -3.5226431 -2.0586185
-28.907923 -4.3667498 -1.5321876
-7.572032 -1.1302971 -2.0513999
-8.7006702 -1.2956673 -2.0308583
-10.286201 -1.5299431 -2.0214307
-12.505495 -1.8555738 -2.0023613
-16.171034 -2.3936965 -2.0071883
-23.265272 -3.4396687 -2.0575728
-29.333975 -4.3264303 -1.5539594
-34.837578 -5.1257343 -0.61463886
-7.5759315 -1.1038604 -2.0513999
-8.6993542 -1.2644471 -2.0295084
-10.293422 -1.4943125 -2.0218122
-12.500167 -1.8102112 -2.0004842
-16.167501 -2.335535 -2.0057259
-23.249527 -3.3544526 -2.0551324
-29.36076 -4.2257228 -1.5545874
-7.5835633 -1.0779504 -2.0524352
-8.7131472 -1.2369615 -2.0317578
-10.283025 -1.4561677 -2.0187593
-12.52566 -1.771515 -2.0036128
-16.186953 -2.283572 -2.0071883
-23.225582 -3.2682781 -2.0519948
-29.429991 -4.1361179 -1.5575182
-7.5717883 -1.0506737 -2.0482941
-8.7077589 -1.2052052 -2.0295084
-10.289742 -1.4223309 -2.019141
-12.504371 -1.724004 -1.9992328
-16.198757 -2.2275956 -2.0076756
-23.232346 -3.1906981 -2.0516462
-29.206793 -4.0008345 -1.5449575
-7.5754094 -1.0242349 -2.0482941
-8.7041874 -1.1737603 -2.027709
-10.294643 -1.3864015 -2.019141
-12.502481 -1.6792957 -1.9979812
-16.186758 -2.1684015 -2.0052383
-23.215693 -3.1058888 -2.0492058
-29.505661 -3.9368961 -1.5600303
-7.5846853 -0.99854189 -2.0498469
-8.7043676 -1.1428622 -2.026809
-10.301368 -1.3507129 -2.0195224
-12.514144 -1.6364089 -1.9989198
-16.190292 -2.111376 -2.004751
-23.202686 -3.0217383 -2.0471141
-29.218168 -3.7947841 -1.5441202
-7.5919566 -0.97255278 -2.0508821
-8.7023115 -1.1132489 -2.0254593
-10.296282 -1.3135064 -2.0176144
-12.52538 -1.5956529 -1.9998584
-16.18145 -2.0556731 -2.0028009
-23.193327 -2.9382226 -2.0453708
-29.757662 -3.7645495 -1.571963
-7.5913062 -0.94689316 -2.0498469
-8.7138786 -1.0838252 -2.0272589
-10.296685 -1.2788711 -2.0168512
-12.544597 -1.5536176 -2.0020485
-16.188526 -1.9991764 -2.0028009
-23.187124 -2.8593433 -2.0439765
-29.861809 -3.6718647 -1.5767779
-7.5849757 -0.91922641 -2.0472586
-8.7135563 -1.0544566 -2.0263591
-10.299137 -1.2426856 -2.0164697
-12.524182 -1.5089403 -1.9979812
-16.206896 -1.9469026 -2.0042634
-23.145529 -2.7722321 -2.0394444
-29.675508 -3.5491004 -1.5663106
-7.5937381 -0.8947466 -2.0488117
-8.7133131 -1.0235791 -2.0254593
-10.305151 -1.2087539 -2.0168512
-12.533299 -1.4656723 -1.998607
-16.209648 -1.8898579 -2.0037761
-23.170425 -2.6973054 -2.0408387
-29.993242 -3.4809499 -1.5824301
-7.5968156 -0.8682338 -2.0488117
-8.7187691 -0.9933781 -2.0259092
-10.309308 -1.1727747 -2.0168512
-12.53245 -1.4212457 -1.9976684
-16.200367 -1.8314797 -2.001826
-23.179701 -2.6164083 -2.0408387
-30.275135 -3.4066041 -1.5966655
-7.6036401 -0.84213763 -2.0498469
-8.7086258 -0.9614408 -2.0227599
-10.315289 -1.1369984 -2.0172329
-12.533407 -1.377059 -1.9970427
-16.202713 -1.7744859 -2.0013385
-23.180771 -2.5346136 -2.0401416
-30.354349 -3.3082602 -1.6002244
-7.6046124 -0.81538463 -2.0493293
-8.7196779 -0.93186629 -2.0245595
-10.307482 -1.0997319 -2.0149431
-12.542066 -1.3337212 -1.9976684
-16.216705 -1.7187536 -2.0023134
-23.157774 -2.4503326 -2.0373526
-30.766933 -3.2445943 -1.6213681
-7.5842166 -0.78776705 -2.0431178
-8.7324123 -0.90394861 -2.026809
-10.30912 -1.0653454 -2.0145614
-12.552316 -1.2927295 -1.998607
-16.222315 -1.6649669 -2.0023134
-23.173698 -2.3743365 -2.0380499
-44.380039 -4.5314369 -2.3379519
-7.5984526 -0.76244539 -2.0462234
-8.7277594 -0.87268555 -2.0250094
-10.314729 -1.0295455 -2.0149431
-12.552819 -1.2485144 -1.9979812
-16.220127 -1.6075506 -2.0013385
-23.16202 -2.2914684 -2.0363066
-44.630123 -4.3996243 -2.3503034
-7.5991454 -0.73573083 -2.0457058
-8.7191133 -0.84109163 -2.02231
-10.324123 -0.99410087 -2.016088
-12.549236 -1.2039344 -1.9967299
-16.233543 -1.5516771 -2.0023134
-23.173845 -2.2109764 -2.0366554
-7.6074376 -0.70973855 -2.0472586
-8.7237949 -0.81235385 -2.0227599
-10.32362 -0.95769393 -2.0153246
-12.55906 -1.1628588 -1.9976684
-16.234648 -1.497471 -2.001826
-23.153645 -2.1275237 -2.034215
-45.912052 -4.2106495 -2.4162467
-7.6078253 -0.6843341 -2.046741
-8.7362823 -0.78276855 -2.0250094
-10.313051 -0.92222977 -2.0126534
-12.574848 -1.1200637 -1.9995456
-16.235821 -1.440441 -2.0013385
-23.125206 -2.0435319 -2.0310774
-46.35223 -4.0879087 -2.4386463
-7.6045079 -0.65594906 -2.0451882
-8.7389622 -0.75226611 -2.0250094
-10.322231 -0.88492978 -2.0137982
-12.561156 -1.0724545 -1.9967299
-16.240749 -1.3837621 -2.0013385
-23.112345 -1.9611121 -2.0293343
-46.020611 -3.8887296 -2.4204335
-7.5990505 -0.62876302 -2.0431178
-8.7319489 -0.71943301 -2.0227599
-10.327213 -0.84905124 -2.0141799
-12.558915 -1.0281204 -1.9957911
-16.237801 -1.3235782 -2.0003636
-23.146852 -1.8826892 -2.0317745
-45.731319 -3.7035575 -2.4045236
-7.6127539 -0.60314691 -2.0462234
-8.7226305 -0.68955106 -2.0200605
-10.332072 -0.81315106 -2.0145614
-12.564225 -0.98662198 -1.996104
-16.246058 -1.2700332 -2.0008512
-23.129448 -1.800019 -2.0296829
-46.241161 -3.5905392 -2.4306915
-7.6224174 -0.57848328 -2.0482941
-8.7269268 -0.65924573 -2.0205104
-10.330796 -0.77858877 -2.0137982
-12.571533 -0.9430539 -1.9967299
-16.234552 -1.2121371 -1.9989011
-23.107471 -1.7212416 -2.0272424
-45.966599 -3.4078403 -2.4156187
-7.6089759 -0.55075842 -2.044153
-8.7330627 -0.62905878 -2.02141
-10.317784 -0.74139923 -2.0107453
-12.57869 -0.89944369 -1.9973555
-16.234726 -1.1551783 -1.9984137
-23.105391 -1.6400007 -2.0265453
-45.607639 -3.2212029 -2.3961496
-7.6050701 -0.52379638 -2.0425999
-8.7332611 -0.59843743 -2.0209603
-10.328144 -0.7059142 -2.0122719
-12.575841 -0.85512805 -1.9964169
-16.24262 -1.0987691 -1.9989011
-23.08712 -1.5577278 -2.0244534
-45.778034 -3.0726719 -2.4045236
-7.6010685 -0.49686825 -2.0410471
-8.7274199 -0.56896836 -2.0191607
-10.338383 -0.67036581 -2.0137982
-12.564807 -0.81252748 -1.9942267
-16.246174 -1.0448998 -1.9989011
-23.084465 -1.4766254 -2.0237563
-45.568718 -2.906872 -2.3930094
-7.6181002 -0.47261617 -2.0451882
-8.7274065 -0.53837806 -2.0187106
-10.33271 -0.63559622 -2.0122719
-12.579396 -0.76938939 -1.996104
-16.24576 -0.98794627 -1.9984137
-23.089233 -1.4000654 -2.0237563
-45.128025 -2.7206149 -2.3693538
-7.6158462 -0.445797 -2.044153
-8.7272873 -0.50779706 -2.0182607
-10.338785 -0.59975404 -2.0130351
-12.572145 -0.72490555 -1.9945397
-16.233255 -0.93031901 -1.9964637
-23.078068 -1.3185506 -2.0223618
-7.6173558 -0.41920978 -2.044153
-8.7348452 -0.47765112 -2.0196106
-10.327094 -0.562913 -2.0103636
-12.576572 -0.68112266 -1.9948525
-16.232439 -0.8734349 -1.9959762
-23.062634 -1.2369174 -2.0206187
-44.244434 -2.3574729 -2.322042
-7.6014094 -0.39172089 -2.0394943
-8.7422981 -0.44745648 -2.0209603
-10.33684 -0.52725863 -2.0118902
-12.574926 -0.63702077 -1.9942267
-16.24332 -0.81716633 -1.9969513
-23.058849 -1.1560119 -2.0199213
-43.961155 -2.1885164 -2.3067598
-7.6085186 -0.36546424 -2.0410471
-8.736021 -0.41656592 -2.0191607
-10.336656 -0.49107963 -2.0115087
-12.571155 -0.59283972 -1.9932882
-16.234043 -0.76273745 -1.9954888
-23.066725 -1.0756941 -2.0202701
-42.839283 -1.982793 -2.2475154
-7.615479 -0.34048826 -2.0425999
-8.7276192 -0.38716179 -2.0169113
-10.330381 -0.45645228 -2.0099821
-12.580945 -0.55149758 -1.9945397
-16.224585 -0.70837909 -1.9940264
-23.042297 -0.99799377 -2.0178297
-7.6146359 -0.31515598 -2.0420823
-8.7308025 -0.35829744 -2.0173612
-10.320068 -0.42171657 -2.0076923
-12.572837 -0.50937438 -1.9929754
-16.219023 -0.65142512 -1.9930513
-23.017609 -0.92046177 -2.0153892
-39.581425 -1.5551555 -0.69142944
-7.6176205 -0.28864515 -2.0425999
-8.7358942 -0.32796708 -2.0182607
-10.32344 -0.38576081 -2.0080738
-12.578485 -0.46562961 -1.9936011
-16.225166 -0.59495127 -1.993539
-23.012718 -0.83981848 -2.0146921
-7.5973439 -0.26132223 -2.036906
-8.7408819 -0.29760146 -2.0191607
-10.338458 -0.35018787 -2.0107453
-12.572138 -0.42145461 -1.9923496
-16.211273 -0.53778422 -1.991589
-22.987633 -0.75856346 -2.0122519
-43.984169 -1.4360541 -2.3063412
-7.6117258 -0.23521842 -2.0405295
-8.7301798 -0.26673093 -2.0164614
-10.331768 -0.31385905 -2.0092189
-12.56366 -0.37727028 -1.9907852
-16.217018 -0.48131037 -1.9920764
-22.982174 -0.67808133 -2.0115545
-44.080753 -1.2851883 -2.311156
-7.6086388 -0.20854287 -2.0394943
-8.7193699 -0.2359388 -2.013762
-10.338689 -0.277953 -2.0103636
-12.566875 -0.33346465 -1.9910982
-16.206694 -0.42438728 -1.9906142
-22.968468 -0.59743929 -2.01016
-44.068996 -1.1308988 -2.3103187
-7.6112514 -0.18202847 -2.0400119
-8.733777 -0.20582429 -2.0169113
-10.32782 -0.24158677 -2.0080738
-12.569937 -0.28964421 -1.991411
-16.114803 -0.36569563 -1.9791584
-22.962446 -0.51708621 -2.0094628
-43.952869 -0.97440517 -2.3040383
-7.6079502 -0.15670778 -2.0389764
-8.7305164 -0.17678168 -2.0160115
-10.314824 -0.20706098 -2.0054026
-12.588602 -0.24830933 -1.9942267
-22.948097 -0.44063026 -2.0080683
-7.5987935 -0.12998471 -2.0363884
-8.7310801 -0.14630516 -2.0160115
-10.317447 -0.17108403 -2.0057843
-12.573592 -0.20410854 -1.9917238
-16.249901 -0.25811309 -1.9954888
-22.909655 -0.3598972 -2.0045822
-7.6011319 -0.10348527 -2.036906
-8.7295885 -0.11580101 -2.0155613
-10.321908 -0.13512197 -2.0065475
-12.574228 -0.16021693 -1.9917238
-22.906786 -0.2798706 -2.0042334
-7.6053104 -0.076990634 -2.0379412
-8.7260418 -0.085290022 -2.0146616
-10.336059 -0.099222593 -2.0092189
-12.572736 -0.11630508 -1.991411
-22.879728 -0.19967069 -2.0017929
-7.6093965 -0.050468087 -2.0389764
-8.7262859 -0.054829687 -2.0146616
-10.326526 -0.063082159 -2.0073106
-12.56714 -0.072382852 -1.9904724
-16.213995 -0.087728046 -1.9908577
-7.6056628 -0.023895495 -2.0379412
-8.7342157 -0.025914771 -2.0164614
-10.312941 -0.027001666 -2.0046394
-12.587064 -0.030756105 -1.9936011
-16.228094 -0.033992361 -1.9925638
-23.004093 -0.04015081 -2.0126004
-7.5960407 0.0013245323 -2.0353529
-8.7342529 0.0045737326 -2.0164614
-10.322789 0.0072046746 -2.0065475
-12.579193 0.01317321 -1.9923496
-16.216206 0.02264216 -1.9911015
-22.772984 0.035771582 -1.9923801
-7.5979214 0.027846945 -2.0358706
-8.726388 0.035028808 -2.0146616
-10.326628 0.043254621 -2.0073106
-12.575119 0.05706213 -1.9917238
-16.196177 0.07915058 -1.9886642
-7.6016417 0.054396335 -2.036906
-8.7223167 0.065460369 -2.013762
-10.32445 0.079288691 -2.0069292
-12.576818 0.10097335 -1.9920367
-16.183891 0.13558213 -1.9872018
-22.957464 0.19633527 -2.0085912
-7.6091323 0.081013165 -2.0389764
-8.7220345 0.095906779 -2.013762
-10.32411 0.11532509 -2.0069292
-12.588241 0.14501089 -1.9939139
-16.195229 0.19221541 -1.9886642
-7.6030083 0.10749178 -2.0374236
-8.7294407 0.12646493 -2.0155613
-10.305979 0.15110353 -2.0034947
-12.635061 0.1896631 -2.0014229
-16.194458 0.2487466 -1.9886642
-22.85792 0.35509285 -2.0000501
-7.5929289 0.13386053 -2.0348353
-8.7269964 0.15690079 -2.0151114
-10.321092 0.18736254 -2.0065475
-16.165705 0.30475476 -1.9852518
-22.820683 0.43419269 -1.9969124
-7.588553 0.16028079 -2.0338001
-8.7244473 0.18732117 -2.0146616
-10.318412 0.22334406 -2.006166
-12.599855 0.27712938 -1.996104
-16.176449 0.36144438 -1.9867141
-22.807079 0.51358062 -1.9958665
-7.5976038 0.18700671 -2.0363884
-8.7159863 0.21605861 -2.012862
-10.31757 0.25936341 -2.006166
-12.569248 0.31816122 -1.991411
-16.183102 0.41528979 -1.9876893
-22.793196 0.59287339 -1.9948206
-7.602735 0.21236235 -2.0379412
-8.7190752 0.24659014 -2.013762
-10.316652 0.29357424 -2.006166
-12.599654 0.36294156 -1.9964169
-16.181553 0.47177726 -1.9876893
-22.795086 0.66857821 -1.9951692
-7.594223 0.23865883 -2.0358706
-8.7142649 0.27690032 -2.012862
-10.303792 0.32921088 -2.0038762
-12.596334 0.40685689 -1.996104
-16.187744 0.52851814 -1.9886642
-22.744825 0.74657041 -1.9909858
-7.5894833 0.26502976 -2.0348353
-8.7249308 0.30772948 -2.0155613
-10.312389 0.36552379 -2.0057843
-12.594837 0.45082715 -1.996104
-16.181831 0.58487386 -1.9881767
-22.72217 0.825243 -1.9892427
-7.5865812 0.29144645 -2.0343177
-8.7276983 0.33833662 -2.0164614
-12.597136 0.4949441 -1.9967299
-16.187626 0.64167035 -1.9891516
-22.715168 0.90439522 -1.9888941
-7.5932388 0.3182506 -2.0363884
-8.7089405 0.36805749 -2.0124121
-10.299779 0.43709034 -2.0038762
-12.595331 0.53891069 -1.9967299
-16.181444 0.6951772 -1.9886642
-22.691967 0.9828136 -1.9871509
-7.5940714 0.3435165 -2.036906
-8.7135134 0.39720196 -2.013762
-10.300234 0.47133332 -2.0042579
-12.601367 0.58103967 -1.9979812
-16.179049 0.74883354 -1.9886642
-22.688585 1.0580584 -1.9871509
-7.5851717 0.36832297 -2.0348353
-8.7160406 0.42628551 -2.0146616
-10.296654 0.50539172 -2.0038762
-12.603318 0.62301975 -1.998607
-16.188231 0.80589706 -1.9901265
-22.633211 1.1307067 -1.9826188
-7.5799813 0.39459544 -2.0338001
-8.7144995 0.45670781 -2.0146616
-10.304628 0.54184639 -2.0057843
-12.591203 0.66648799 -1.9970427
-16.177391 0.86197758 -1.9891516
-22.609232 1.2086415 -1.9808756
-7.5785575 0.42105231 -2.0338001
-8.7031231 0.48658061 -2.0124121
-10.308556 0.57814056 -2.0069292
-12.576967 0.709768 -1.9951655
-16.19014 0.91934288 -1.9911015
-22.620789 1.2884622 -1.9822702
-7.5770421 0.44750404 -2.0338001
-8.7013721 0.51695538 -2.0124121
-12.580327 0.75401735 -1.996104
-16.178905 0.97537386 -1.9901265
-22.580355 1.3652464 -1.9791325
-7.5754337 0.47395217 -2.0338001
-8.6995144 0.54732597 -2.0124121
-10.290553 0.64923096 -2.0042579
-12.59339 0.79892719 -1.998607
-16.163517 1.0310813 -1.9886642
-22.555571 1.4427871 -1.9773895
-7.5718055 0.50026357 -2.0332825
-8.7015409 0.57642961 -2.0133121
-10.27647 0.68436283 -2.0019681
-12.594614 0.84094769 -1.9992328
-16.167931 1.0852082 -1.989639
-22.534492 1.5204449 -1.9759949
-7.5643234 0.52496886 -2.0317297
-8.705308 0.60720712 -2.0146616
-10.299604 0.72021776 -2.0069292
-12.581749 0.88421381 -1.9976684
-16.164043 1.1416386 -1.989639
-22.497528 1.592913 -1.973206
-7.5605183 0.55122977 -2.0312121
-8.7011919 0.63744849 -2.0142117
-10.29507 0.75602227 -2.0065475
-12.586467 0.92870879 -1.9989198
-16.152042 1.197468 -1.9886642
-22.47991 1.6705438 -1.97216
-7.5604739 0.57776499 -2.0317297
-8.6833696 0.66662437 -2.0106125
-10.29041 0.79180378 -2.006166
-12.581179 0.97248626 -1.998607
-16.135889 1.2529204 -1.9872018
-22.465996 1.7483854 -1.9714628
-7.5661139 0.60476649 -2.0338001
-8.6965294 0.69817877 -2.0142117
-10.295411 0.82834679 -2.0076923
-12.583613 1.0168744 -1.9995456
-16.111631 1.3076321 -1.9847643
-22.435926 1.8248581 -1.9693711
-7.5581813 0.63069183 -2.0322473
-8.6920977 0.72836649 -2.013762
-10.282675 0.86346084 -2.0057843
-12.574082 1.0602927 -1.998607
-16.110924 1.3641995 -1.9852518
-22.417509 1.9021477 -1.9683253
-7.5424614 0.65590137 -2.0286238
-8.6741037 0.75583357 -2.0101628
-10.277643 0.89917797 -2.0054026
-12.584271 1.1031921 -2.000797
-16.102358 1.4172704 -1.9847643
-22.394852 1.9789904 -1.9669307
-7.5537133 0.6821242 -2.0322473
-10.294157 0.93503124 -2.0092189
-12.568542 1.1460369 -1.9989198
-16.097311 1.473466 -1.9847643
-22.356422 2.0503278 -1.9641418
-7.5512862 0.70848763 -2.0322473
-8.6880159 0.81819886 -2.0146616
-10.288877 0.97077239 -2.0088372
-12.550698 1.1885989 -1.9967299
-16.09207 1.5296476 -1.9847643
-22.329296 2.1264708 -1.9623986
-7.5429988 0.73428094 -2.0306942
-8.6812296 0.84814209 -2.013762
-10.283471 1.0064903 -2.0084558
-12.5622 1.2339469 -1.9992328
-16.07478 1.5846421 -1.9833018
-22.35346 2.2075298 -1.9651875
-7.5423121 0.76080054 -2.0312121
-8.678215 0.87844026 -2.013762
-10.279895 1.0423805 -2.0084558
-12.55192 1.2771901 -1.998294
-16.049402 1.6387318 -1.9808645
-22.286158 2.2794633 -1.9599583
-7.5280819 0.7859183 -2.0281062
-8.6847868 0.90974289 -2.0160115
-10.276194 1.0782555 -2.0084558
-12.541492 1.3203765 -1.9973555
-16.047531 1.6951582 -1.981352
-22.282026 2.3576627 -1.9603069
-7.531055 0.81281358 -2.029659
-8.6641216 0.93816298 -2.0119622
-10.287981 1.1158158 -2.0115087
-12.536807 1.3641438 -1.9973555
-16.041517 1.7511648 -1.981352
-22.249895 2.4328237 -1.9582151
-7.535851 0.83995491 -2.0317297
-8.6646662 0.96883398 -2.012862
-10.291827 1.152595 -2.0130351
-12.539822 1.4087796 -1.998607
-16.02347 1.8058121 -1.9798895
-22.237307 2.5100346 -1.9578665
-7.5367122 0.86669463 -2.0327649
-8.6515532 0.99795926 -2.0106125
-10.27214 1.1867086 -2.0099821
-12.548563 1.4541383 -2.000797
-16.005239 1.860359 -1.9784272
-22.236326 2.5885639 -1.9585637
-7.5393963 0.8936798 -2.0343177
-8.6615629 1.0297613 -2.013762
-10.271833 1.2230222 -2.0107453
-12.54341 1.4979324 -2.000797
-16.014414 1.9181091 -1.980377
-22.17968 2.6604733 -1.9543804
-7.5017138 0.91577828 -2.0250003
-8.6716404 1.0601341 -2.0169113
-10.271399 1.2593484 -2.0115087
-12.52661 1.5380757 -1.9989198
-16.007967 1.9712011 -1.980377
-22.162348 2.7368972 -1.953683
-7.4986353 0.94065011 -2.0250003
-8.6659536 1.0901543 -2.0164614
-10.274958 1.2943845 -2.0130351
-12.525084 1.5822848 -1.9995456
-16.004927 2.0275707 -1.9808645
-22.137339 2.8083701 -1.9522886
-7.508718 0.96854788 -2.0286238
-8.6584253 1.1183866 -2.0155613
-10.245067 1.3269625 -2.0080738
-12.517809 1.6235572 -1.9992328
-15.998117 2.0806267 -1.9808645
-22.099739 2.8820202 -1.9498483
-8.6544685 1.1486038 -2.0155613
-10.217257 1.3578259 -2.0034947
-12.51794 1.6680257 -2.0001712
-15.963207 2.1327815 -1.977452
-22.101912 2.9568758 -1.9508941
-7.5096083 1.0206765 -2.0306942
-8.6581306 1.1798571 -2.0173612
-10.220235 1.3945445 -2.0050211
-12.513999 1.7119795 -2.0004842
-15.963533 2.18957 -1.9784272
-22.036186 3.026418 -1.9460133
-7.4983459 1.0458182 -2.0286238
-8.6655388 1.2116919 -2.0200605
-10.168641 1.4236808 -1.9958621
-12.507947 1.7556484 -2.0004842
-15.971519 2.2474933 -1.980377
-21.993921 3.0988679 -1.9432244
-7.5080366 1.0739009 -2.0322473
-8.6612568 1.2419331 -2.0200605
-10.16361 1.4591675 -1.9958621
-12.495875 1.7984576 -1.9995456
-15.955717 2.3020935 -1.9794021
-21.967194 3.1733489 -1.9418299
-7.5120802 1.0999124 -2.0343177
-8.6455221 1.2689505 -2.0173612
-10.158715 1.4928637 -1.9958621
-12.487889 1.8395952 -1.9992328
-15.944067 2.3544123 -1.9789146
-21.952042 3.2494268 -1.9414812
-8.6448936 1.2997029 -2.0182607
-10.118232 1.5248189 -1.9889932
-12.486922 1.8862386 -2.0001712
-15.935752 2.4100537 -1.9789146
-21.932686 3.3248351 -1.9407841
-7.4849229 1.1507021 -2.0291414
-8.6477766 1.3325646 -2.0200605
-10.099266 1.5580338 -1.9863218
-12.484167 1.9304188 -2.000797
-15.918966 2.4672291 -1.9779397
-21.920946 3.4013746 -1.9407841
-7.4751358 1.175922 -2.0275886
-8.6510105 1.3624473 -2.0218601
-10.095705 1.5935838 -1.9867034
-12.46794 1.9702659 -1.9992328
-15.926381 2.5224893 -1.9798895
-21.869585 3.4716253 -1.9372978
-7.4750099 1.2013155 -2.0286238
-8.642354 1.3920171 -2.0209603
-10.103933 1.6292392 -1.9893748
-12.468788 2.0150361 -2.0004842
-15.917478 2.578068 -1.9798895
-21.857952 3.5441294 -1.9372978
-7.47649 1.2283424 -2.0301766
-8.6297512 1.420908 -2.0191607
-10.092371 1.6635432 -1.9882298
-12.455831 2.0575795 -1.9995456
-15.904466 2.6329668 -1.9794021
-21.817932 3.6158414 -1.9348574
-7.4797769 1.2557124 -2.0322473
-8.628581 1.4516716 -2.0200605
-10.094248 1.7000666 -1.9897563
-12.458311 2.1026928 -2.0011098
-15.891263 2.6878021 -1.9789146
-21.781601 3.6879921 -1.9327657
-7.477253 1.2821391 -2.0327649
-8.6237202 1.4802753 -2.0200605
-10.068904 1.7319617 -1.9859402
-12.461005 2.1456683 -2.0026743
-15.882263 2.7404854 -1.9789146
-21.752888 3.7612867 -1.9313713
-7.4691539 1.3062621 -2.0317297
-8.6261787 1.5117166 -2.0218601
-10.068906 1.7663598 -1.987085
-12.439819 2.1867616 -2.0004842
-15.870645 2.7955639 -1.9786707
-21.673584 3.8216388 -1.9254446
-7.4721556 1.3336843 -2.0338001
-8.6150942 1.5407871 -2.0205104
-10.089735 1.8063401 -1.9924276
-12.428223 2.229471 -1.9998584
-15.866652 2.8520038 -1.9794021
-21.660114 3.8972659 -1.9254446
-7.4712558 1.3604512 -2.0348353
-8.6039124 1.5698011 -2.0191607
-10.077574 1.8404911 -1.9912828
-12.426193 2.2739072 -2.000797
-15.844886 2.9052203 -1.9779397
-21.595427 3.9634995 -1.9209125
-7.4664621 1.386521 -2.0348353
-8.6120701 1.6008172 -2.02231
-10.067227 1.8749382 -1.9905195
-12.428293 2.3169119 -2.0023613
-15.831259 2.9570189 -1.977452
-21.518793 4.0271301 -1.9153346
-37.994076 7.1172667 -2.0258203
-7.4599247 1.4109143 -2.0343177
-8.6102591 1.6315951 -2.0232098
-10.057096 1.9075783 -1.9897563
-12.416249 2.3595436 -2.0017357
-15.816941 3.0115204 -1.9769646
-21.438774 4.0857859 -1.909408
-37.866989 7.230361 -2.0203774
-7.4454694 1.4351177 -2.0317297
-8.6045122 1.6616389 -2.0232098
-10.07929 1.948264 -1.9954805
-12.409877 2.4032428 -2.0020485
-15.818027 3.0689826 -1.9784272
-21.342237 4.144639 -1.902087
-7.4517884 1.463334 -2.0348353
-8.5929232 1.6905357 -2.0218601
-10.064723 1.9819186 -1.9939542
-12.395598 2.4454 -2.0011098
-15.818902 3.1264851 -1.9798895
-21.253366 4.2044249 -1.8954631
-38.936226 7.7166324 -2.0802498
-7.4447408 1.4889563 -2.0343177
-8.5869694 1.7205226 -2.0218601
-10.059669 2.0174229 -1.9943358
-12.388923 2.4890461 -2.0014229
-15.790376 3.1781595 -1.9776958
-21.160435 4.2628493 -1.8884906
-38.959957 7.8627715 -2.0829713
-7.4451766 1.5160908 -2.0358706
-8.5828209 1.7508739 -2.02231
-10.044871 2.0509546 -1.9928092
-12.380159 2.5322738 -2.0014229
-15.781133 3.2336619 -1.9779397
-21.059549 4.3190756 -1.880821
-39.151386 8.0437479 -2.0946946
-7.4379478 1.5416782 -2.0353529
-8.5865078 1.7813056 -2.0245595
-10.047261 2.0880029 -1.9947174
-12.37943 2.5749266 -2.0026743
-15.774209 3.2867827 -1.9784272
-20.950727 4.3730154 -1.8724539
-7.4252334 1.5647417 -2.0332825
-8.5840511 1.8120725 -2.0254593
-10.053728 2.1241508 -1.9973886
-12.372299 2.6185296 -2.0029871
-15.768466 3.3430645 -1.9791584
-20.862049 4.4267521 -1.8658301
-7.4272814 1.5922693 -2.0353529
-8.5719566 1.840798 -2.0241096
-10.046253 2.1592298 -1.9973886
-12.359221 2.6608696 -2.0023613
-15.770284 3.4010124 -1.9808645
-20.791939 4.4877772 -1.8609494
-7.4254537 1.6190108 -2.0363884
-8.5559607 1.8686278 -2.0218601
-10.036736 2.1938679 -1.997007
-12.359506 2.7061052 -2.0039258
-15.762796 3.4541399 -1.981352
-20.717766 4.547514 -1.85572
-7.4219298 1.6440419 -2.036906
-8.5554247 1.8982568 -2.0232098
-10.035155 2.2284136 -1.9981518
-12.352392 2.747508 -2.0042386
-15.809385 3.5193334 -1.9886642
-20.64423 4.6031833 -1.8504907
-7.4164376 1.6686451 -2.036906
-8.5604887 1.9291879 -2.0259092
-10.014304 2.2586558 -1.9954805
-12.350921 2.7901969 -2.0054901
-15.877014 3.589685 -1.9986575
-20.586103 4.6619368 -1.8466558
-7.3995628 1.6906481 -2.0338001
-8.5616426 1.9593042 -2.027709
-10.027811 2.2966738 -1.9996784
-12.333898 2.8293722 -2.0042386
-15.841805 3.6369858 -1.9957327
-20.488976 4.7114244 -1.8393347
-7.4064884 1.72082 -2.0374236
-8.5506086 1.9897878 -2.026809
-10.015501 2.3325241 -1.9989152
-12.319598 2.8736591 -2.0036128
-15.835455 3.6995935 -1.9967074
-20.428892 4.776505 -1.8354999
-7.396677 1.7457738 -2.0363884
-8.536025 2.017832 -2.0250094
-10.01303 2.3688242 -2.0000601
-12.317181 2.9184701 -2.0048645
-15.853348 3.7621813 -2.0006073
-20.36557 4.8367424 -1.8313165
-7.3980522 1.773384 -2.0384588
-8.5327177 2.0485239 -2.0259092
-10.006608 2.4042206 -2.0004416
-12.30884 2.9619071 -2.0051773
-15.81503 3.8114545 -1.9974388
-20.286583 4.8928494 -1.8257385
-7.3899403 1.7987387 -2.0379412
-8.525878 2.0768085 -2.0259092
-9.9962482 2.4386706 -2.0000601
-12.306624 3.0045826 -2.0064287
-15.811946 3.8662324 -1.9986575
-20.211323 4.9494162 -1.8205091
-7.3764315 1.8213843 -2.0358706
-8.5280361 2.1088963 -2.0281587
-9.9900112 2.4722779 -2.0004416
-12.294145 3.0470476 -2.0061157
-15.790648 3.9194906 -1.9976823
-20.129057 5.000083 -1.8145826
-7.3775258 1.8489989 -2.0379412
-8.5206232 2.1386521 -2.0281587
-9.9908419 2.5095239 -2.0023496
-12.285349 3.0904257 -2.0064287
-15.738371 3.9648881 -1.9928077
-20.049656 5.0547299 -1.8090045
-7.3766427 1.8761687 -2.0394943
-8.5093279 2.1674175 -2.0272589
-9.9991426 2.5487499 -2.0057843
-12.274487 3.1332884 -2.0064287
-15.730204 4.0212765 -1.993539
-19.997149 5.1157932 -1.805867
-7.3831425 1.9052876 -2.0431178
-8.5017109 2.1971076 -2.0272589
-9.9825821 2.5816722 -2.0042579
-12.273037 3.1785917 -2.007993
-15.710308 4.0746622 -1.9928077
-19.913599 5.1685519 -1.7999403
-7.3652334 1.9281108 -2.0400119
-8.4958744 2.2272673 -2.027709
-9.9697123 2.6155038 -2.0034947
-12.267598 3.2229226 -2.0089316
-15.726706 4.1375585 -1.9967074
-19.82222 5.2187567 -1.7933165
-7.3528571 1.9523215 -2.0384588
-8.4993477 2.2599125 -2.0304081
-9.9643164 2.6512985 -2.0042579
-12.24673 3.2631791 -2.0073674
-15.69874 4.1888514 -1.9950013
-19.765385 5.2776332 -1.7898303
-7.3422666 1.9769715 -2.0374236
-8.483882 2.2875381 -2.0286086
-9.9644775 2.6886218 -2.006166
-12.235265 3.3059089 -2.0073674
-15.618871 4.2259932 -1.9867141
-19.692995 5.332016 -1.7849497
-7.3465028 2.00564 -2.0405295
-8.4724903 2.3146324 -2.027709
-9.9550314 2.723388 -2.006166
-12.228044 3.3475075 -2.007993
-15.59903 4.2761908 -1.985983
-19.620466 5.3859582 -1.7800689
-32.644314 8.9672241 -1.7741891
-7.345397 2.0315359 -2.0420823
-8.4737482 2.3467934 -2.0299582
-9.9478388 2.7569077 -2.0065475
-12.229609 3.3938692 -2.0101831
-15.517064 4.3120127 -1.977452
-19.540121 5.4373269 -1.7744908
-32.76289 9.1229095 -1.7823534
-7.3341813 2.0574028 -2.0410471
-8.4673815 2.3768828 -2.0304081
-9.9508963 2.797071 -2.0092189
-12.217089 3.4386704 -2.0101831
-15.477079 4.3591557 -1.9742836
-19.486507 5.4957623 -1.7713534
-32.863785 9.28092 -1.7896806
-7.3232393 2.0819333 -2.0400119
-8.4679832 2.4105713 -2.0326576
-9.9372969 2.8307114 -2.0084558
-12.214507 3.4840045 -2.0117474
-15.438093 4.4093113 -1.9713587
-19.394409 5.5429454 -1.7647295
-7.3233528 2.1096227 -2.0420823
-8.4543257 2.4370201 -2.0313082
-9.9216957 2.8637486 -2.0073106
-12.191501 3.5212016 -2.0098703
-15.398597 4.4533091 -1.9681902
-19.298393 5.5884385 -1.7577569
-33.578693 9.7300882 -1.8321774
-7.3144622 2.1333556 -2.0415647
-8.4457684 2.4665146 -2.0313082
-9.9234524 2.8999391 -2.0096004
-12.201886 3.5703909 -2.0136247
-15.407722 4.5142932 -1.9713587
-19.226219 5.636714 -1.7528763
-33.517696 9.8393736 -1.830712
-7.3069706 2.158875 -2.0415647
-8.4483194 2.4992981 -2.0340075
-9.9189157 2.9362326 -2.0107453
-12.191243 3.6135237 -2.0139375
-15.378548 4.564095 -1.9696525
-19.179688 5.695847 -1.7504359
-33.793274 10.048532 -1.8476688
-7.2993908 2.1843665 -2.0415647
-8.4432764 2.5298917 -2.0349073
-9.8992033 2.9680195 -2.0088372
-12.180447 3.6566253 -2.0142503
-15.404347 4.6303167 -1.9750148
-19.079554 5.7386599 -1.7431147
-34.446468 10.373762 -1.8853507
-7.2935691 2.2103949 -2.0420823
-8.4381247 2.5604787 -2.0358069
-9.8831463 3.000845 -2.0076923
-12.173279 3.7008417 -2.0151892
-15.407081 4.6898408 -1.977452
-18.975542 5.7796869 -1.7354451
-34.268681 10.450827 -1.8776051
-7.2931967 2.2381079 -2.044153
-8.4328604 2.5910647 -2.0367069
-9.8838711 3.0387874 -2.0099821
-12.164062 3.7444775 -2.0158148
-15.371648 4.7377434 -1.9750148
-18.905752 5.8306184 -1.730913
-34.273972 10.583347 -1.8799077
-7.2871852 2.2641244 -2.0446706
-8.4130573 2.6155422 -2.0340075
-9.8769531 3.0744348 -2.0107453
-12.153463 3.7853823 -2.0161276
-15.323634 4.7786484 -1.9708712
-18.820623 5.8763876 -1.7249866
-34.555149 10.795818 -1.8972833
-7.2851658 2.290015 -2.0462234
-8.4150276 2.6484056 -2.0367069
-9.866703 3.1071713 -2.0107453
-12.159016 3.8337233 -2.0192564
-15.127026 4.7753353 -1.947716
-18.766834 5.9279652 -1.7218487
-25.384254 8.0279846 -1.3952768
-7.2771273 2.3154311 -2.0462234
-8.4136267 2.678659 -2.0385065
-9.8557968 3.1415939 -2.0107453
-12.165055 3.8800259 -2.0223849
-14.995755 4.7886362 -1.932848
-18.689095 5.975235 -1.7166195
-34.914585 11.169519 -1.9211484
-7.2598066 2.3378584 -2.0436354
-83.550377 26.92165 1.5322167
-8.4056082 2.7100768 -2.0389564
-9.8429031 3.1753757 -2.0103636
-12.227823 3.9494772 -2.0352125
-14.923328 4.8258581 -1.9257796
-18.618839 6.0244846 -1.7120874
-34.751808 11.258029 -1.9144495
-7.266295 2.3679762 -2.0477762
-8.3960962 2.7394016 -2.0389564
-9.8373566 3.211545 -2.0115087
-12.185798 3.9829309 -2.0305195
-14.849792 4.859396 -1.9184674
-18.52953 6.067121 -1.7058121
-35.015961 11.478805 -1.9311969
-7.2469783 2.3896945 -2.0446706
-8.3809328 2.7668583 -2.0376067
-9.8372726 3.249557 -2.0137982
-12.188699 4.0310287 -2.0333354
-14.750673 4.8811731 -1.9077429
-18.466629 6.1179843 -1.7019774
-35.047718 11.624858 -1.9351745
-7.253675 2.418602 -2.0488117
-8.3791037 2.7971056 -2.0394061
-9.8245792 3.2815387 -2.0134165
-12.175265 4.0714231 -2.0333354
-14.662871 4.906127 -1.8984808
-18.385786 6.1589327 -1.6963993
-35.190762 11.801984 -1.9452231
-7.2401228 2.4407899 -2.0472586
-86.416252 29.149462 1.5919038
-8.379014 2.8279924 -2.0416558
-9.8136435 3.3140981 -2.0134165
-12.146726 4.1067142 -2.0308325
-14.530958 4.918457 -1.8836126
-18.301102 6.1981401 -1.6904728
-35.185478 11.930161 -1.9471072
-7.2260728 2.464179 -2.0457058
-87.260254 29.773815 1.6093562
-8.3654041 2.8559625 -2.040756
-9.7982988 3.3470674 -2.0126534
-12.156616 4.1573968 -2.0348997
-14.511823 4.9685068 -1.883369
-18.230349 6.245193 -1.6859407
-35.298534 12.10604 -1.9556901
-7.228385 2.4931676 -2.0488117
-88.010216 30.373075 1.6251332
-8.3535404 2.8845122 -2.0403061
-9.7976894 3.3850965 -2.0149431
-12.149496 4.2023916 -2.0361512
-14.194263 4.9152007 -1.8443708
-18.136896 6.284009 -1.6793169
-35.471176 12.30379 -1.9676228
-7.2196388 2.5183825 -2.0488117
-88.840103 31.006947 1.642446
-8.3471012 2.9149389 -2.0412059
-9.7858152 3.4192741 -2.0149431
-12.188827 4.2636909 -2.0452244
-14.562963 5.0998783 -1.894581
-18.084764 6.3367391 -1.6765277
-35.477013 12.444731 -1.9703443
-7.210804 2.5435686 -2.0488117
-8.3332005 2.9427583 -2.0403061
-9.7738199 3.4534123 -2.0149431
-12.229739 4.3259721 -2.0546105
-14.511393 5.1387548 -1.8901937
-18.013708 6.3825235 -1.6719956
-35.561356 12.613896 -1.9774619
-7.2000613 2.5680747 -2.0482941
-8.3307371 2.9729962 -2.0421057
-9.7672529 3.4894907 -2.016088
-12.222766 4.3691635 -2.0558619
-17.942551 6.4278932 -1.6674635
-35.759987 12.818017 -1.9908599
-38.172565 13.697823 -0.70790446
-7.1896877 2.5912819 -2.0477762
-8.3331404 3.0066879 -2.0452549
-9.7519331 3.5205276 -2.0153246
-12.253884 4.4285874 -2.0636837
-14.100877 5.1016607 -1.8412023
-17.861189 6.4656577 -1.6618856
-35.793892 12.971336 -1.9952562
-38.109474 13.82554 -0.70762527
-7.1842303 2.6176844 -2.0488117
-8.3134413 3.0324194 -2.0430055
-9.7469625 3.5572395 -2.0168512
-12.178978 4.4496431 -2.0536718
-13.71385 5.0158415 -1.7929419
-17.778639 6.5060558 -1.6563078
-35.692135 13.075592 -1.9921161
-38.07225 13.962606 -0.70783472
-7.1786742 2.6440833 -2.0498469
-8.2973194 3.0593956 -2.0416558
-9.7381697 3.5926003 -2.0176144
-12.230083 4.5167627 -2.0649352
-14.519224 5.3679423 -1.9006745
-17.718447 6.5542512 -1.6528214
-35.728683 13.230618 -1.9967215
-7.1766424 2.6718216 -2.0519176
-8.2902422 3.0897036 -2.0425556
-9.7145319 3.6224556 -2.0153246
-12.230896 4.5656471 -2.0677509
-14.437176 5.3949628 -1.8923874
-17.643204 6.5965233 -1.6479408
-36.239704 13.563879 -2.0279138
-7.1582317 2.6934533 -2.0493293
-8.2903471 3.1227446 -2.0452549
-9.709178 3.659111 -2.0168512
-12.216732 4.6090102 -2.0680637
-14.538963 5.4909172 -1.9082304
-17.571613 6.6397591 -1.6434087
-36.330376 13.742599 -2.0356596
-7.1487865 2.7184241 -2.0493293
-8.2812185 3.1523559 -2.0457051
-9.6963453 3.6929803 -2.0168512
-12.156273 4.6347346 -2.060555
-14.451087 5.5154443 -1.899212
-16.558121 6.322927 -1.550675
-36.379192 13.906414 -2.0411024
-7.1500735 2.7475193 -2.0524352
-8.2701645 3.1812439 -2.0457051
-9.6980524 3.7324481 -2.0199041
-12.160296 4.6849523 -2.0639966
-14.463235 5.5779948 -1.9033556
-16.443007 6.3448248 -1.5419594
-36.311798 14.026122 -2.0400558
-7.1296339 2.7682657 -2.0493293
-8.2504873 3.2051232 -2.0434554
-9.6904554 3.7684107 -2.021049
-12.122602 4.7166567 -2.0602422
-14.42616 5.618722 -1.9009181
-16.491297 6.4296894 -1.5485833
-36.20182 14.121782 -2.0364969
-7.1330051 2.796828 -2.0529528
-8.2501335 3.2381759 -2.0461547
-9.6815596 3.8019605 -2.0218122
-12.109741 4.7603893 -2.060868
-14.395376 5.6646838 -1.8994557
-16.397583 6.4558721 -1.541785
-7.1178107 2.8195777 -2.0513999
-8.242403 3.268389 -2.0470545
-9.6627541 3.83356 -2.0206673
-12.126098 4.8157525 -2.0664995
-14.434545 5.7383657 -1.9072554
-16.317554 6.4902477 -1.5363814
-38.362461 15.274029 -2.1639874
-7.1061306 2.8436885 -2.0508821
-8.236371 3.2993169 -2.0484045
-9.6493139 3.8672664 -2.0206673
-12.145879 4.8727646 -2.072757
-14.384953 5.7768774 -1.9033556
-16.535139 6.6437297 -1.5590419
-36.333614 14.613382 -2.052407
-7.1033258 2.8713706 -2.0529528
-8.2253847 3.3266096 -2.0484045
-9.6393967 3.9023967 -2.0214307
-12.158947 4.924881 -2.0777628
-14.306849 5.8006806 -1.895556
-16.227543 6.5860219 -1.5321978
-7.090188 2.8934507 -2.0519176
-8.202898 3.3508818 -2.0457051
-9.6300373 3.9358263 -2.0221939
-12.134369 4.9643016 -2.0765114
-14.282839 5.849081 -1.8950685
-16.165054 6.6231804 -1.5283631
-7.0943332 2.924072 -2.0560586
-8.2043524 3.3832641 -2.0488544
-9.6253138 3.9731636 -2.024102
-12.114187 5.003006 -2.0758855
-14.290882 5.9077888 -1.8987246
-16.585514 6.8631639 -1.5703722
-7.0715985 2.9436214 -2.0524352
-8.1954947 3.4148109 -2.0497539
-9.6041374 4.0037165 -2.0225754
-12.12494 5.0595422 -2.0808916
-14.248982 5.951715 -1.8960434
-16.506308 6.8979654 -1.5651428
-7.0648413 2.9697874 -2.0534704
-8.1943016 3.4479325 -2.0524535
-9.5955305 4.0395045 -2.0237205
-12.114486 5.1049032 -2.0821428
-14.240925 6.0068145 -1.8977495
-16.425222 6.9315271 -1.5597391
-7.0508757 2.992919 -2.0524352
-8.176836 3.474227 -2.0511036
-9.5741453 4.0699 -2.0221939
-12.074779 5.1378822 -2.0783885
-14.314838 6.0969372 -1.910424
-16.219467 6.9115 -1.5424823
-7.042161 3.0182741 -2.0529528
-8.1557035 3.4989092 -2.0488544
-9.5815296 4.1125879 -2.0267732
-12.051327 5.1776576 -2.07745
-14.224172 6.1170678 -1.9011619
-16.133018 6.941299 -1.5365558
-7.0457668 3.0489738 -2.0570939
-8.15417 3.5320044 -2.0515537
-9.6625881 4.1873837 -2.046999
-12.062175 5.2322707 -2.0824559
-0.92324758 0.40067324 0.12357552
-14.207451 6.1657844 -1.9016495
-16.216511 7.0444078 -1.5468401
-37.683479 16.385239 -2.1535201
-7.0338464 3.0715506 -2.0565763
-8.1495552 3.5621474 -2.0533531
-9.6990147 4.2414279 -2.0576842
-12.118954 5.304719 -2.0952835
-0.81644839 0.35754633 0.10943868
-14.072369 6.1626968 -1.8862939
-16.19306 7.0981455 -1.5468401
-7.0147824 3.0909641 -2.053988
-8.1394796 3.5899391 -2.053803
-9.6992655 4.2799087 -2.0607371
-12.01456 5.3065691 -2.0802658
-0.81888956 0.36185649 0.10992616
-14.072559 6.2214098 -1.8892187
-16.188225 7.1634955 -1.5487574
-37.690861 16.686541 -2.1602192
-7.0051718 3.1174376 -2.0545056
-8.1251192 3.617537 -2.0533531
-9.7140007 4.3290133 -2.0672247
-12.099665 5.3972397 -2.098412
-0.8067441 0.35986051 0.10846373
-14.172211 6.3247004 -1.9055492
-16.135838 7.207768 -1.5461429
-38.63591 17.274586 -2.217998
-7.0012956 3.1450398 -2.0565763
-8.1118059 3.6472909 -2.0533531
-9.7364273 4.3798108 -2.0752387
-11.794358 5.3104925 -2.048666
-0.78008062 0.35140076 0.10505138
-14.179702 6.3904643 -1.9096928
-16.072433 7.24685 -1.5424823
-38.557175 17.401123 -2.2169514
-6.9955535 3.1718512 -2.0581291
-8.1007996 3.6763897 -2.053803
-9.7246552 4.4153919 -2.0760019
-11.743376 5.3369222 -2.0430343
-0.7788493 0.35412145 0.10505138
-14.113942 6.4201956 -1.903843
-16.008955 7.2855825 -1.5388217
-37.878223 17.25411 -2.1813629
-6.986196 3.1970551 -2.0586467
-8.1020918 3.7111371 -2.0574024
-9.687767 4.4394965 -2.0714226
-11.97964 5.4948254 -2.0874617
-0.77580428 0.35601008 0.10480764
-14.117833 6.4785557 -1.9072554
-15.968946 7.334764 -1.5374273
-37.741543 17.351194 -2.1769667
-6.9667854 3.2161562 -2.0560586
-8.0826654 3.7347128 -2.0556028
-9.6783381 4.4740691 -2.0725675
-11.990035 5.5477934 -2.0924675
-0.78542805 0.36358425 0.10627007
-15.922841 7.3776274 -1.5353355
-37.640312 17.456079 -2.1744545
-6.9700923 3.2457657 -2.0601997
-8.0737677 3.7631419 -2.0565026
-9.681242 4.5144372 -2.0763836
-11.930404 5.568306 -2.0852716
-0.77162737 0.36030772 0.10456391
-13.972692 6.527452 -1.8936061
-15.918143 7.4396653 -1.5372529
-37.546043 17.563881 -2.1723611
-6.9552231 3.2684329 -2.0591643
-8.0535278 3.7879863 -2.054703
-9.661871 4.5465312 -2.0756204
-11.287202 5.3161674 -1.9760804
-0.77395642 0.36469135 0.10505138
-13.948028 6.5753369 -1.8933623
-15.875858 7.4875402 -1.5356841
-6.9490089 3.2951729 -2.0607173
-8.0490589 3.8202534 -2.0569522
-9.6689978 4.5911751 -2.0805814
-11.862691 5.6378956 -2.0802658
-0.77984983 0.37080023 0.10602634
-13.91961 6.6214294 -1.8926311
-15.847825 7.5420556 -1.5355098
-37.278255 17.756861 -2.1639874
-6.933979 3.3177421 -2.0596819
-8.0444632 3.8525336 -2.059202
-9.6387472 4.6181121 -2.0775285
-11.237347 5.3888559 -1.9738904
-0.78213024 0.37523749 0.10651381
-13.932204 6.6871576 -1.8975059
-15.807036 7.5904264 -1.5341154
-37.187241 17.873037 -2.1623125
-6.9119172 3.3368871 -2.0565763
-8.0327215 3.8814385 -2.0596519
-9.6331739 4.656857 -2.0798182
-11.213132 5.4254675 -1.9729517
-0.78081554 0.37796557 0.10651381
-13.85518 6.7097902 -1.8901937
-15.760719 7.6360011 -1.5321978
-6.9037008 3.3626857 -2.0576115
-8.0198059 3.9080548 -2.0596519
-9.6292124 4.6964793 -2.0824895
-11.230585 5.4799476 -1.9792091
-0.75993526 0.3709735 0.10383269
-13.811448 6.7452455 -1.8872689
-15.742919 7.6953454 -1.5330694
-6.9081182 3.393225 -2.0622702
-8.0008688 3.9334464 -2.0583022
-9.6259165 4.7344508 -2.0851607
-11.082011 5.4554272 -1.9563696
-0.75685477 0.37274686 0.10358895
-13.745083 6.7723589 -1.8814191
-15.698092 7.7414441 -1.5313264
-37.108692 18.308029 -2.1685929
-6.8973651 3.4193814 -2.0627878
-7.9870906 3.961349 -2.0583022
-9.6155338 4.7731919 -2.0866873
-11.109706 5.5197396 -1.964817
-0.75732678 0.37626979 0.10383269
-13.733801 6.8264818 -1.8831252
-15.735191 7.8281369 -1.5376015
-37.027039 18.436806 -2.1677556
-6.8767486 3.4391148 -2.0601997
-7.9794865 3.9940875 -2.0601017
-9.5707273 4.7926598 -2.0805814
-10.81841 5.4221797 -1.9166353
-0.7594918 0.38082239 0.10432017
-13.735304 6.8901248 -1.8867813
-15.682839 7.8705053 -1.5351611
-36.973167 18.571312 -2.1683836
-6.8629766 3.4622281 -2.0596819
-7.9741955 4.0263071 -2.0623512
-9.5574446 4.8278098 -2.0813446
-11.196067 5.6604433 -1.9870309
-0.7634719 0.38615927 0.10505138
-13.728882 6.946991 -1.8892187
-15.660605 7.927897 -1.5356841
-36.975822 18.734566 -2.1723611
-6.8508482 3.486165 -2.0596819
-7.9618282 4.0550022 -2.0628011
-9.600008 4.891449 -2.0943196
-11.269507 5.7470536 -2.0036128
-0.760351 0.38791981 0.10480764
-13.67449 6.9795303 -1.8850751
-15.593799 7.9625807 -1.5318493
-6.8437943 3.5127029 -2.061235
-7.9528251 4.0854435 -2.0641508
-9.6020832 4.9347982 -2.0985174
-11.249376 5.7863598 -2.0036128
-0.74663651 0.38421342 0.10310147
-13.761237 7.0844603 -1.9004307
-15.52694 7.9969001 -1.5280145
-6.8441186 3.5415936 -2.0648584
-7.9426947 4.1135836 -2.0650506
-0.93278617 0.48330402 0.055057433
-9.5908937 4.9693251 -2.0996623
-0.93042785 0.48228779 0.091687836
-11.159983 5.7872548 -1.9910982
-0.74359632 0.38577315 0.10285773
-13.769382 7.1465163 -1.9048181
-15.549846 8.0740538 -1.5328952
-6.8437033 3.5717196 -2.0684819
-0.90935516 0.4747932 0.017906168
-7.9300132 4.1421881 -2.0655005
-0.90277135 0.47175673 0.053382684
-9.5299902 4.9800396 -2.0901217
-0.92873865 0.4855327 0.091687836
-11.16947 5.8417416 -1.9964169
-0.75807512 0.39664897 0.10505138
-13.768974 7.2074261 -1.9082304
-15.680419 8.2114706 -1.5485833
-0.8738901 0.45802441 -0.051707931
-6.9303451 3.6477752 -2.098505
-0.90769237 0.47796437 0.017906168
-8.0396442 4.2352371 -2.0978935
-0.92938942 0.48980409 0.055057433
-9.5021276 5.0077834 -2.0878322
-11.3447 5.983911 -2.0314584
-0.76195288 0.40207204 0.1057826
-0.9075883 0.47912467 -0.12601291
-0.83156055 0.43917421 -0.082275018
-0.88288039 0.46667233 -0.052335959
-0.87495655 0.46287447 -0.017277883
-0.92825818 0.49273238 -0.28159514
-0.84597039 0.44924238 0.016719406
-0.86564022 0.45988151 -0.22630076
-0.90298319 0.47992224 0.053592026
-0.85467064 0.45424479 -0.18813768
-0.83736753 0.44523615 0.082972266
-0.86327624 0.45920533 -0.15487014
-0.75003034 0.39913401 0.10432017
-0.83582062 0.44497511 -0.11626337
-0.82298839 0.43832785 -0.08157777
-0.83894634 0.44720313 -0.049823835
-0.84863496 0.45274833 -0.016789215
-0.87543684 0.4686183 -0.26606598
-0.83734572 0.44841653 0.016579786
-0.85028768 0.45553818 -0.22270155
-0.82040268 0.43952742 0.048777115
-0.87557477 0.4692823 -0.19309872
-0.80420214 0.43120939 0.079834662
-0.8198902 0.43980545 -0.14736128
-0.73289019 0.39330167 0.10212652
-0.83426225 0.44788998 -0.11626337
-0.82496381 0.44308344 -0.081926398
-0.84441704 0.45391148 -0.050242521
-0.83303946 0.44798297 -0.016509976
-0.85679579 0.46249503 -0.26088959
-0.8147378 0.43979231 0.01616093
-0.82133728 0.44353983 -0.21550311
-0.82940686 0.44808429 0.04940515
-0.83938861 0.45366639 -0.18546635
-0.8097024 0.43780443 0.080531903
-0.84275413 0.45567545 -0.15174145
-0.75078821 0.40611878 0.10480764
-0.83277237 0.45065409 -0.11626337
-0.79040104 0.42790323 0.14235538
-0.84443539 0.45734662 -0.084018134
-0.8358829 0.45290327 -0.049823835
-0.82092345 0.44516861 -0.016300548
-0.85186356 0.46348703 -0.25985435
-0.83076131 0.45219374 0.016509976
-0.81978416 0.44640398 -0.21550311
-0.82440829 0.44892198 0.049195804
-0.82063913 0.44705549 -0.18165016
-0.79425049 0.43285966 0.079137415
-0.82554936 0.45010391 -0.14892563
-0.75459403 0.41158891 0.10553886
-0.81725383 0.44595137 -0.11431345
-0.77857369 0.42484477 0.14047816
-0.84816056 0.46300814 -0.084541067
-0.83079147 0.45390314 -0.049614493
-0.79312235 0.43350211 -0.015776975
-0.82144737 0.45066157 -0.25105447
-0.80997211 0.44436604 0.016126024
-0.80292416 0.44068146 -0.21145399
-0.82983905 0.45564204 0.049614493
-0.79498321 0.43668452 -0.17630751
-0.78575033 0.43179119 0.078440167
-0.82751459 0.45474175 -0.14955136
-0.75496465 0.41504511 0.1057826
-0.82098866 0.451529 -0.11504468
-0.8013159 0.44089124 0.14485833
-0.80464852 0.44290808 -0.080357596
-0.85027611 0.46821657 -0.050870556
-0.78810155 0.43433782 -0.015707165
-0.81487656 0.45057872 -0.24950157
-0.79091799 0.43751106 0.015776975
-0.78774047 0.43593287 -0.20785476
-0.83181852 0.46032554 0.049823835
-0.79181319 0.43836749 -0.17592591
-0.7755996 0.42956787 0.077568613
-0.80864352 0.44805381 -0.14642268
-0.75003874 0.41575333 0.10529512
-0.80899143 0.44861567 -0.11358224
-0.83094507 0.4607898 0.15048997
-0.81545949 0.45276088 -0.048881788
-0.79015321 0.43889073 -0.015776975
-0.81836092 0.45624238 -0.25105447
-0.79470259 0.44305268 0.015881689
-0.79820395 0.44518736 -0.21100408
-0.79881227 0.44570941 0.04793974
-0.80570668 0.44974068 -0.17936046
-0.77235579 0.43130121 0.077394299
-0.7985298 0.44591737 -0.14485833
-0.74865592 0.41823828 0.10529512
-0.79710221 0.44548526 -0.1121198
-0.79829627 0.44633543 0.14485833
-0.79987621 0.44740227 -0.080183282
-0.80175298 0.44863549 -0.048149083
-0.79210579 0.44360059 -0.015846785
-0.80336976 0.45138335 -0.24691339
-0.79663754 0.44778371 0.015951499
-0.79154927 0.44510543 -0.20965438
-0.79028863 0.44457808 0.047521055
-0.79223323 0.44567201 -0.17668915
-0.76397604 0.42995146 0.076697052
-0.79008317 0.44482562 -0.14360686
-0.74892116 0.42182311 0.10553886
-0.79554236 0.44826499 -0.1121198
-0.77264214 0.43553901 0.14047816
-0.78442609 0.44236207 -0.078788787
-0.78452635 0.44259909 -0.047207039
-0.79229385 0.44734585 -0.015881689
-0.80507141 0.45622972 -0.24794866
-0.8055082 0.45647725 0.01616093
-0.78490514 0.44498235 -0.20830467
-0.78873193 0.44733402 0.047521055
-0.78717935 0.44663504 -0.17592591
-0.7658605 0.43471575 0.077045679
-0.80734271 0.45844808 -0.14704841
-0.75780135 0.43031609 0.10700129
-0.79397279 0.45103922 -0.1121198
-0.77798665 0.44213745 0.14172964
-0.82271379 0.46774632 -0.082797952
-0.82629681 0.47016513 -0.049823835
-0.77856243 0.44318402 -0.015637357
-0.79844183 0.45616201 -0.24639574
-0.76216251 0.43561175 0.015323212
-0.78496045 0.44882363 -0.20875457
-0.77539062 0.44353116 -0.1736362
-0.75569201 0.43243861 0.076174118
-0.78687984 0.45046794 -0.14360686
-0.76655471 0.43900976 0.10846373
-0.77509004 0.44407788 -0.10968242
-0.80729038 0.46252665 0.14736128
-0.79860449 0.4577353 -0.080531903
-0.79693121 0.45714584 -0.048149083
-0.77180749 0.44291309 -0.015532642
-0.79349649 0.45701823 -0.24536048
-0.77284354 0.44512305 0.015567547
-0.77164823 0.44461393 -0.20560527
-0.79424167 0.45781642 0.048044413
-0.77553833 0.44721603 -0.17401782
-0.78179085 0.45100337 0.078963101
-0.77511525 0.44715232 -0.14172964
-0.75305951 0.43460363 0.10675755
-0.78564715 0.45359358 -0.11138859
-0.78514433 0.453486 0.14360686
-0.79872704 0.46151677 -0.080706216
-0.77120268 0.44579262 -0.046683677
-0.77025682 0.44560438 -0.015532642
-0.79531831 0.4615863 -0.24639574
-0.77993178 0.45283848 0.015742071
-0.76840657 0.44632587 -0.20515537
-0.79263878 0.4605861 0.048044413
-0.78593349 0.4566898 -0.17668915
-0.7802909 0.45359343 0.078963101
-0.77867264 0.45283425 -0.14266825
-0.74639022 0.43423513 0.10602634
-0.79778439 0.46432158 -0.1133385
-0.88256818 0.51387286 0.16175325
-0.77825242 0.45313531 -0.078788787
-0.77654445 0.45250416 -0.047102366
-0.78942549 0.46037927 -0.015951499
-0.80370682 0.47021315 -0.24950157
-0.78524971 0.45959848 0.015881689
-0.78366065 0.45885196 -0.20965438
-0.7875793 0.46133131 0.047835067
-0.7860285 0.46042287 -0.17707075
-0.78214091 0.45832884 0.079311721
-0.77879131 0.45654857 -0.14298111
-0.73288351 0.42980832 0.10432017
-0.78588581 0.46107626 -0.11187606
-0.78182077 0.45887473 -0.079311721
-0.79045951 0.46431613 -0.048044413
-0.78608978 0.46211869 -0.015916595
-0.81537282 0.48086643 -0.25364268
-0.792252 0.4674173 0.016056214
-0.78541058 0.46356577 -0.21055418
-0.78424448 0.46306205 0.047730397
-0.78272605 0.46216547 -0.17668915
-0.77195895 0.45598969 0.078440167
-0.79760039 0.47132397 -0.14673555
-0.72625232 0.42933318 0.10358895
-0.78598017 0.46482718 -0.1121198
-0.83475614 0.49387014 0.15361866
-0.80250597 0.47478983 -0.08157777
-0.80430132 0.47623086 -0.048986461
-0.77759063 0.46078193 -0.015776975
-0.80372578 0.47778675 -0.25053686
-0.78717822 0.46813574 0.015986405
-0.78881192 0.46929365 -0.21190389
-0.79120463 0.47090417 0.048253756
-0.78279507 0.46589899 -0.17707075
-0.76180297 0.45358512 0.077568613
-0.78407061 0.46702889 -0.14454547
-0.74180216 0.44202727 0.10602634
-0.78605795 0.46858445 -0.11236355
-0.7974214 0.47554708 -0.08122915
-0.7871986 0.46982345 -0.048044413
-0.77941096 0.46554434 -0.015846785
-0.78548175 0.47065985 -0.24536048
-0.78553933 0.47088069 0.015986405
-0.78215516 0.46903765 -0.21055418
-0.79991603 0.47968838 0.048881788
-0.77274626 0.46357879 -0.17516267
-0.78925687 0.47367105 0.080531903
-0.77227414 0.46366218 -0.14266825
-0.74706161 0.44870231 0.10700129
-0.79462683 0.47745982 -0.11382597
-0.76331156 0.45882508 -0.077917233
-0.77186227 0.46433198 -0.047207039
-0.76072931 0.45781526 -0.015497738
-0.7954098 0.48038977 -0.24898393
-0.77883834 0.47038141 0.015881689
-0.76224816 0.46054354 -0.20560527
-0.78456241 0.47421256 0.048044413
-0.77952349 0.4713524 -0.17707075
-0.77225584 0.46714219 0.078963101
-0.76735187 0.46417579 -0.14204252
-0.73368108 0.44398302 0.10529512
-0.78454822 0.47495234 -0.11260728
-0.75829726 0.45942193 -0.077568613
-0.76007009 0.46067765 -0.046579007
-0.77280456 0.46876466 -0.015776975
-0.797113 0.48503327 -0.25001919
-0.77889973 0.47413719 0.015916595
-0.75897145 0.46218792 -0.20515537
-0.77607971 0.47279176 0.047625724
-0.76789641 0.46780643 -0.17478105
-0.78261173 0.4769586 0.080183282
-0.77921987 0.47507796 -0.14454547
-0.73551643 0.44860855 0.1057826
-0.77949649 0.47561994 -0.1121198
-0.77037442 0.47023845 -0.078963101
-0.76016188 0.46436897 -0.046683677
-0.77286953 0.47250262 -0.015811879
-0.78224045 0.47973302 -0.2458781
-0.77894431 0.47789896 0.015951499
-0.77230138 0.47400865 -0.20920448
-0.77953076 0.47863305 0.04793974
-0.76793176 0.47151124 -0.17516267
-0.7826398 0.48073041 0.080357596
-0.77082485 0.47365817 -0.14329399
-0.73901927 0.45429215 0.10651381
-0.77783149 0.478338 -0.1121198
-0.75684953 0.46561667 -0.077742919
-0.76874083 0.47330239 -0.047311708
-0.76100087 0.46890345 -0.015602452
-6.5912218 4.0740013 -2.0762465
-0.77386987 0.47851154 0.015881689
-7.6484146 4.7311349 -2.0762982
-0.77106166 0.47714746 0.047521055
-9.1720018 5.675807 -2.0966094
