# .PCD v0.7 - Point Cloud Data file format
VERSION 0.7
FIELDS x y z
SIZE 4 4 4
TYPE F F F
COUNT 1 1 1
WIDTH 1477
HEIGHT 1
VIEWPOINT 0 0 0 1 0 0 0
POINTS 1477
DATA ascii
-9.3776264 -2.1805165 -1.8714547
-32.083607 -7.4542832 2.8817174
-11.878109 -2.75757 -1.9313401
-39.585712 -9.1827555 4.9895749
-14.77635 -3.4249742 -1.8624074
-20.334034 -4.7094421 -1.8260871
-41.536301 -9.6123219 8.2872171
-23.705107 -5.481472 -1.2751133
-23.772959 -5.4884214 -0.42587361
-51.958397 -11.985993 14.287848
-7.7181849 -1.7705352 -2.1217985
-8.6486797 -1.9808136 -2.0484045
-31.310507 -7.1653099 1.6833339
-32.206539 -7.3644581 2.8904331
-11.903068 -2.7196102 -1.933843
-41.579918 -9.4925241 5.2367258
-14.823051 -3.3813241 -1.8667948
-39.041573 -8.898695 6.3421669
-20.362005 -4.6410856 -1.8271329
-41.366688 -9.4210615 8.2467651
-23.724096 -5.3986921 -1.2751133
-24.181973 -5.4940104 -0.43285459
-51.163464 -11.614665 14.058016
-7.7356248 -1.7461369 -2.1249044
-24.188622 -5.4555807 0.43281969
-8.6764536 -1.9553224 -2.0533531
-31.213291 -7.0342155 1.6768441
-10.062974 -2.2659452 -2.0050211
-31.26404 -7.034194 2.8036261
-11.918272 -2.6793411 -1.9347818
-14.776657 -3.316519 -1.8594825
-38.87812 -8.7259264 6.3108802
-20.403357 -4.5756478 -1.8293991
-41.422314 -9.2817583 8.2513447
-24.097513 -5.3952708 -1.2941636
-50.411167 -11.277469 11.926005
-24.207863 -5.415535 -0.43299422
-51.567448 -11.52669 14.158438
-7.7473307 -1.7203801 -2.1264575
-30.955139 -6.8739295 0.55348563
-8.7266464 -1.9362499 -2.0637012
-31.218157 -6.9209023 1.6757975
-9.9979839 -2.2146702 -1.9905195
-31.397343 -6.9491301 2.8133874
-11.925161 -2.6393793 -1.9344687
-41.558285 -9.1904297 5.2260017
-14.830219 -3.276922 -1.8648449
-38.908344 -8.5901537 6.3108802
-20.212971 -4.4589038 -1.810922
-29.455587 -6.4924064 -1.5807555
-50.410221 -11.101852 11.917006
-51.769634 -11.382304 14.202954
-7.7397823 -1.6917915 -2.122834
-31.119608 -6.7965536 0.5559988
-8.8342609 -1.9277962 -2.0875459
-30.914288 -6.740407 1.6582127
-10.082001 -2.1982324 -2.0057843
-31.381279 -6.8364911 2.809901
-11.934303 -2.5977335 -1.9344687
-41.675457 -9.0638685 5.2367258
-14.967654 -3.2525337 -1.880688
-38.552013 -8.3704576 6.2483063
-20.200386 -4.3859315 -1.8084817
-46.135281 -10.008527 9.1763868
-29.329723 -6.3573923 -1.5728004
-49.561131 -10.733603 11.707353
-31.116962 -6.7334161 -0.55571949
-50.929142 -11.011268 13.961736
-7.743752 -1.6643581 -2.1223164
-30.96327 -6.6492643 0.55278754
-8.8790445 -1.9051236 -2.0965438
-30.941532 -6.6332917 1.658422
-10.060819 -2.1568532 -2.0000601
-31.521845 -6.7519374 2.8203597
-11.92205 -2.5515146 -1.9310273
-33.829422 -7.2338781 4.2476344
-14.992507 -3.2031665 -1.8823941
-20.291563 -4.3316183 -1.8152797
-29.398619 -6.264956 -1.5753125
-49.640228 -10.569475 11.71725
-31.093334 -6.6147695 -0.55488181
-51.076862 -10.856718 13.991757
-7.7627449 -1.6401144 -2.1259398
-30.857161 -6.5138741 0.55048382
-8.8360634 -1.8636614 -2.0848465
-10.133975 -2.1337166 -2.0130351
-31.36195 -6.6032844 2.8039744
-11.927016 -2.5090692 -1.9304014
-33.380463 -7.0161247 4.1881623
-14.99971 -3.1500006 -1.8819065
-20.225403 -4.2400417 -1.8079587
-29.401834 -6.1530781 -1.5742657
-50.04686 -10.473573 11.804531
-31.014456 -6.4849029 -0.55306679
-50.910217 -10.635705 13.935853
-7.7668133 -1.6112571 -2.1254222
-30.747677 -6.3731418 0.54811031
-8.8771839 -1.8383764 -2.0929446
-30.59313 -6.3299646 1.6372783
-10.064822 -2.0806634 -1.9977702
-34.195576 -7.0691252 3.0549831
-11.949677 -2.4681349 -1.9325917
-33.755901 -6.965939 4.2320352
-15.02282 -3.0974073 -1.883369
-20.322769 -4.1827574 -1.8152797
-29.291153 -6.0179405 -1.5671481
-50.180355 -10.30968 11.827027
-33.600189 -6.8971319 -0.59872222
-50.914795 -10.442039 13.926536
-7.7802377 -1.584323 -2.1274927
-30.351486 -6.1750784 0.54064065
-8.887681 -1.8066036 -2.0938444
-30.521091 -6.2040381 1.632254
-10.133592 -2.0580215 -2.0099821
-32.081207 -6.5095043 2.8639376
-11.919921 -2.4164705 -1.9263341
-33.228657 -6.7302551 4.1628132
-15.100224 -3.0557117 -1.891656
-40.602619 -8.2164278 6.5611749
-20.538393 -4.1524591 -1.8332338
-41.020218 -8.2860298 8.1345701
-29.214092 -5.8959022 -1.5619144
-54.798687 -11.049357 12.905891
-31.260008 -6.3031254 -0.55662704
-51.53801 -10.382529 14.087004
-7.768672 -1.5537434 -2.122834
-29.916878 -5.9834099 0.53254277
-8.8554039 -1.7694837 -2.0848465
-30.495554 -6.0880842 1.6297418
-10.050224 -2.0045843 -1.992046
-30.970432 -6.1716409 2.7628369
-12.022797 -2.3958457 -1.9416648
-32.195583 -6.4099488 4.0307069
-15.057707 -2.9951637 -1.8850751
-41.068928 -8.1616669 6.6318831
-20.372971 -4.0450487 -1.8171972
-41.274696 -8.1950817 8.1796007
-29.131611 -5.7787833 -1.5564715
-31.250433 -6.1877542 -0.5560686
-53.506969 -10.584963 14.614994
-7.7339749 -1.5201503 -2.1119635
-29.86694 -5.8650708 0.53128618
-8.8462276 -1.7355623 -2.0812473
-30.512703 -5.9808216 1.6295325
-10.049109 -1.9697348 -1.9905195
-30.939892 -6.058948 2.7583048
-11.955479 -2.3390739 -1.9294629
-31.867081 -6.2289705 3.986834
-15.046639 -2.9383988 -1.8823941
-40.538784 -7.9093256 6.5417771
-19.14452 -3.7351944 -1.7065095
-40.886818 -7.9698114 8.0971708
-29.092793 -5.6656055 -1.5533314
-46.501904 -9.0474892 10.93712
-31.303249 -6.0847359 -0.55662704
-53.748405 -10.437898 14.670899
-7.7582021 -1.4968019 -2.1171398
-30.07966 -5.7978778 0.53470683
-8.8771086 -1.7094628 -2.087096
-29.839096 -5.7407002 1.5924786
-10.028934 -1.9294519 -1.9851768
-31.254339 -6.007328 2.7844517
-11.99073 -2.3025422 -1.933843
-32.598263 -6.2538352 4.0755548
-15.010013 -2.8768933 -1.8765444
-40.550629 -7.7647877 6.5392742
-19.934307 -3.8170965 -1.7757111
-40.806408 -7.8063827 8.0757999
-29.186934 -5.5782719 -1.5573088
-46.494923 -8.8777895 10.928123
-31.312513 -5.9731808 -0.55641764
-53.564377 -10.208276 14.610853
-7.7538891 -1.4679166 -2.1145515
-30.009331 -5.6757493 0.5331012
-8.8715334 -1.6762923 -2.0843966
-30.313276 -5.7277484 1.6167625
-10.037536 -1.8947988 -1.9855584
-31.592297 -5.9580092 2.8126903
-11.930753 -2.2478683 -1.9228927
-33.006157 -6.2127209 4.1238151
-14.949732 -2.8112738 -1.8677697
-40.945011 -7.699645 6.5987196
-19.080055 -3.5845222 -1.6984911
-29.080595 -5.4527984 -1.5506099
-46.441345 -8.6996489 10.908326
-31.021601 -5.8111377 -0.55090266
-53.518185 -10.015667 14.589113
-7.7855568 -1.4457793 -2.1217985
-29.768465 -5.5280089 0.52849376
-8.9000359 -1.6511314 -2.0897954
-29.936392 -5.5483842 1.5956187
-9.9784536 -1.8475965 -1.9725834
-31.005562 -5.7353501 2.7586536
-12.044974 -2.2280564 -1.9401004
-32.593227 -6.0231509 4.069705
-14.755954 -2.7242019 -1.8424209
-20.070192 -3.6980581 -1.7854724
-43.85899 -8.0812922 8.6688347
-29.078876 -5.3527164 -1.5495632
-46.554272 -8.5611029 10.928123
-30.23138 -5.553956 -0.53652185
-55.388325 -10.16567 15.089151
-7.7846074 -1.418914 -2.1202457
-29.952837 -5.454155 0.53142577
-8.98627 -1.6347026 -2.1086912
-30.395756 -5.5238461 1.6190653
-9.8724928 -1.7941363 -1.9504496
-30.953838 -5.6196866 2.7523782
-12.1071 -2.1958683 -1.9488608
-32.750782 -5.9341154 4.0867667
-14.878668 -2.6931844 -1.8565578
-20.101952 -3.6350269 -1.7872156
-40.359131 -7.2908497 7.9720006
-29.065935 -5.2455034 -1.5478884
-30.226967 -5.4441404 -0.53610307
-55.461506 -9.9790945 15.099504
-7.7781024 -1.389693 -2.1171398
-29.696091 -5.3003821 0.52653909
-8.986166 -1.6022983 -2.1073413
-30.316536 -5.4001975 1.6138318
-10.137694 -1.8057985 -2.0015864
-12.106912 -2.15221 -1.9476093
-32.470306 -5.766304 4.0492311
-14.780476 -2.6221597 -1.843152
-42.777847 -7.581389 6.8809276
-39.889435 -7.0623045 7.8743062
-28.99753 -5.128706 -1.5432827
-29.86375 -5.271163 -0.52933151
-55.823227 -9.8431482 15.188538
-7.7829056 -1.3625355 -2.1171398
-29.686834 -5.1918597 0.52605045
-8.9417925 -1.5622007 -2.095644
-30.373627 -5.3065085 1.6159252
-10.020159 -1.7487999 -1.977163
-35.542042 -6.1966877 3.1564324
-12.116298 -2.1102748 -1.9479222
-31.813555 -5.5351992 3.9648974
-14.930354 -2.5950246 -1.8607013
-20.256401 -3.5170958 -1.7987201
-39.689457 -6.8841004 7.8300385
-28.960155 -5.0179067 -1.540352
-39.160313 -6.7782416 9.1753035
-29.99535 -5.1918817 -0.53135598
-39.115265 -6.7634034 10.636428
-7.7971349 -1.3369923 -2.1197281
-30.425247 -5.2170854 0.53882557
-8.9238758 -1.5285916 -2.0902452
-30.947123 -5.2954535 1.6454427
-9.9526653 -1.7012397 -1.9626614
-12.055078 -2.0584462 -1.9369718
-32.743622 -5.5852141 4.0784802
-14.901696 -2.5391638 -1.8560703
-42.723297 -7.2721329 6.8640323
-20.199806 -3.4346814 -1.7926192
-38.763687 -6.591197 7.6430459
-28.96876 -4.9205046 -1.5399333
-39.0942 -6.6333475 9.1546087
-30.076382 -5.097847 -0.53247291
-38.586262 -6.5333071 10.486313
-7.8034306 -1.3114485 -2.1202457
-30.628653 -5.141963 0.54210669
-8.952219 -1.5013015 -2.095644
-29.657465 -4.9682837 1.5759405
-10.024085 -1.6792567 -1.9756364
-31.912659 -5.3403454 2.8308187
-12.007634 -2.0072367 -1.9282113
-30.78927 -5.141315 3.8327911
-14.951588 -2.4939899 -1.8611888
-39.163158 -6.5255699 6.2883534
-20.099062 -3.3490107 -1.7826835
-28.244959 -4.6961837 -1.5005766
-39.478527 -6.5568767 9.2391901
-30.145287 -5.0013318 -0.53338045
-38.768925 -6.4251065 10.529795
-7.8060551 -1.2838858 -2.1197281
-30.528017 -5.0155725 0.54001236
-8.9766359 -1.4731991 -2.100143
-29.733753 -4.8744144 1.5790806
-9.9562654 -1.6321841 -1.961135
-31.74235 -5.1980138 2.8140845
-11.987276 -1.9608454 -1.9238312
-30.803112 -5.0331602 3.8323038
-14.868121 -2.4267578 -1.849733
-39.326073 -6.4117107 6.3108802
-20.063437 -3.2711365 -1.7785
-43.242271 -7.0424495 8.5161877
-28.966919 -4.712379 -1.5380492
-39.581963 -6.4321585 9.2580853
-29.965172 -4.8640332 -0.52988994
-38.470749 -6.2378016 10.442832
-7.7971377 -1.2544833 -2.1161046
-30.434776 -4.8912096 0.53805768
-8.9740267 -1.4406201 -2.0983434
-30.184443 -4.8401709 1.6021085
-10.014241 -1.6058153 -1.9714386
-30.941896 -4.9560919 2.7415709
-11.978443 -1.9164901 -1.9213283
-30.914585 -4.9406509 3.8440032
-14.943151 -2.3854828 -1.8580201
-39.020493 -6.2221298 6.2583179
-20.175077 -3.2170775 -1.78739
-28.383568 -4.5158353 -1.5062289
-39.442509 -6.2682495 9.220294
-30.294014 -4.8089399 -0.53540492
-55.656788 -8.8251381 15.099504
-7.7881107 -1.225157 -2.1124811
-32.004372 -5.0289221 0.56549287
-8.986702 -1.4104946 -2.100143
-30.276136 -4.7465324 1.606086
-10.087669 -1.5814916 -1.9847952
-32.380196 -5.0706058 2.8674238
-12.037754 -1.8829107 -1.9297757
-31.645554 -4.9442482 3.932724
-14.896469 -2.3247361 -1.8511955
-38.932671 -6.0688548 6.240797
-20.186184 -3.1466379 -1.78739
-28.339952 -4.407515 -1.5030888
-39.079021 -6.0707021 9.1303129
-30.543789 -4.7393513 -0.53952372
-38.795898 -6.0128536 10.519442
-7.7560606 -1.1923863 -2.1026461
-29.776394 -4.5723939 0.525841
-8.9780874 -1.3770481 -2.0969937
-30.229343 -4.6311402 1.6027365
-10.09507 -1.5465664 -1.9851768
-32.736446 -5.0093818 2.8974056
-11.917328 -1.8214796 -1.9094393
-31.996222 -4.8846827 3.9741595
-14.91823 -2.2748177 -1.8529016
-20.165531 -3.0713556 -1.784601
-28.268284 -4.295361 -1.4984833
-39.134651 -5.9395256 9.1384115
-30.623413 -4.6422949 -0.54064065
-38.789909 -5.8733439 10.512195
-7.7296081 -1.1607168 -2.0943637
-29.847548 -4.4767241 0.52681834
-8.9982567 -1.3480098 -2.1005929
-29.696198 -4.4434328 1.5736376
-10.084873 -1.5089965 -1.982124
-30.657116 -4.581737 2.7119379
-11.943151 -1.7827854 -1.912568
-31.8992 -4.7559934 3.9600229
-15.049777 -2.2411497 -1.8682572
-20.093359 -2.9886343 -1.7772799
-40.893421 -6.0750775 8.0361118
-28.453007 -4.2218766 -1.507485
-38.985512 -5.7777433 9.0988207
-30.540525 -4.5207224 -0.53889543
-38.871326 -5.7469554 10.528759
-7.7259674 -1.1326054 -2.0922933
-30.638603 -4.4860725 0.540501
-9.0067635 -1.3171576 -2.1014926
-30.494139 -4.4540491 1.6150877
-10.097851 -1.4749169 -1.9836504
-30.72418 -4.4821734 2.71647
-11.573992 -1.6864028 -1.8524972
-31.660234 -4.6074433 3.9283366
-14.990717 -2.178894 -1.8599701
-36.738152 -5.3333359 5.8797464
-19.951845 -2.8964412 -1.7638578
-28.62966 -4.1460028 -1.5160682
-39.036301 -5.6460948 9.106019
-30.429453 -4.3957968 -0.53666151
-38.860561 -5.6068196 10.520477
-7.7107501 -1.1028944 -2.0871167
-30.804523 -4.4005961 0.54315382
-9.0113058 -1.2857099 -2.1014926
-30.687458 -4.3729353 1.6245083
-10.178739 -1.4504611 -1.9985336
-32.921234 -4.6853924 2.9092586
-11.880988 -1.6887993 -1.900679
-31.739016 -4.5058279 3.9361362
-15.019851 -2.129622 -1.8626511
-36.913017 -5.227211 5.9047761
-19.999317 -2.8320811 -1.7671698
-39.974274 -5.6393652 9.3201723
-30.674307 -4.3219137 -0.54071045
-38.983192 -5.485672 10.548429
-7.716466 -1.0762405 -2.0876343
-29.722462 -4.1402006 0.52381653
-9.0176706 -1.2545131 -2.1019428
-29.772032 -4.1418018 1.5753125
-10.253743 -1.4246504 -2.0122719
-31.990122 -4.439002 2.8255892
-11.923989 -1.6524686 -1.9066235
-30.523619 -4.224649 3.783556
-15.082253 -2.0847905 -1.869476
-36.769688 -5.082602 5.8791208
-19.967634 -2.7565308 -1.7635093
-39.77232 -5.4834938 7.8040881
-27.929783 -3.8457708 -1.477549
-40.024605 -5.5040412 9.3273706
-30.906387 -4.2501364 -0.54455
-7.7220907 -1.0495585 -2.0881522
-30.080805 -4.0884738 0.52988994
-9.012125 -1.2232937 -2.0996931
-29.540892 -4.00459 1.5623331
-10.153597 -1.3746263 -1.9916644
-33.016327 -4.4639797 2.9148364
-11.90004 -1.6089474 -1.9019306
-30.474508 -4.1148968 3.7757564
-15.073344 -2.0326414 -1.8675259
-37.319702 -5.0259237 5.9642215
-19.949492 -2.6830952 -1.7610689
-26.68343 -3.584038 -1.4109775
-40.231922 -5.3966737 9.3714609
-30.659412 -4.1071792 -0.53994256
-7.7293587 -1.0244527 -2.0891874
-30.007668 -3.9719012 0.52835417
-9.0028172 -1.1900402 -2.0965438
-29.598253 -3.9071984 1.5646359
-10.175616 -1.3432602 -1.9950989
-31.031946 -4.0909467 2.7384334
-12.081845 -1.5906037 -1.9300886
-30.961042 -4.0706058 3.8342535
-15.048858 -1.9758781 -1.8636261
-37.258675 -4.8853493 5.9517064
-19.677759 -2.5801432 -1.7363167
-39.781471 -5.209085 7.7987456
-28.14147 -3.6799126 -1.487388
-40.134575 -5.2410631 9.3444662
-30.292841 -3.9504893 -0.5332408
-7.7309718 -0.99721867 -2.0886698
-30.04118 -3.8696842 0.52870321
-9.0030508 -1.1581095 -2.095644
-29.762268 -3.8231969 1.5725911
-10.125721 -1.3007283 -1.9844136
-31.36223 -4.0231533 2.7663233
-12.148065 -1.5562042 -1.9397876
-30.766346 -3.9358053 3.8084173
-15.034003 -1.9205645 -1.860945
-36.589676 -4.6677794 5.8422022
-19.708384 -2.5142169 -1.738234
-27.797512 -3.5362878 -1.4685471
-30.302481 -3.8442194 -0.533171
-7.7229042 -0.96878535 -2.0855639
-29.99498 -3.7573402 0.52765608
-9.005105 -1.126434 -2.0951941
-29.664444 -3.7054265 1.5667293
-10.155525 -1.2685405 -1.9893748
-31.502613 -3.9294436 2.7774792
-11.990724 -1.4935244 -1.9138194
-30.858692 -3.8381791 3.818167
-15.016974 -1.8651414 -1.8580201
-38.150509 -4.7316165 6.0887427
-19.840059 -2.4571428 -1.7490414
-41.398945 -5.1271577 8.1086197
-27.754185 -3.4323766 -1.4656162
-39.257309 -4.8480191 9.1321125
-30.339533 -3.7413495 -0.5335899
-7.7244854 -0.94023758 -2.0850463
-30.190536 -3.6748435 0.53086728
-8.9954395 -1.0933493 -2.0920448
-29.693064 -3.6037731 1.5675668
-10.218575 -1.2383934 -2.0008233
-30.761225 -3.7225184 2.7108922
-11.98435 -1.4481441 -1.9119422
-30.793074 -3.7209198 3.8084173
-14.948504 -1.8036745 -1.8487581
-38.084419 -4.5884924 6.0756025
-19.832689 -2.3859735 -1.7476468
-41.499329 -4.9852328 8.1246471
-27.278751 -3.2721069 -1.4398669
-39.239986 -4.6999292 9.1240149
-30.443741 -3.6463678 -0.53519553
-7.7334762 -0.9139502 -2.0865991
-30.164085 -3.5594854 0.53016925
-8.958745 -1.0555811 -2.0825968
-30.197378 -3.558063 1.5935254
-10.228685 -1.2034043 -2.0019681
-30.378275 -3.5686276 2.6760299
-30.972118 -3.6274288 3.8288913
-15.010221 -1.7553291 -1.8555828
-39.80323 -4.6546798 6.3471727
-20.082331 -2.3449202 -1.7689129
-41.34877 -4.8207889 8.0918283
-27.516167 -3.2031999 -1.4517996
-39.287128 -4.5665264 9.1312132
-30.841627 -3.5848668 -0.54196703
-7.736619 -0.88694954 -2.0865991
-30.557165 -3.5031664 0.5368709
-8.9912376 -1.0291909 -2.0893452
-30.531076 -3.4893718 1.6104822
-10.267935 -1.1717011 -2.0088372
-30.137159 -3.4336951 2.653718
-31.019482 -3.5287395 3.8332787
-15.01004 -1.7048745 -1.8548515
-40.76923 -4.623445 6.4986014
-19.949833 -2.2588897 -1.7565368
-41.376232 -4.6849689 8.0941181
-27.641747 -3.1249475 -1.4578705
-39.135521 -4.4174218 9.0925217
-30.929462 -3.4856963 -0.54329342
-7.7395177 -0.86128885 -2.0865991
-30.982601 -3.4424038 0.54413116
-8.9870291 -0.99693978 -2.0875459
-10.32445 -1.1434796 -2.019141
-30.168182 -3.3359265 2.6554613
-11.244663 -1.2414218 -1.7918006
-31.481485 -3.4700334 3.8888512
-15.057339 -1.6570255 -1.8599701
-40.686939 -4.4703174 6.4829578
-19.86611 -2.1827106 -1.7485185
-41.845097 -4.5901847 8.1826534
-26.890095 -2.9449446 -1.4176766
-31.060717 -3.3907382 -0.54538769
-7.732873 -0.83323252 -2.0840108
-31.03817 -3.3389378 0.54489905
-8.9885149 -0.96535683 -2.087096
-32.747101 -3.5112221 1.7260401
-10.275673 -1.1017821 -2.0088372
-31.150368 -3.3345106 2.7408738
-12.071924 -1.2901187 -1.9228927
-31.509195 -3.3617976 3.890801
-15.051188 -1.6031935 -1.8585076
-40.80051 -4.3387194 6.4986014
-19.528875 -2.0766971 -1.7181883
-41.798393 -4.4374466 8.1704416
-27.110743 -2.8733757 -1.4287717
-31.346794 -3.3112764 -0.55020458
-7.7414994 -0.80683345 -2.0855639
-31.113281 -3.2372026 0.54601598
-8.9491873 -0.92954558 -2.077198
-32.790943 -3.4001794 1.7277148
-10.271645 -1.0650939 -2.0073106
-30.987419 -3.2077084 2.7255342
-11.752144 -1.2144675 -1.8712693
-31.627369 -3.2627888 3.9039629
-15.019174 -1.5467845 -1.8538766
-41.275223 -4.2435451 6.5718126
-21.48822 -2.2092245 -1.8898852
-27.486189 -2.8161867 -1.4480314
-31.350204 -3.2010219 -0.55006498
-7.7346578 -0.77883953 -2.0829759
-31.585997 -3.1749763 0.55411392
-8.9291096 -0.89596641 -2.071799
-31.649967 -3.1702483 1.6670051
-10.269439 -1.0286478 -2.006166
-31.081694 -3.1078475 2.7328553
-11.809383 -1.1787317 -1.8797168
-31.496344 -3.1382051 3.8864136
-15.006704 -1.4925798 -1.851683
-21.398653 -2.124552 -1.8813437
-27.539579 -2.7245498 -1.4503342
-31.241783 -3.0798059 -0.54797065
-7.7411742 -0.75220919 -2.0840108
-31.111238 -3.0175955 0.54559714
-8.9302435 -0.86460453 -2.0713491
-31.561443 -3.0501428 1.6617714
-10.284693 -0.99392736 -2.0084558
-31.38983 -3.0280285 2.7590022
-11.921571 -1.1479177 -1.8969245
-14.875476 -1.4271065 -1.834865
-21.322638 -2.0418715 -1.8740227
-27.676168 -2.6405351 -1.4570332
-31.614655 -3.005172 -0.55432332
-7.7456775 -0.72536284 -2.0845287
-30.950356 -2.8929729 0.54259533
-8.9254465 -0.83270264 -2.0695498
-10.323285 -0.96129727 -2.0153246
-11.988447 -1.1121353 -1.9069364
-14.989083 -1.3852193 -1.8482705
-21.424866 -1.9762127 -1.8823898
-27.955704 -2.5687714 -1.4712685
-7.7404656 -0.69762897 -2.0824583
-30.761101 -2.7670023 0.53910482
-8.9380026 -0.80241287 -2.071799
-31.649109 -2.8413119 1.6653303
-10.402839 -0.93209153 -2.0302079
-31.449894 -2.8123615 2.7624884
-12.074893 -1.0776558 -1.9200768
-32.302567 -2.8772459 3.9819591
-14.999527 -1.3360341 -1.8490019
-21.385988 -1.8973635 -1.8783807
-28.254969 -2.4968393 -1.4865507
-31.606491 -2.7874482 -0.55383468
-7.7446609 -0.67212355 -2.0829759
-30.989252 -2.6839585 0.54294437
-8.9231415 -0.77125835 -2.06775
-33.110943 -2.8618948 1.7417408
-10.493893 -0.90518135 -2.0473807
-32.626255 -2.8085287 2.8649836
-11.903237 -1.0225601 -1.8922316
-32.715408 -2.8047075 4.031682
-14.912894 -1.2784896 -1.8377899
-41.534645 -3.5534732 6.6024737
-21.380249 -1.8254168 -1.8773347
-48.735939 -4.1524529 9.5076313
-28.501902 -2.4234328 -1.4991113
-31.655411 -2.6860023 -0.55453277
-7.7468472 -0.64643735 -2.0829759
-31.08168 -2.5881553 0.54441041
-8.9217653 -0.74134082 -2.0668504
-33.327736 -2.7634699 1.7526268
-10.590751 -0.87816417 -2.0656981
-32.683041 -2.7042704 2.8691671
-11.85341 -0.97869283 -1.8837841
-31.810514 -2.6208963 3.9190745
-14.972662 -1.2309765 -1.8446145
-41.452293 -3.4007146 6.5874557
-21.390156 -1.7548321 -1.8776833
-28.720787 -2.3461397 -1.5102065
-31.648649 -2.5741975 -0.55425352
-7.7586851 -0.62016129 -2.0855639
-31.030724 -2.4748664 0.54336321
-8.9145861 -0.70942247 -2.0646007
-33.269482 -2.6417413 1.7490679
-10.654421 -0.84600735 -2.0775285
-31.341692 -2.4831548 2.7506351
-11.884322 -0.93949258 -1.8881643
-31.863005 -2.5132742 3.9244368
-14.964994 -1.1777697 -1.843152
-21.364372 -1.6776649 -1.8748943
-28.800484 -2.2514739 -1.5139747
-31.717253 -2.4683537 -0.55530065
-7.7473192 -0.592044 -2.0819407
-31.08304 -2.3698852 0.54413116
-8.9267235 -0.67903924 -2.0668504
-32.171211 -2.4415493 1.6908703
-10.69059 -0.81133413 -2.0840161
-32.820328 -2.4850595 2.8796256
-11.895409 -0.89859778 -1.8894157
-35.228783 -2.6550455 4.3378177
-14.775023 -1.1109418 -1.8192657
-21.358177 -1.6021843 -1.8738486
-47.993008 -3.5917621 9.3549843
-28.720535 -2.1443908 -1.5093691
-35.315231 -2.6243739 -0.61812937
-7.7474117 -0.56485653 -2.081423
-31.246689 -2.2726846 0.54685372
-8.9270964 -0.64773375 -2.0664005
-31.908619 -2.3096328 1.6766349
-10.683566 -0.77330565 -2.0821078
-31.6325 -2.2840972 2.7746902
-11.973343 -0.86246222 -1.9013047
-35.221996 -2.5309269 4.3358679
-15.00255 -1.0753982 -1.8468081
-21.343769 -1.5261937 -1.8721054
-48.396904 -3.4521606 9.4313078
-28.691982 -2.0415716 -1.507485
-31.937176 -2.2612715 -0.55886102
-7.7512636 -0.53794312 -2.0819407
-31.358166 -2.1707797 0.54866874
-8.9273577 -0.61643386 -2.0659504
-31.952353 -2.2007065 1.678519
-10.674448 -0.73519868 -2.0798182
-35.524254 -2.4404907 3.1152949
-12.037374 -0.82484823 -1.9110037
-35.317753 -2.413919 4.3465924
-14.95076 -1.019242 -1.8399835
-21.329088 -1.4503286 -1.8703622
-48.408661 -3.2832012 9.4313078
-28.571402 -1.9327776 -1.5007859
-35.604034 -2.3960321 -0.62287641
-7.7588768 -0.51126367 -2.0834932
-32.075916 -2.1079969 0.56109488
-8.919733 -0.58463031 -2.0637012
-34.295643 -2.2418447 1.8011944
-10.665195 -0.69716471 -2.0775285
-35.643894 -2.3237393 3.1250563
-12.08749 -0.78590053 -1.9185126
-14.952247 -0.96691585 -1.8397398
-46.528156 -3.0006902 7.3846459
-21.326067 -1.3753591 -1.869665
-48.419827 -3.114202 9.4313078
-28.534126 -1.830213 -1.4984833
-35.576263 -2.269444 -0.62224811
-7.7606139 -0.48417866 -2.0834932
-32.118999 -1.9982445 0.56172317
-8.9256096 -0.55373216 -2.0646007
-34.171688 -2.1139848 1.794286
-10.655807 -0.65920693 -2.0752387
-35.349522 -2.1806486 3.098561
-12.092131 -0.74382347 -1.9188254
-36.692963 -2.2506759 4.5137973
-14.630582 -0.89484537 -1.7997667
-46.664543 -2.8459532 7.4046702
-21.322783 -1.3004229 -1.8689677
-48.430401 -2.9451768 9.4313078
-28.552301 -1.7313303 -1.4991113
-35.803535 -2.158473 -0.62608761
-7.7622566 -0.45708588 -2.0834932
-8.9274874 -0.52257448 -2.0646007
-31.550943 -1.8413159 1.6563284
-10.642364 -0.62108934 -2.0721858
-34.557327 -2.0107174 3.0284877
-12.112401 -0.70264167 -1.9216411
-36.906704 -2.1344903 4.5391459
-14.51669 -0.83702737 -1.785386
-21.307301 -1.2248458 -1.8672247
-48.440388 -2.7760921 9.4313078
-28.534245 -1.6302857 -1.4978552
-35.802864 -2.0330365 -0.62594801
-7.7541609 -0.42945158 -2.0809052
-35.738125 -1.9730504 0.62476122
-8.9273119 -0.49130124 -2.0641508
-35.673332 -1.9569755 1.8723713
-10.617023 -0.5824309 -2.0668433
-34.46069 -1.8844279 3.0194235
-12.237073 -0.66702282 -1.9410391
-36.802929 -1.9996169 4.5254965
-15.522511 -0.84066892 -1.9087178
-46.683273 -2.5201039 7.4046702
-21.295532 -1.149597 -1.8658301
-48.449783 -2.6069856 9.4313078
-28.535772 -1.530458 -1.4976459
-35.777794 -1.9063454 -0.62538958
-7.7575426 -0.40248364 -2.081423
-35.676899 -1.8447773 0.6235745
-8.9250803 -0.45993316 -2.0632513
-36.745079 -1.8871508 1.9282662
-10.579778 -0.54335541 -2.0592108
-34.837154 -1.7830678 3.0518456
-12.444498 -0.63476545 -1.9735774
-16.510677 -0.83639812 -2.029856
-21.287476 -1.0746515 -1.8647844
-48.654663 -2.447711 9.4694691
-28.493065 -1.4284462 -1.4951338
-35.832165 -1.7838311 -0.6262272
-7.7608294 -0.37549546 -2.0819407
-35.6991 -1.7209996 0.62385374
-8.9285774 -0.42887136 -2.0637012
-36.699574 -1.7563918 1.9255447
-10.548272 -0.50482595 -2.0527232
-34.735699 -1.6563271 3.0424325
-12.705121 -0.60360199 -2.0145633
-35.657993 -1.6878314 4.3831534
-16.487719 -0.77753991 -2.0266874
-46.897045 -2.2034025 7.4359565
-21.271196 -0.99940211 -1.8630412
-28.473936 -1.327854 -1.4938776
-35.746281 -1.6544971 -0.62462163
-7.7678819 -0.34866244 -2.0834932
-35.605003 -1.5919005 0.62210846
-8.92418 -0.39744186 -2.0623512
-36.95689 -1.6394271 1.9387333
-10.536241 -0.46739319 -2.0500519
-34.848751 -1.539807 3.0518456
-12.957781 -0.57028234 -2.0542977
-35.50898 -1.5565696 4.3641415
-16.470501 -0.71911603 -2.02425
-21.262608 -0.92463076 -1.8619952
-28.446472 -1.2270755 -1.4922029
-35.903679 -1.5361965 -0.62727439
-7.7709818 -0.32162687 -2.0840108
-35.642311 -1.4689313 0.62266695
-8.9294071 -0.36644781 -2.0632513
-35.429516 -1.4539677 1.8583454
-10.524076 -0.43005311 -2.0473807
-35.602432 -1.4486163 3.1173866
-13.022854 -0.52760631 -2.0643096
-36.946266 -1.4903692 4.5401211
-16.462994 -0.66122401 -2.0230312
-21.265707 -0.85040414 -1.8619952
-28.470539 -1.1285682 -1.4932497
-35.964523 -1.4193423 -0.62825173
-7.7585444 -0.29398501 -2.0803876
-35.631001 -1.3501219 0.62238777
-8.9344683 -0.33698139 -2.0641508
-35.466309 -1.331493 1.86002
-10.517666 -0.39301857 -2.0458541
-35.539577 -1.321813 3.11146
-13.004791 -0.48368332 -2.0611808
-36.558228 -1.3533102 4.4918609
-16.407568 -0.60450691 -2.0159631
-21.244652 -0.77529526 -1.8599035
-28.458157 -1.0335692 -1.4924122
-36.249035 -1.3038478 -0.63313836
-7.7671995 -0.26852369 -2.0824583
-38.657249 -1.3296751 0.67516381
-8.931694 -0.30566078 -2.0632513
-35.406868 -1.2055002 1.8566706
-10.520874 -0.35820499 -2.0462358
-35.870331 -1.2150124 3.1400468
-12.990607 -0.43775263 -2.0586779
-36.804771 -1.233803 4.5215969
-16.391722 -0.5466342 -2.0137691
-21.259056 -0.70523673 -1.8609494
-28.433643 -0.93330735 -1.4909469
-36.489201 -1.1849735 -0.63725716
-7.7719507 -0.24152741 -2.0834932
-35.051929 -1.0831788 0.61212569
-8.9249153 -0.27424183 -2.0614514
-35.414852 -1.0820209 1.8568799
-10.522061 -0.3214778 -2.0462358
-35.942062 -1.09185 3.1459734
-12.966387 -0.39163172 -2.0546105
-46.69413 -1.4021637 5.7359028
-16.347893 -0.48805019 -2.0081632
-48.507725 -1.4396771 7.6862521
-21.233507 -0.63019645 -1.8585091
-28.428743 -0.83381474 -1.4905282
-36.477127 -1.0571308 -0.63697791
-7.7727466 -0.21439655 -2.0834932
-35.003525 -0.95940101 0.61121821
-8.9297142 -0.24319011 -2.0623512
-35.638027 -0.96433496 1.8683938
-10.521155 -0.28469357 -2.0458541
-36.097023 -0.97045922 3.1592212
-12.947927 -0.3458373 -2.0514817
-46.996403 -1.2470593 5.7724638
-16.3237 -0.43030587 -2.0049946
-21.255495 -0.55659479 -1.8602523
-28.44346 -0.73489034 -1.4911562
-36.40863 -0.92796028 -0.63572139
-7.7715168 -0.18721841 -2.0829759
-37.829418 -0.90471739 0.66050375
-8.9363537 -0.21215661 -2.0637012
-38.94772 -0.91786021 2.0417304
-10.510309 -0.24769086 -2.0435643
-36.155964 -0.8457548 3.1641018
-12.943132 -0.3005006 -2.0505433
-47.290215 -1.0896902 5.8080497
-16.311211 -0.37300092 -2.0032885
-48.390198 -1.0981261 7.6662278
-21.241373 -0.48203364 -1.8588576
-28.44186 -0.63550282 -1.4909469
-36.499611 -0.80280709 -0.63725716
-7.7605338 -0.15985069 -2.07987
-8.9409361 -0.18104242 -2.0646007
-37.385155 -0.75047392 1.9596677
-10.515036 -0.21108003 -2.0443277
-36.409687 -0.7245267 3.1860654
-12.847326 -0.25341266 -2.0352125
-47.400906 -0.92670393 5.8212118
-16.324322 -0.31629211 -2.004751
-21.22699 -0.40758294 -1.8574631
-28.419943 -0.53576583 -1.4896908
-7.7649078 -0.13282625 -2.0809052
-38.318672 -0.64878863 0.66895074
-8.9278746 -0.14960282 -2.0614514
-59.502155 -0.98666555 3.1188047
-10.517672 -0.17440417 -2.0447092
-36.690891 -0.60201252 3.210469
-12.832333 -0.20830871 -2.0327096
-16.305477 -0.25899586 -2.0023134
-21.21633 -0.33329609 -1.8564173
-28.405663 -0.43631905 -1.4888535
-7.7749825 -0.10585215 -2.0834932
-34.937527 -0.46955687 0.60989183
-8.9283419 -0.11843755 -2.0614514
-10.518216 -0.1376918 -2.0447092
-36.979652 -0.47763813 3.2355697
-12.81718 -0.16331254 -2.0302067
-16.298342 -0.20197868 -2.0013385
-21.225332 -0.25932696 -1.8571144
-28.387041 -0.33692428 -1.4878067
-7.777236 -0.078731082 -2.0840108
-35.23489 -0.35054252 0.61505771
-8.9287014 -0.087270856 -2.0614514
-10.506853 -0.10086217 -2.0424197
-37.005001 -0.34877643 3.2376616
-12.827548 -0.11866225 -2.0317712
-48.301262 -0.43838426 5.9308944
-16.283068 -0.14494382 -1.9993886
-21.242048 -0.1853787 -1.8585091
-28.392038 -0.23786564 -1.488016
-7.7697372 -0.051531523 -2.0819407
-8.938695 -0.056164309 -2.0637012
-10.511067 -0.064209484 -2.0431828
-37.05381 -0.2198943 3.2418451
-12.819983 -0.073839158 -2.0305195
-16.263624 -0.087996565 -1.9969513
-21.218657 -0.11110321 -1.8564173
-28.400684 -0.13879572 -1.4884347
-7.7602096 -0.024381049 -2.0793524
-8.9368887 -0.024956409 -2.0632513
-10.499448 -0.027489986 -2.0408931
-12.796458 -0.029034473 -2.0267651
-16.259861 -0.031217305 -1.9964637
-21.195007 -0.036993273 -1.8543255
-28.389015 -0.039640464 -1.4878067
-7.7641115 0.0027088507 -2.0803876
-35.104649 0.018382713 0.61275399
-8.9408188 0.0062401434 -2.0641508
-59.869816 0.052248366 3.1376455
-10.513224 0.0091748862 -2.0435643
-12.78858 0.015621332 -2.0255136
-16.25193 0.025528375 -1.9954888
-21.198992 0.036993824 -1.8546741
-28.361017 0.059398163 -1.4863414
-52.965778 0.12941688 -0.92452377
-7.7640548 0.029812708 -2.0803876
-35.092377 0.14086516 0.6125446
-8.9368448 0.037433308 -2.0632513
-60.907837 0.26576608 3.192075
-10.519017 0.045898821 -2.0447092
-12.786472 0.06025276 -2.0252008
-16.247774 0.082234532 -1.9950013
-21.202719 0.1110184 -1.8550228
-28.340664 0.1582787 -1.4852946
-7.7735624 0.056983307 -2.0829759
-8.9405565 0.068660803 -2.0641508
-60.834641 0.47779495 3.1883068
-10.516829 0.082599126 -2.0443277
-12.788159 0.10490512 -2.0255136
-16.235476 0.13884795 -1.993539
-21.18228 0.18485576 -1.8532797
-28.303991 0.25687966 -1.4834105
-51.763817 0.48787671 -0.9035809
-7.7597938 0.083971642 -2.0793524
-8.9344158 0.099801555 -2.0628011
-60.852566 0.69037282 3.1893535
-10.500772 0.11913135 -2.0412748
-12.791666 0.14958701 -2.0261395
-16.238863 0.19557163 -1.9940264
-21.18549 0.25884387 -1.8536284
-28.330881 0.35603637 -1.4848759
-7.7575221 0.11103044 -2.0788348
-8.9398594 0.13107385 -2.0641508
-60.662067 0.90000033 3.1795144
-10.514034 0.15598932 -2.043946
-12.78119 0.19408771 -2.024575
-16.210295 0.25182343 -1.9906142
-21.164536 0.33247602 -1.8518852
-28.341446 0.45512059 -1.4855039
-50.46352 0.82798624 -0.88096255
-7.755156 0.13807255 -2.0783172
-8.9354506 0.1622085 -2.0632513
-60.622612 1.1110879 3.1776302
-10.515388 0.19272545 -2.0443277
-12.764634 0.23840645 -2.0220721
-16.205345 0.30832741 -1.9901265
-21.135357 0.40581715 -1.8494449
-28.255817 0.55240238 -1.4811077
-7.7662153 0.16539112 -2.081423
-8.9270363 0.19322748 -2.0614514
-10.518576 0.22951578 -2.0450909
-12.755825 0.2827841 -2.0208206
-16.196232 0.36471444 -1.9891516
-21.153732 0.48004851 -1.8511879
-28.257711 0.65112305 -1.481317
-49.485126 1.1489046 -0.86399883
-7.7675219 0.19254735 -2.0819407
-8.9302435 0.22292715 -2.0623512
-10.505937 0.26593331 -2.0428011
-12.766665 0.32538486 -2.0226979
-16.17906 0.41801161 -1.9872018
-21.135992 0.55346417 -1.8497934
-28.239424 0.74440539 -1.4804797
-48.925098 1.3067793 -0.85429525
-7.7629781 0.21819605 -2.0809052
-8.9372025 0.25432014 -2.0641508
-10.493221 0.30043405 -2.0405114
-12.77335 0.37017608 -2.0239494
-16.181471 0.4746013 -1.9876893
-21.12995 0.62712157 -1.8494449
-28.244638 0.84321404 -1.4808984
-48.54847 1.4663244 -0.847803
-7.762126 0.24664561 -2.0809052
-8.9323645 0.28539318 -2.0632513
-10.501861 0.33920619 -2.0424197
-12.764009 0.41673568 -2.0226979
-16.16781 0.53068811 -1.9862267
-21.1117 0.70034713 -1.8480502
-28.22938 0.94632912 -1.4802703
-7.7554255 0.27353489 -2.0793524
-8.9176254 0.31764239 -2.0601017
-10.500612 0.37586522 -2.0424197
-12.738789 0.46042898 -2.0189433
-16.157822 0.58965713 -1.9852518
-21.105145 0.77388602 -1.8477017
-28.221914 1.0447153 -1.4800609
-7.7524934 0.30053195 -2.0788348
-8.8931561 0.34630302 -2.054703
-10.499236 0.41251722 -2.0424197
-12.733243 0.50251448 -2.0183177
-16.147842 0.64291984 -1.9842769
-21.082407 0.84675807 -1.8459586
-28.190353 1.1371709 -1.4785955
-7.7495246 0.32615387 -2.0783172
-8.8821583 0.37693095 -2.0524535
-10.499773 0.44741565 -2.0428011
-12.717597 0.54636556 -2.0161276
-16.125669 0.69842017 -1.9818394
-21.075502 0.91648787 -1.8456099
-28.214149 1.2367853 -1.4800609
-7.7464089 0.3531169 -2.0777996
-8.921669 0.40980908 -2.0619013
-10.480496 0.48324791 -2.0393667
-12.729425 0.59139699 -2.0183177
-16.123133 0.75470537 -1.9818394
-21.052271 0.98911995 -1.8438668
-28.17375 1.3335645 -1.478177
-46.661873 2.2249973 -0.81541139
-7.7412696 0.37996551 -2.0767641
-8.9221306 0.44104764 -2.0623512
-10.494432 0.52060723 -2.0424197
-12.721365 0.63553214 -2.017379
-16.116434 0.81078196 -1.981352
-21.016853 1.0609884 -1.8410778
-28.184881 1.4327132 -1.4790143
-46.066677 2.3578138 -0.80514932
-7.737967 0.40688407 -2.0762465
-8.9127531 0.47177726 -2.0605516
-10.496471 0.55744499 -2.0431828
-12.709207 0.67940718 -2.0158148
-16.101612 0.86639434 -1.9798895
-21.005066 1.1339154 -1.8403807
-28.191675 1.5317389 -1.4796423
-45.46714 2.4862845 -0.79481751
-7.7442155 0.43432322 -2.0783172
-8.8993778 0.50222707 -2.0578523
-10.492503 0.59396797 -2.0428011
-12.702812 0.72354215 -2.0151892
-16.090563 0.9221403 -1.9789146
-21.000978 1.2072304 -1.8403807
-28.186155 1.6301377 -1.4796423
-45.118809 2.6252339 -0.78888369
-7.7465081 0.46158296 -2.0793524
-8.9072962 0.53386968 -2.0601017
-10.480566 0.63000375 -2.0408931
-12.692323 0.76739931 -2.0139375
-16.063469 0.97685575 -1.9759897
-20.980726 1.2795554 -1.838986
-28.327812 1.7375652 -1.487388
-44.88982 2.7691696 -0.78504413
-7.7409945 0.4883793 -2.0783172
-8.9034338 0.56483561 -2.0596519
-10.470466 0.66608566 -2.0393667
-12.693509 0.81195158 -2.0145633
-16.03619 1.0313895 -1.9730648
-20.960228 1.3517641 -1.8375916
-28.198004 1.8284184 -1.4808984
-44.441387 2.8894732 -0.77736515
-7.7296047 0.514754 -2.0757289
-8.9015121 0.59435773 -2.0596519
-10.471995 0.70289111 -2.0401299
-12.686805 0.85377556 -2.0139375
-16.03664 1.0848303 -1.9735522
-20.9196 1.4224882 -1.8344539
-28.13201 1.9178423 -1.4777583
-44.271427 3.0336497 -0.77457273
-7.7259283 0.54024899 -2.0752113
-8.8993826 0.62542635 -2.0596519
-10.459815 0.73692417 -2.0382218
-12.667984 0.89694279 -2.0114346
-16.020876 1.1399572 -1.9720899
-20.910534 1.4952139 -1.8341054
-28.113188 2.0151734 -1.4771302
-44.029202 3.1714921 -0.77052373
-7.7277489 0.56884605 -2.0762465
-8.8835411 0.6554836 -2.0565026
-10.462917 0.77569199 -2.0393667
-12.666581 0.94351119 -2.0117474
-16.000963 1.1946915 -1.97014
-20.909159 1.5684947 -1.8344539
-28.117565 2.1191013 -1.4777583
-43.950066 3.3200431 -0.76933694
-7.7295685 0.59611291 -2.0772817
-8.8830223 0.68818974 -2.0569522
-10.456231 0.81190598 -2.0386035
-12.653363 0.98695242 -2.0101831
-15.96877 1.2511593 -1.9667276
-20.89164 1.6405367 -1.8334082
-28.042297 2.2118976 -1.4741993
-43.738865 3.45768 -0.76584655
-7.717813 0.6223163 -2.0746937
-8.8904037 0.71842831 -2.059202
-10.453333 0.84840041 -2.0386035
-12.661835 1.0298684 -2.0120604
-15.956619 1.303461 -1.9657527
-20.8699 1.7121544 -1.8320136
-28.034809 2.3048782 -1.4741993
-43.579048 3.5981708 -0.76326352
-7.7060809 0.64709806 -2.0721054
-8.8878412 0.74945539 -2.059202
-10.436769 0.88190347 -2.0359321
-12.652258 1.0735565 -2.0111217
-15.940104 1.3581413 -1.9642901
-20.816463 1.7772752 -1.8278301
-27.998734 2.4003365 -1.472734
-43.598103 3.7530031 -0.76382202
-7.715323 0.67500377 -2.0752113
-8.8735228 0.7794522 -2.0565026
-10.441449 0.91901803 -2.0374587
-12.630723 1.1161529 -2.0083058
-15.927358 1.4130695 -1.9633152
-20.865702 1.8548727 -1.832711
-27.954376 2.494854 -1.4708499
-43.528969 3.9001706 -0.76284468
-7.7071471 0.70140421 -2.0736582
-8.866868 0.81006974 -2.0556028
-10.434267 0.95509982 -2.0366955
-12.622816 1.1598744 -2.0076802
-15.914423 1.4679288 -1.9623404
-20.867035 1.9284302 -1.8334082
-27.901745 2.5883663 -1.4685471
-7.708499 0.72866684 -2.0746937
-8.8620462 0.84082997 -2.0551529
-10.425007 0.99095929 -2.0355504
-12.62459 1.2044894 -2.0086186
-15.889441 1.5215836 -1.959903
-20.824478 1.9978338 -1.8302706
-27.876635 2.6842153 -1.4677097
-43.273773 4.1820259 -0.75886554
-7.70014 0.7550047 -2.0731406
-8.8668146 0.87252271 -2.0569522
-10.41367 1.0265733 -2.034024
-12.614411 1.247967 -2.0076802
-15.87218 1.5758625 -1.9584407
-20.813412 2.0701137 -1.8299218
-27.875046 2.7823009 -1.4681284
-42.463017 4.2533441 -0.74490362
-7.6916924 0.78129315 -2.0715878
-8.8675919 0.90386385 -2.0578523
-10.413928 1.0633191 -2.0347872
-12.594258 1.2903817 -2.0051773
-15.858683 1.6304415 -1.9574655
-20.786242 2.140713 -1.8281789
-27.853243 2.8783481 -1.4675003
-42.249004 4.380918 -0.74141312
-7.6946816 0.80874336 -2.0731406
-8.860507 0.93440145 -2.0569522
-10.414058 1.1000743 -2.0355504
-12.579855 1.3332983 -2.0036128
-15.852895 1.6857892 -1.9574655
-20.742977 2.2094643 -1.8250412
-27.827141 2.9738595 -1.466663
-41.493809 4.4490528 -0.72842854
-7.6918111 0.83559811 -2.0731406
-8.8455667 0.96406013 -2.0542529
-10.410154 1.1364198 -2.0355504
-12.581016 1.3778446 -2.0045516
-15.835075 1.7398156 -1.9560032
-20.743061 2.2827249 -1.8257385
-27.784824 3.067477 -1.4649882
-41.605228 4.6079555 -0.73066247
-7.6926875 0.86287153 -2.0741758
-8.8460217 0.99536723 -2.0551529
-10.392467 1.1712097 -2.0328791
-12.578092 1.4219743 -2.0048645
-15.817384 1.7909775 -1.9545406
-20.723089 2.3537691 -1.8246926
-27.750135 3.1617262 -1.4637321
-42.293045 4.8261576 -0.74301875
-7.6859455 0.88793355 -2.0731406
-8.8446083 1.0249208 -2.0556028
-10.378776 1.2045372 -2.0309711
-12.571345 1.4634491 -2.0045516
-15.801497 1.8422711 -1.9533219
-20.67955 2.4183118 -1.821555
-27.687923 3.2476833 -1.4610107
-7.6656942 0.9113639 -2.0684819
-8.8450298 1.0547067 -2.0565026
-10.370826 1.2384827 -2.0302079
-12.5625 1.5046597 -2.0039258
-15.78906 1.8967041 -1.9525908
-20.64329 2.4871461 -1.8191147
-27.696829 3.3418689 -1.4620574
-7.6680546 0.94015932 -2.0700347
-8.8393602 1.085338 -2.0560527
-10.374012 1.2774428 -2.0317342
-12.547098 1.5494801 -2.0023613
-15.770521 1.9503489 -1.9511282
-20.634481 2.5591853 -1.8191147
-27.628899 3.4364648 -1.4591266
-7.6723928 0.96788931 -2.0721054
-8.82759 1.1167483 -2.0542529
-10.365592 1.3131562 -2.0309711
-12.541613 1.5932686 -2.0023613
-15.755391 2.0071309 -1.9501534
-20.597755 2.6276686 -1.8166744
-27.596926 3.5303469 -1.4580798
-7.661304 0.99366957 -2.0700347
-8.823638 1.1475537 -2.0542529
-10.364841 1.349836 -2.0317342
-12.541851 1.6378081 -2.0033
-15.716797 2.0579917 -1.9462537
-20.576603 2.6980031 -1.8156284
-27.592356 3.6276989 -1.4584986
-7.6558743 1.0201515 -2.0695171
-8.8079901 1.176801 -2.0515537
-10.352282 1.3849667 -2.0302079
-12.526269 1.6802615 -2.0017357
-15.721321 2.1144292 -1.947716
-20.543365 2.7666171 -1.8135366
-27.571606 3.72293 -1.4580798
-7.6426964 1.0455602 -2.0669291
-8.8117619 1.2070611 -2.0533531
-10.343494 1.4205606 -2.0294447
-12.53237 1.723406 -2.0036128
-15.692592 2.1635697 -1.9450349
-20.509899 2.8350368 -1.8114449
-27.567022 3.8154302 -1.4584986
-7.6468396 1.0719717 -2.0689995
-8.8055639 1.2375413 -2.0529034
-10.338726 1.4548533 -2.0294447
-12.514542 1.7654864 -2.0017357
-15.684943 2.2183342 -1.9450349
-20.484604 2.9008005 -1.8100505
-27.478395 3.9009674 -1.4545211
-7.6430516 1.0986559 -2.0689995
-8.7934752 1.2671593 -2.0511036
-10.333585 1.4909313 -2.0294447
-12.496572 1.8074633 -1.9998584
-15.663353 2.2710779 -1.9433287
-20.482241 2.9734333 -1.8107476
-27.456701 3.9957106 -1.4541023
-7.6391697 1.1253287 -2.0689995
-8.7947826 1.298699 -2.0524535
-10.324433 1.5264192 -2.0286815
-12.501912 1.8528082 -2.0017357
-15.63962 2.3234062 -1.9413787
-20.459913 3.0431485 -1.8097019
-27.458391 4.0938854 -1.4549397
-7.633285 1.1517015 -2.0684819
-8.7901955 1.3293909 -2.0524535
-10.319042 1.5624516 -2.0286815
-12.487556 1.8952516 -2.0004842
-15.623567 2.3767869 -1.9404038
-20.421587 3.1103485 -1.8072613
-27.432089 4.1878939 -1.4543117
-7.6234903 1.1774532 -2.0669291
-8.7855015 1.3600686 -2.0524535
-10.307705 1.597558 -2.0275364
-12.488672 1.9400461 -2.0017357
-15.619097 2.4319201 -1.9408913
-20.378553 3.1802614 -1.8044724
-27.381783 4.2780752 -1.4524276
-7.6191239 1.205387 -2.0669291
-8.7768517 1.3901159 -2.0515537
-10.297903 1.6347114 -2.0267732
-12.471724 1.9842515 -2.0001712
-15.604631 2.4854934 -1.9401602
-20.359459 3.2501209 -1.8037752
-27.314642 4.3702025 -1.4497061
-7.6167765 1.2322839 -2.0674467
-8.7640028 1.4210279 -2.0497539
-10.305698 1.6728501 -2.0294447
-12.451072 2.0255539 -1.9979812
-15.588024 2.5386691 -1.9391851
-20.351921 3.3218112 -1.8041239
-27.307106 4.4668121 -1.4501249
-7.6107426 1.2572191 -2.0669291
-8.7592421 1.4500829 -2.0497539
-10.300096 1.7070138 -2.0294447
-12.457928 2.069098 -2.0001712
-15.552104 2.5857894 -1.9357728
-20.329004 3.3873186 -1.8030781
-27.256683 4.5514212 -1.4482408
-7.6008172 1.2814871 -2.065376
-8.7543859 1.4791219 -2.0497539
-10.27502 1.7378869 -2.0256283
-12.456841 2.1113894 -2.0011098
-15.537113 2.6390638 -1.9350417
-20.290161 3.4500384 -1.8006377
-27.22175 4.6384282 -1.447194
-7.5886827 1.3067 -2.0633056
-8.7568512 1.5109951 -2.0515537
-10.280498 1.7757506 -2.0279181
-12.437716 2.1528349 -1.9992328
-15.531717 2.6939611 -1.9355291
-20.262291 3.5181122 -1.7992431
-27.158171 4.7252064 -1.4446819
-7.5764627 1.3318455 -2.061235
-8.7476835 1.5408769 -2.0506537
-10.266188 1.8120514 -2.0263917
-12.430126 2.196238 -1.9992328
-15.530038 2.7495415 -1.936504
-20.210024 3.585398 -1.7957568
-27.136736 4.8240156 -1.4444724
-7.5753345 1.3602871 -2.0622702
-8.7323885 1.5712032 -2.0484045
-10.263341 1.8503659 -2.0271549
-12.416161 2.2407296 -1.998294
-15.496414 2.8022087 -1.9335792
-20.208511 3.6615746 -1.7968028
-27.099222 4.9198771 -1.4434259
-7.5740986 1.3887398 -2.0633056
-8.7246542 1.6028465 -2.0479543
-10.250697 1.886902 -2.02601
-12.41175 2.2869413 -1.9989198
-15.497754 2.8611462 -1.9350417
-20.171444 3.7312741 -1.794711
-27.061367 5.0155282 -1.4423791
-7.5689573 1.416491 -2.0633056
-8.7263832 1.63625 -2.0497539
-10.230206 1.9219253 -2.0233386
-12.399402 2.3316844 -1.998294
-15.498867 2.9201381 -1.936504
-20.14197 3.8022246 -1.7933165
-26.99963 5.1065078 -1.4400762
-7.5566268 1.4401364 -2.061235
-8.7209091 1.6651791 -2.0497539
-10.229903 1.9551587 -2.0244837
-12.389661 2.3724182 -1.9979812
-15.496896 2.9730146 -1.937479
-20.106445 3.860971 -1.7912247
-27.018757 5.1981039 -1.4419605
-7.5534515 1.466872 -2.0617526
-8.7057724 1.6922305 -2.0475044
-10.217236 1.9897277 -2.0233386
-12.372032 2.411602 -1.9964169
-15.479158 3.0228667 -1.936504
-20.081114 3.9288373 -1.7901789
-26.938648 5.2753911 -1.4386109
-7.5466499 1.4915377 -2.061235
-8.6902552 1.7207166 -2.0452549
-10.214434 2.0243623 -2.024102
-12.349975 2.452081 -1.9942267
-15.417892 3.0668082 -1.9301667
-20.044525 3.9907393 -1.7880871
-26.927908 5.3709497 -1.4390297
-7.5432916 1.5182528 -2.0617526
-8.6902332 1.7506801 -2.0466046
-10.197681 2.058063 -2.0221939
-12.343712 2.493413 -1.9945397
-15.411529 3.1187072 -1.9306543
-20.007042 4.055934 -1.7859954
-26.945181 5.4673662 -1.4409137
-7.5287519 1.5413218 -2.0591643
-8.6840687 1.7810042 -2.0466046
-10.192724 2.0922637 -2.0225754
-12.342672 2.5380771 -1.9957911
-15.388883 3.1700819 -1.9291918
-19.985676 4.1206489 -1.7852982
-26.875076 5.5508862 -1.4381922
-7.5157609 1.5660167 -2.0570939
-8.6739836 1.8105083 -2.0457051
-10.173827 2.1254239 -2.0202856
-12.326005 2.5795248 -1.9945397
-15.373837 3.2229657 -1.9287045
-19.955572 4.1871095 -1.7839037
-26.914173 5.6569891 -1.4413323
-7.5121384 1.5926446 -2.0576115
-8.6695185 1.8411803 -2.0461547
-10.174028 2.1625576 -2.0218122
-12.31113 2.6213009 -1.9936011
-15.354729 3.274951 -1.9277295
-19.932299 4.2585621 -1.7832065
-26.74192 5.7183208 -1.4331679
-7.5100279 1.6209809 -2.0586467
-8.6439886 1.8673185 -2.0416558
-10.166035 2.1998305 -2.0218122
-12.287925 2.6634769 -1.991411
-15.339324 3.327688 -1.927242
-19.901735 4.3247242 -1.781812
-27.036934 5.8851204 -1.4501249
-7.5080972 1.6480144 -2.0596819
-8.6370869 1.898986 -2.0416558
-10.154459 2.2344596 -2.021049
-12.276624 2.7059286 -1.9910982
-15.305701 3.3791795 -1.9245608
-19.886518 4.3941684 -1.781812
-26.673016 5.9034929 -1.4317025
-7.4947572 1.6725297 -2.0576115
-8.6402512 1.9297413 -2.0439053
-10.127438 2.2656057 -2.0172329
-12.275293 2.7483513 -1.9923496
-15.298285 3.4307857 -1.9250482
-19.836067 4.4556994 -1.7786744
-26.559759 5.9708853 -1.4266783
-7.4872861 1.6969455 -2.0570939
-8.6296625 1.9590273 -2.0430055
-10.127527 2.3009174 -2.0187593
-12.263699 2.7907455 -1.9920367
-15.272668 3.4810784 -1.9233421
-19.7932 4.5187054 -1.776234
-26.351833 6.0208526 -1.4166298
-7.475368 1.7230766 -2.055541
-8.6208735 1.9886987 -2.0425556
-10.130503 2.3406732 -2.021049
-12.255313 2.8361211 -1.9923496
-15.25849 3.5339212 -1.9230984
-19.750134 4.5814662 -1.7737937
-26.446316 6.1445241 -1.4229101
-7.4749513 1.7504798 -2.0570939
-8.6040392 2.0180595 -2.0403061
-10.118448 2.3751214 -2.0202856
-12.256874 2.8815956 -1.9942267
-15.224806 3.5821574 -1.9204172
-19.741779 4.6522079 -1.7744908
-26.199219 6.1835756 -1.4107682
-7.467226 1.7748117 -2.0565763
-8.5916128 2.0452268 -2.0389564
-10.102878 2.4068429 -2.0187593
-12.241488 2.92085 -1.9932882
-15.208982 3.6317036 -1.9199297
-19.710741 4.7139416 -1.7730964
-26.17857 6.2704225 -1.4107682
-7.4519086 1.7972995 -2.053988
-8.5942545 2.0759945 -2.0412059
-10.087207 2.4384871 -2.0172329
-12.237494 2.9628232 -1.9942267
-15.188496 3.6828997 -1.9189547
-19.660147 4.770822 -1.7699587
-26.351711 6.4043617 -1.4212354
-7.4399605 1.8219223 -2.0524352
-8.586956 2.1059797 -2.0412059
-10.078633 2.4736834 -2.0172329
-12.21365 3.0022185 -1.9920367
-15.163981 3.7330523 -1.9174925
-19.612423 4.8317904 -1.7671698
-26.364098 6.5049262 -1.4231194
-7.4429293 1.850212 -2.0550234
-8.5757704 2.1349995 -2.0403061
-10.069938 2.5088496 -2.0172329
-12.187763 3.0410087 -1.9895338
-15.137378 3.7825897 -1.9157863
-19.575253 4.898809 -1.7654266
-26.139736 6.546453 -1.4122336
-7.4323516 1.8765335 -2.053988
-8.5550404 2.1615803 -2.0371568
-10.060674 2.5457411 -2.0172329
-12.195683 3.0905111 -1.9926625
-15.110612 3.8319905 -1.91408
-19.558033 4.9671102 -1.7654266
-26.100082 6.6382718 -1.4113961
-7.4332418 1.9043839 -2.0560586
-8.5432844 2.1919529 -2.0362568
-10.051726 2.5808442 -2.0172329
-12.184821 3.1330636 -1.9926625
-15.07724 3.8824017 -1.9116427
-19.53286 5.0333576 -1.7647295
-26.142504 6.7463126 -1.414955
-7.4134612 1.9269158 -2.0524352
-50.56974 13.144148 0.9120279
-8.5472851 2.2232151 -2.0389564
-10.038857 2.6149237 -2.0164697
-12.185834 3.1764426 -1.9945397
-15.05276 3.9293633 -1.9101802
-19.480474 5.0924397 -1.7615919
-25.944159 6.7869644 -1.40543
-7.3995585 1.9495207 -2.0503645
-8.5413561 2.2535346 -2.0394061
-10.04152 2.651207 -2.0187593
-12.140296 3.2098713 -1.9889081
-15.031277 3.9798553 -1.9092052
-19.444221 5.1519089 -1.7598487
-26.030342 6.9066815 -1.4113961
-7.3945742 1.9758369 -2.0508821
-8.5259085 2.2813191 -2.0376067
-10.035997 2.687258 -2.0195224
-12.123294 3.2506921 -1.9879694
-15.017292 4.0323 -1.9092052
-19.410725 5.2156148 -1.7584542
-26.044649 7.0078821 -1.4134897
-42.36441 11.414929 -0.76584655
-7.3857679 2.001132 -2.0503645
-8.5009661 2.3064737 -2.0335574
-10.022766 2.7212477 -2.0187593
-12.106154 3.291436 -1.9870309
-14.97631 4.0773954 -1.905793
-19.380869 5.2801933 -1.7574084
-26.020029 7.098753 -1.4134897
-7.3899145 2.0299714 -2.0534704
-8.4984999 2.3376844 -2.0349073
-10.016992 2.7572594 -2.0195224
-12.086974 3.3315752 -1.9857793
-14.965815 4.1307011 -1.9062805
-19.37384 5.3509998 -1.7584542
-25.971991 7.1831417 -1.4122336
-7.3753395 2.0536821 -2.0513999
-8.4884109 2.3668146 -2.0344574
-9.9827232 2.7853472 -2.0145614
-12.08288 3.3758757 -1.9870309
-14.945569 4.1813121 -1.9055492
-19.320507 5.408927 -1.7553166
-25.504444 7.1497622 -1.388159
-7.3606892 2.0773156 -2.0493293
-8.4951 2.4006679 -2.0380566
-9.9993877 2.8276556 -2.0199041
-12.055819 3.4137244 -1.9845279
-14.917513 4.22967 -1.903843
-19.290009 5.4730678 -1.7542707
-25.744455 7.3140755 -1.4026037
-7.3422484 2.0998075 -2.0462234
-8.4773016 2.4276245 -2.0358069
-9.9724703 2.857676 -2.0164697
-12.026739 3.4508829 -1.981712
-14.893119 4.2789721 -1.9026244
-19.270786 5.5403695 -1.7542707
-24.701536 7.1110511 -1.3471277
-7.3311629 2.1243489 -2.0451882
-8.4594183 2.4544859 -2.0335574
-9.9643202 2.8930166 -2.0168512
