# .PCD v0.7 - Point Cloud Data file format
VERSION 0.7
FIELDS x y z
SIZE 4 4 4
TYPE F F F
COUNT 1 1 1
WIDTH 1519
HEIGHT 1
VIEWPOINT 0 0 0 1 0 0 0
POINTS 1519
DATA ascii
9.9784279 4.2829475 -2.1107292
12.258274 5.2564387 -2.1124914
15.630422 6.6959825 -2.0878656
24.242393 10.38028 -2.3071868
32.634724 13.96031 -1.8602295
7.2610364 3.0911038 -2.1145515
8.3944025 3.5701346 -2.1059918
9.9860916 4.2450156 -2.1092029
12.282001 5.2159357 -2.1134298
16.11421 6.8367653 -2.1492879
24.245459 10.281599 -2.3040493
32.646477 13.830734 -1.8581359
7.2575407 3.0597367 -2.1104105
8.4211817 3.5468597 -2.109591
10.011704 4.214704 -2.1114926
12.285567 5.1669025 -2.1109269
16.020849 6.7312579 -2.1336887
24.270176 10.19228 -2.3030033
32.782959 13.753772 -1.8631603
7.2663937 3.0336418 -2.1098928
8.4209204 3.5121934 -2.1064417
10.029981 4.1812396 -2.1122558
12.296233 5.1209512 -2.1096754
16.110229 6.7027407 -2.1424632
24.272488 10.093734 -2.2998657
32.68322 13.577946 -1.8547865
7.2858653 3.011951 -2.1124811
8.4277267 3.4805439 -2.105092
10.0427 4.1454563 -2.1118741
12.30673 5.0749822 -2.1084239
16.089478 6.6283207 -2.1366136
24.285471 9.999836 -2.2977738
33.073971 13.605107 -1.8742554
7.2909703 2.9843025 -2.1109281
8.4524508 3.4562693 -2.1082413
10.051656 4.1081486 -2.1107292
12.315225 5.0282617 -2.1068597
16.086786 6.5616174 -2.1332014
24.279644 9.8984489 -2.2939391
33.354328 13.584489 -1.8874441
7.2888117 2.9537532 -2.1073048
8.4512205 3.4231017 -2.105092
10.055016 4.0686159 -2.1084394
12.339156 4.9903607 -2.1081111
16.145267 6.5231118 -2.1380758
24.273397 9.7972364 -2.2901042
32.795372 13.230222 -1.8533211
7.3039465 2.9317236 -2.1088579
8.4631195 3.3935781 -2.105092
10.068454 4.0352468 -2.1084394
12.343665 4.9421158 -2.105921
16.175308 6.4696655 -2.1390507
24.290953 9.7107773 -2.2887099
33.008286 13.182338 -1.8627416
7.3087468 2.9040749 -2.1073048
8.4731035 3.3632946 -2.1046422
10.097075 4.0058761 -2.1114926
12.357168 4.8975387 -2.1052952
16.171955 6.4029298 -2.1356385
24.283945 9.6097918 -2.2848749
7.3332224 2.8841996 -2.1114457
8.4757223 3.3301361 -2.1023927
10.107343 3.9691679 -2.1107292
12.37235 4.8536558 -2.1049824
16.159092 6.3326731 -2.1310074
24.321049 9.5264244 -2.2852235
7.3342443 2.855082 -2.1088579
8.4872961 3.3005276 -2.1023927
10.121135 3.9338648 -2.1107292
12.392901 4.8118658 -2.1056082
16.151482 6.2647548 -2.1271076
24.268705 9.4083366 -2.2772052
33.908127 13.131691 -1.9056571
7.3459692 2.8301561 -2.1093752
8.5078564 3.2743871 -2.1046422
10.120148 3.8928699 -2.1076763
12.416996 4.7714138 -2.1068597
16.184374 6.2126012 -2.1285703
24.282795 9.316433 -2.2754622
34.01717 13.037543 -1.9092159
7.3467784 2.8010533 -2.1067872
8.515027 3.2447658 -2.1037421
10.141015 3.8603117 -2.1092029
12.427212 4.7281065 -2.105921
16.247568 6.1751142 -2.1341763
24.263012 9.2118187 -2.2705815
34.273094 13.005435 -1.9211484
7.3668704 2.7807698 -2.1098928
8.5263023 3.2150207 -2.1037421
10.151923 3.8259714 -2.1088212
12.427002 4.678431 -2.1031051
16.304325 6.1316414 -2.1388073
24.263586 9.1200848 -2.2677922
33.237537 12.479933 -1.8606482
7.3530045 2.7462523 -2.1031637
8.5283422 3.1818342 -2.1014926
10.172573 3.793257 -2.1103475
12.450663 4.6377792 -2.1043568
16.368418 6.0906172 -2.1444132
24.254192 9.0200481 -2.2639575
34.217014 12.711612 -1.912984
7.3879161 2.7299414 -2.1104105
8.5485392 3.1554174 -2.1037421
10.178386 3.7550044 -2.1088212
12.470482 4.5956583 -2.1049824
16.367222 6.0252175 -2.1414883
24.263092 8.9270802 -2.2618659
34.309921 12.609998 -1.9157054
7.3756266 2.6961782 -2.1041989
8.5540094 3.1235549 -2.1023927
10.191431 3.7194545 -2.1088212
12.493871 4.55481 -2.1062338
16.406809 5.9748378 -2.1439257
24.226704 8.8178053 -2.2555907
34.342468 12.486073 -1.9150776
7.3740935 2.6664727 -2.1010931
8.5703583 3.0956645 -2.1037421
10.206199 3.684521 -2.1092029
12.51341 4.5125127 -2.1068597
16.40889 5.9107985 -2.1414883
24.242336 8.7277899 -2.2541959
7.3942695 2.6446209 -2.1041989
8.5750732 3.0652571 -2.1023927
10.21345 3.6468937 -2.108058
12.513423 4.4656773 -2.1043568
16.402225 5.8470163 -2.1380758
24.22761 8.6270685 -2.2500126
7.3975353 2.618154 -2.1026461
8.5746965 3.0314062 -2.0996931
10.240296 3.6182389 -2.1111107
12.536387 4.4245968 -2.1056082
16.403811 5.7831368 -2.1356385
24.241053 8.5413761 -2.2486181
7.4248638 2.5986958 -2.1078224
8.5944233 3.004678 -2.1019428
10.241745 3.5785837 -2.1088212
12.54802 4.3795161 -2.1049824
16.423899 5.7258372 -2.1356385
24.214273 8.4370575 -2.2433889
39.845753 13.867969 -2.2110896
7.4156346 2.5664423 -2.1026461
8.6048594 2.9746575 -2.1019428
10.248608 3.5408852 -2.1076763
12.574437 4.3395519 -2.1068597
16.42877 5.6633 -2.1336887
24.194601 8.3356018 -2.2388568
7.4428239 2.5468006 -2.1078224
8.6146774 2.9461038 -2.1019428
10.259045 3.5044618 -2.1072946
12.581284 4.2952733 -2.1056082
16.454973 5.6113558 -2.1346636
24.174519 8.2343874 -2.2343247
7.4292717 2.5146711 -2.1016109
8.6193705 2.9141402 -2.1005929
10.270611 3.4704194 -2.1072946
12.586843 4.2481689 -2.1040437
16.48575 5.5576835 -2.136126
24.148827 8.1363573 -2.229444
7.4398365 2.4893336 -2.1021285
8.6220961 2.8815706 -2.0987935
10.282663 3.4345446 -2.1072946
12.607212 4.2060905 -2.1049824
16.486217 5.4938235 -2.1336887
24.15061 8.0432148 -2.2270036
7.450314 2.4639566 -2.1026461
8.6302509 2.8508425 -2.0983434
10.287131 3.3961704 -2.1057682
12.614315 4.1595798 -2.1037309
16.501522 5.4350038 -2.1332014
24.117981 7.9389234 -2.2214255
33.711941 11.083931 -1.8598108
7.4662132 2.4403372 -2.1047165
8.6401491 2.8207016 -2.0983434
10.287724 3.3565893 -2.1034784
33.613102 10.960484 3.0931573
12.647538 4.121645 -2.1068597
16.520395 5.3773656 -2.1332014
24.111441 7.8435993 -2.2182879
7.4673343 2.4118838 -2.1026461
8.6555071 2.7923174 -2.0996931
10.303116 3.3218606 -2.1042418
12.654329 4.075047 -2.1056082
16.539064 5.3196692 -2.1332014
24.104532 7.748404 -2.2151504
7.4812279 2.3875666 -2.1041989
8.6633463 2.761493 -2.0992434
10.322131 3.2882614 -2.1057682
12.660948 4.028451 -2.1043568
16.561317 5.2631025 -2.1336887
24.112446 7.6581798 -2.2134073
33.331184 10.573272 -1.8325961
33.461319 10.601716 -0.61268419
7.4913592 2.3620164 -2.1047165
8.6654968 2.7288959 -2.0974436
10.329801 3.2510288 -2.105005
12.663626 3.98068 -2.1024795
16.555952 5.2010183 -2.1307638
24.104809 7.5632334 -2.2102695
33.469578 10.482319 -0.61219555
7.5120635 2.3411832 -2.1083403
8.6744986 2.7001467 -2.0974436
10.333027 3.2144206 -2.1034784
12.678641 3.9392526 -2.1027923
16.588276 5.1507926 -2.1327136
24.11834 7.4797215 -2.2092237
33.336048 10.319242 -0.60912389
7.5031681 2.3111424 -2.1036813
8.6889935 2.6730828 -2.0987935
10.343629 3.1801393 -2.1034784
33.673752 10.346549 3.0820014
12.708632 3.9024026 -2.1056082
32.832874 10.075624 4.2169232
16.602354 5.0917044 -2.1322262
24.139202 7.3985267 -2.2088752
33.421589 10.218007 -0.61003143
7.4871621 2.2776301 -2.096952
8.7001371 2.6433005 -2.0992434
10.347152 3.1417346 -2.1019521
33.667717 10.216206 3.0781665
12.707053 3.8534274 -2.1031051
32.989429 9.9978113 4.232523
16.623829 5.0348673 -2.1327136
24.16107 7.3130593 -2.2085266
33.663212 10.176354 -1.8430634
33.709743 10.177581 -0.61463886
7.5135703 2.2570372 -2.1021285
8.7074423 2.6123614 -2.0987935
10.365579 3.1078496 -2.1034784
33.592484 10.065445 3.0680566
12.712854 3.8067901 -2.1018538
16.622286 4.9711165 -2.1302764
24.209351 7.2355399 -2.2106183
33.637287 10.040496 -1.8397137
33.599422 10.016423 -0.6119861
7.525105 2.2318997 -2.1031637
33.668797 9.9795485 0.61296344
8.6996918 2.5769672 -2.0947442
33.60635 9.9482956 1.8367828
10.376362 3.0716553 -2.1034784
33.615948 9.9447403 3.0670106
12.722279 3.7612677 -2.101228
33.637157 9.9382629 4.3066192
16.635727 4.9119425 -2.1297889
33.673023 9.9360657 5.5606203
24.261215 7.1588774 -2.2130587
33.790909 9.9580307 -1.8462033
33.718594 9.923913 -0.61352193
7.5361733 2.2080176 -2.1041989
8.7100601 2.5486486 -2.0951941
10.386492 3.0372262 -2.1034784
33.706108 9.8499823 3.0722396
12.734682 3.7190549 -2.101228
33.643253 9.8188696 4.3032069
16.636677 4.8523064 -2.1278389
33.705788 9.824337 5.5606203
24.189184 7.0505018 -2.2043431
33.683479 9.8114748 6.8195138
7.5289893 2.1774025 -2.1000578
8.7263918 2.5203984 -2.0969937
10.381941 2.9965937 -2.1004255
38.139446 11.001178 3.4728076
12.755177 3.6767709 -2.1024795
16.653515 4.7941999 -2.1278389
24.19833 6.9616208 -2.2029486
7.534687 2.1505759 -2.0995402
47.396137 13.519047 0.86029893
8.738884 2.490988 -2.0978935
10.400407 2.9606745 -2.1019521
38.154621 10.861442 3.470716
12.760334 3.6300654 -2.101228
16.670149 4.736042 -2.1278389
24.246685 6.8794022 -2.2050402
7.5369387 2.1213765 -2.0979872
47.474243 13.353373 0.8608225
8.7423286 2.4573576 -2.0965438
10.414969 2.9235935 -2.1027153
38.163483 10.712898 3.4679267
12.764044 3.580601 -2.0996637
16.683573 4.6738358 -2.1273515
24.264061 6.7883463 -2.2043431
7.5558319 2.0968394 -2.1010931
47.501671 13.173389 0.86043853
8.7418861 2.4226983 -2.0942943
10.428894 2.8882711 -2.1034784
12.780889 3.5348504 -2.1002893
16.708242 4.6147733 -2.1283264
24.279926 6.7014799 -2.2036457
7.5593796 2.0694296 -2.1000578
8.755929 2.3937082 -2.095644
10.42755 2.8487427 -2.1011887
12.795056 3.4907317 -2.1006021
16.701265 4.5501647 -2.1254015
24.322395 6.6219254 -2.2053888
7.5572309 2.0405135 -2.0974696
8.7717571 2.3651609 -2.0974436
10.422266 2.8082423 -2.0981357
12.791902 3.4419439 -2.0980992
16.723932 4.4968133 -2.1263764
24.32612 6.5318112 -2.2036457
7.5602226 2.0144484 -2.0964344
8.7757874 2.3350554 -2.0965438
10.442904 2.7766943 -2.1004255
12.807065 3.4005158 -2.0987251
16.731075 4.4392972 -2.1254015
24.359201 6.454174 -2.2046916
7.5612569 1.9878912 -2.0948815
8.7702866 2.3024828 -2.0933945
10.452055 2.7420464 -2.1004255
12.81636 3.3575292 -2.098412
16.757996 4.3838778 -2.126864
24.357342 6.3673062 -2.2026
7.5756302 1.9634218 -2.096952
8.7726097 2.2703876 -2.0920448
10.457763 2.7045593 -2.0996623
12.829914 3.3132682 -2.0987251
16.765505 4.3233752 -2.1258888
24.379414 6.2822614 -2.2026
7.5899234 1.9388839 -2.0990226
8.7861481 2.2411945 -2.0933945
10.465236 2.6675608 -2.0992808
12.843316 3.2689469 -2.0990379
16.757408 4.2589545 -2.1229641
24.42437 6.2030015 -2.2046916
7.5947723 1.9119048 -2.098505
8.8010912 2.2139454 -2.0951941
10.47258 2.6305332 -2.0988991
33.982094 8.5293989 3.0652673
12.854086 3.2263355 -2.0990379
16.790693 4.2081909 -2.1254015
24.457468 6.1206145 -2.2057374
7.5804472 1.8815877 -2.0928109
8.8049812 2.1822786 -2.0942943
10.473624 2.5938995 -2.0973725
33.882538 8.3850803 3.0537629
12.857597 3.1795588 -2.0977864
16.81299 4.1514535 -2.1263764
24.459343 6.0304289 -2.2039945
7.607935 1.8588367 -2.098505
8.8049726 2.1496789 -2.0924947
10.49069 2.5573566 -2.0988991
33.986607 8.2787647 3.0603867
12.859571 3.1300666 -2.0962222
16.819664 4.090867 -2.1254015
34.115303 8.2911949 5.5606203
24.503477 5.9506483 -2.2060859
7.5993514 1.8286508 -2.0943637
8.8146887 2.1178503 -2.0929446
10.507188 2.5225518 -2.1004255
12.883862 3.0883913 -2.098412
16.830683 4.0282722 -2.1249142
24.508595 5.8613887 -2.2046916
7.609448 1.8030056 -2.0953991
8.8159733 2.0872586 -2.0915949
10.515929 2.4858618 -2.1004255
12.903646 3.0479169 -2.0999765
16.851677 3.9742548 -2.1258888
24.528906 5.7757955 -2.2046916
7.6003337 1.7742497 -2.0912578
8.8289003 2.0577972 -2.0929446
10.512642 2.4483063 -2.0981357
12.918056 3.0037477 -2.1006021
16.861582 3.9145052 -2.1254015
24.540163 5.6926155 -2.2039945
7.602716 1.7468418 -2.0902226
8.843627 2.0287106 -2.0947442
10.519211 2.411154 -2.0977542
12.92461 2.9577582 -2.0999765
16.882883 3.8573956 -2.1263764
24.552114 5.6051507 -2.2032971
7.608767 1.7202942 -2.0902226
8.8411493 1.9956803 -2.0924947
10.540969 2.3774462 -2.1004255
12.923294 2.9100177 -2.0980992
16.911737 3.8019266 -2.1283264
24.571529 5.5194073 -2.2032971
7.6222692 1.6954 -2.0922933
8.8286963 1.9621252 -2.0879958
10.530039 2.3363817 -2.0966094
12.934801 2.8675766 -2.098412
16.893242 3.7389562 -2.1244266
24.586752 5.4327602 -2.2029486
7.6278491 1.6701158 -2.0922933
8.8450098 1.9333779 -2.0902452
10.55499 2.305222 -2.100044
12.942801 2.8219903 -2.0980992
16.913952 3.6816494 -2.1254015
24.627996 5.3562717 -2.2050402
7.6279669 1.6422576 -2.0907402
8.8345575 1.8988035 -2.0861959
10.549537 2.265476 -2.0973725
12.956438 2.7776189 -2.0987251
16.926697 3.6225979 -2.1254015
24.619268 5.2644324 -2.2026
7.6260934 1.6140227 -2.0886698
8.8487597 1.8695625 -2.0879958
10.545854 2.2262068 -2.0950828
12.958323 2.7307429 -2.0974736
16.950897 3.5659382 -2.126864
24.653095 5.181735 -2.2039945
7.639246 1.5889643 -2.0907402
8.8437815 1.836292 -2.0852964
10.553561 2.1893783 -2.0950828
12.96584 2.6851017 -2.0971608
16.9438 3.5027235 -2.1244266
24.682735 5.098083 -2.2050402
7.6296034 1.5591996 -2.0865991
8.8501387 1.805408 -2.0852964
10.570757 2.154494 -2.0969911
12.973199 2.6394286 -2.0968478
16.955923 3.4435608 -2.1244266
24.696478 5.0110941 -2.2046916
7.6577291 1.5371182 -2.0928109
8.8582973 1.7748891 -2.085746
10.549337 2.1117988 -2.0912669
12.988144 2.5952916 -2.0977864
16.967842 3.3843482 -2.1244266
24.713818 4.9248619 -2.2046916
8.8816481 1.7473404 -2.0897954
10.562425 2.0760951 -2.0924115
13.006817 2.551837 -2.0993509
16.967281 3.3257744 -2.1229641
24.719128 4.8362627 -2.2036457
7.6319785 1.4779794 -2.0829759
8.8739996 1.7152908 -2.0866458
10.575034 2.042171 -2.0935564
12.99969 2.5057023 -2.0968478
16.978218 3.2694857 -2.1229641
24.738943 4.7550216 -2.2039945
7.6444292 1.4541082 -2.0850463
10.577888 2.0063672 -2.0927932
13.004046 2.4618413 -2.0962222
16.989527 3.2102044 -2.1229641
24.746742 4.671473 -2.2032971
67.268532 12.649736 -1.1947567
7.6532564 1.4281219 -2.0860815
8.8720579 1.6523499 -2.0834966
10.604131 1.9730197 -2.0966094
13.000906 2.4142725 -2.0943449
17.012339 3.1530545 -2.1244266
24.774654 4.587244 -2.2043431
7.6657972 1.4027874 -2.0881522
8.9007769 1.6255696 -2.0888956
10.595502 1.9331703 -2.0935564
13.018972 2.3706422 -2.0959091
17.015432 3.0922356 -2.1234517
24.786596 4.5000181 -2.2039945
7.6573358 1.3736341 -2.0845287
8.8776236 1.5893409 -2.0821469
10.573196 1.8909911 -2.0878322
13.027168 2.325186 -2.0959091
17.006578 3.0293357 -2.1210144
24.806074 4.4141726 -2.2043431
7.6582785 1.3462256 -2.0834932
8.8927155 1.5600281 -2.0843966
10.577799 1.8537303 -2.0874505
34.609425 6.0589819 3.073983
13.041042 2.2807221 -2.0968478
17.022915 2.9709725 -2.1217456
24.829182 4.3289299 -2.2050402
7.6686425 1.3204738 -2.0850463
8.8942642 1.5283146 -2.0834966
10.601619 1.8197924 -2.0908849
34.492905 5.9145727 3.0617812
13.052819 2.2358499 -2.0974736
17.054705 2.915216 -2.1244266
24.84807 4.242898 -2.2053888
7.6846356 1.2956223 -2.0881522
71.878609 12.10573 1.2723153
8.8957014 1.4966139 -2.0825968
10.605971 1.7824464 -2.0905035
34.56443 5.802701 3.0663135
13.072232 2.1922364 -2.0993509
17.068695 2.856317 -2.1249142
24.850939 4.1541705 -2.2043431
71.161919 11.857381 -1.259261
7.6891117 1.2687879 -2.0881522
8.9025383 1.4674251 -2.0830467
10.600505 1.7434993 -2.0882137
13.063835 2.1463158 -2.0968478
17.11725 2.8061256 -2.1297889
24.845625 4.0641761 -2.2026
71.104187 11.592798 -1.2575157
7.6951838 1.243589 -2.0886698
71.331573 11.514882 1.2612157
8.9153023 1.437579 -2.0848465
10.612045 1.709271 -2.0893586
13.073199 2.1010118 -2.0971608
17.12302 2.745733 -2.1293013
24.878639 3.9849193 -2.2043431
7.6994772 1.2167255 -2.0886698
8.9260406 1.4073626 -2.0861959
71.294212 11.228156 3.7824247
10.616006 1.6719192 -2.0889771
13.072648 2.0541346 -2.0959091
17.118774 2.6837893 -2.1275952
24.904207 3.8998947 -2.2053888
7.7055869 1.1901346 -2.0891874
71.36673 11.009903 1.2604476
8.9308987 1.3761938 -2.0861959
71.340866 10.980421 3.7828434
10.635361 1.6369402 -2.0916483
13.083643 2.0090926 -2.096535
17.141771 2.6261249 -2.1293013
24.905853 3.811136 -2.2043431
7.7154241 1.1640961 -2.0907402
8.9240856 1.3432679 -2.0834966
71.378754 10.731342 3.7828434
10.64295 1.6000999 -2.09203
13.096437 1.9642855 -2.0974736
17.156725 2.567158 -2.1300325
24.970238 3.7318256 -2.2088752
7.7251749 1.1379999 -2.0922933
71.572433 10.530615 1.2627515
8.9345045 1.3129609 -2.0848465
10.658184 1.5643619 -2.0939381
13.116896 1.9205644 -2.0996637
17.173437 2.5083971 -2.1310074
25.014656 3.6492476 -2.2116642
7.725275 1.1104752 -2.0912578
8.9409618 1.2820441 -2.0852964
10.659693 1.526589 -2.0931747
13.129387 1.8756008 -2.1006021
17.184053 2.4487193 -2.1312513
25.050913 3.5652699 -2.2137558
7.7195396 1.0821629 -2.0886698
8.9531031 1.2519078 -2.087096
10.674678 1.4907304 -2.0950828
13.139767 1.8303071 -2.101228
17.204294 2.3903551 -2.1327136
25.098728 3.4827387 -2.2168934
7.7366686 1.0570387 -2.0922933
8.9574184 1.2206457 -2.087096
10.672036 1.4523979 -2.0935564
13.148032 1.7846981 -2.1015408
17.232204 2.332953 -2.1351511
25.146273 3.3999171 -2.220031
7.7460551 1.0307959 -2.0938461
8.959693 1.1891122 -2.0866458
10.688717 1.4166917 -2.0958462
13.162016 1.7398238 -2.1027923
17.250084 2.27408 -2.1363697
25.193542 3.3167937 -2.2231686
7.7572699 1.0047414 -2.0959167
8.9655199 1.1596417 -2.087096
10.676074 1.3771093 -2.0924115
13.17751 1.6974256 -2.1043568
17.273283 2.2188914 -2.1383197
25.280064 3.238457 -2.2297926
7.7586432 0.97876793 -2.0953991
8.9791803 1.1295615 -2.0893452
10.715646 1.3461002 -2.0992808
13.206875 1.6543727 -2.1081111
17.296679 2.1605463 -2.1402695
25.342068 3.1610246 -2.2343247
7.7409191 0.94909847 -2.089705
8.9848118 1.1000137 -2.0897954
10.702738 1.3065537 -2.0958462
13.204444 1.6096082 -2.1068597
17.319515 2.105088 -2.1422195
25.364815 3.0739763 -2.2353704
7.7633686 0.9243539 -2.0948815
8.9887829 1.0670773 -2.0897954
10.720881 1.2708009 -2.0985174
13.206331 1.56074 -2.1062338
17.32317 2.0411339 -2.141732
25.450581 2.9942696 -2.2419941
7.7588716 0.8963601 -2.0928109
8.9866447 1.0350227 -2.0884457
10.735003 1.234489 -2.1004255
13.227399 1.5164281 -2.1087368
17.353859 1.9833609 -2.1446569
25.512346 2.9112787 -2.2465265
7.7849908 0.87185282 -2.0990226
8.9998865 1.0047258 -2.0906951
10.735345 1.1965766 -2.0996623
13.240466 1.4711157 -2.1099885
17.3587 1.9225575 -2.1444132
25.56592 2.8270168 -2.2503612
7.7668605 0.84237945 -2.0933285
9.0033388 0.97330618 -2.0906951
10.739457 1.1590931 -2.0996623
13.261233 1.426582 -2.1124914
17.387016 1.8642759 -2.1470942
25.627142 2.7432771 -2.2548933
7.7774386 0.81607091 -2.0953991
9.0144329 0.94268531 -2.0924947
10.743438 1.1216006 -2.0996623
35.142689 3.6626501 3.0912399
13.283813 1.3821255 -2.1153071
17.434885 1.807876 -2.1522129
25.692051 2.6595545 -2.259774
7.7860055 0.78950018 -2.096952
9.0157299 0.91101927 -2.0920448
10.753147 1.0846804 -2.1008072
35.202839 3.5447383 3.0954235
13.274798 1.3343679 -2.113117
17.45294 1.7481881 -2.1536753
25.748756 2.5746193 -2.2639575
7.7867913 0.76213062 -2.0964344
9.0072193 0.87840575 -2.0893452
10.78227 1.0496134 -2.1057682
35.254658 3.4256971 3.0989096
13.287241 1.2887813 -2.1143684
17.478695 1.6891687 -2.1561127
25.793285 2.4881604 -2.2670951
7.7990208 0.73585397 -2.0990226
9.0199318 0.8478688 -2.0915949
10.77805 1.0112386 -2.1042418
13.311326 1.2442271 -2.1174972
17.48844 1.6285099 -2.1566
25.885136 2.4058471 -2.2744162
7.7996187 0.70844901 -2.098505
9.0267162 0.81673121 -2.0924947
10.773693 0.97290087 -2.1027153
13.327394 1.198819 -2.1193743
17.525652 1.5702838 -2.1604998
25.905283 2.3165467 -2.2754622
7.7981939 0.68088448 -2.0974696
9.0431032 0.78639656 -2.095644
10.784847 0.935969 -2.1042418
13.339369 1.1529672 -2.120626
17.558712 1.5114937 -2.1639123
25.976732 2.2315562 -2.28104
7.7985988 0.65349615 -2.096952
97.582512 8.159934 1.7092538
9.0302563 0.75353527 -2.0920448
10.793919 0.898803 -2.1053865
13.335438 1.1057534 -2.1193743
17.583668 1.4518219 -2.1663496
26.028048 2.144484 -2.2848749
7.8027577 0.62642252 -2.0974696
9.0365925 0.72389448 -2.0929446
10.808732 0.86205328 -2.1076763
13.346908 1.0621485 -2.120626
17.588385 1.3934995 -2.1663496
26.122768 2.0605025 -2.2925446
7.8221278 0.60187972 -2.1021285
9.0468359 0.69293934 -2.0947442
10.817405 0.82665652 -2.1088212
13.366292 1.0167477 -2.1231289
17.608976 1.3333073 -2.1682997
26.157272 1.9759589 -2.2949848
7.8164744 0.57400739 -2.1000578
9.0472555 0.6612156 -2.0942943
10.820224 0.788894 -2.1088212
13.369761 0.97008097 -2.1231289
17.627384 1.2728285 -2.1700058
26.207731 1.8877831 -2.2988198
7.8010869 0.54550439 -2.0953991
9.063117 0.63057947 -2.0974436
10.818995 0.75084484 -2.108058
13.384889 0.92423153 -2.125006
17.657463 1.2130619 -2.1731744
26.273792 1.8003939 -2.3040493
7.8087258 0.5186559 -2.096952
9.0574846 0.59842312 -2.095644
10.829385 0.71359354 -2.1095843
13.391975 0.87775868 -2.1256318
17.665552 1.151672 -2.1736617
26.287872 1.7091804 -2.3047464
7.8085604 0.49127555 -2.0964344
9.0536833 0.56643987 -2.0942943
10.841607 0.67640114 -2.1114926
13.414674 0.83223259 -2.1287606
17.681356 1.0907295 -2.1751244
26.37322 1.6223068 -2.3117189
7.8237271 0.46481553 -2.1000578
9.0711679 0.53574991 -2.0978935
10.832144 0.63785738 -2.1092029
13.42144 0.78562886 -2.1293862
17.685055 1.0290072 -2.1751244
26.410547 1.5320764 -2.314508
7.8253016 0.43750444 -2.1000578
94.616737 5.273313 1.6541042
9.0671463 0.50375998 -2.0965438
10.834304 0.60004449 -2.1092029
13.43988 0.73963934 -2.1318891
17.696465 0.96769726 -2.1760993
26.403797 1.4392192 -2.313462
7.8383565 0.41079092 -2.1031637
94.630562 4.9428635 1.6540344
9.0805264 0.4727121 -2.0992434
10.842215 0.56252438 -2.1103475
13.446326 0.692927 -2.132515
17.729473 0.90745348 -2.1797554
26.456415 1.3494855 -2.3176455
7.8223767 0.38257974 -2.098505
9.0723886 0.44053727 -2.0969937
10.851956 0.52505636 -2.1118741
13.460502 0.64655143 -2.1343923
17.748247 0.8494097 -2.1817052
26.488827 1.2584437 -2.3200858
0.67544669 0.030790268 -0.18117334
62.276333 2.8279486 1.0881575
9.0796404 0.41071573 -2.0983434
10.867366 0.48968786 -2.1145453
13.458624 0.6017375 -2.1337664
17.7589 0.79090649 -2.1826801
26.536646 1.172537 -2.3239207
0.66010404 0.027897475 -0.17703223
9.0848465 0.38076499 -2.0992434
10.859122 0.4532353 -2.1126373
13.492126 0.55840707 -2.1387722
17.765392 0.73217016 -2.1831677
26.592148 1.0866395 -2.3284528
62.006123 2.5012488 -1.0832011
0.67177528 0.026159497 -0.18013807
9.0938473 0.35094318 -2.1010427
10.850757 0.416848 -2.1107292
35.723335 1.3661046 3.127671
13.493903 0.51367164 -2.1387722
17.789541 0.67408431 -2.1858487
26.615513 0.99920356 -2.3301959
62.361782 2.3084993 -1.0892745
0.69310808 0.024325052 -0.18583208
62.206604 2.1723089 1.086482
9.1087608 0.31649864 -2.104192
10.862087 0.37551764 -2.1126373
35.71637 1.2285244 3.1266251
13.499723 0.46198687 -2.1393981
17.804008 0.60306621 -2.1873109
26.686857 0.89928776 -2.3361225
0.70863581 0.022393459 -0.18997319
61.802071 1.9422278 1.0792917
0.68172628 0.021305233 -0.15746574
62.420162 1.9398139 3.2728817
10.888843 0.33838949 -2.1175983
35.732391 1.1042204 3.127671
13.513101 0.4152281 -2.1412752
17.841721 0.54200375 -2.1916986
26.761528 0.80829883 -2.3423977
0.68360555 0.019214589 -0.18324389
61.884438 1.7285918 1.0806181
0.66231656 0.018384529 -0.15296671
10.889957 0.30038056 -2.1175983
35.81171 0.98154914 3.1342947
13.522367 0.36826757 -2.1425269
17.841518 0.4796631 -2.1914546
26.831903 0.71668035 -2.3483243
53.444065 1.408824 -2.8018579
0.69139349 0.017018208 -0.18531445
0.65652943 0.016045092 -0.15161701
10.896827 0.26250982 -2.1187432
13.531413 0.32360891 -2.1437781
17.848965 0.42063972 -2.1921859
26.870094 0.62385321 -2.3514619
0.67406338 0.014354993 -0.1806557
0.66047806 0.013835038 -0.15251681
10.897637 0.22637016 -2.1187432
13.548259 0.27669901 -2.146281
17.870173 0.35872632 -2.1946235
26.935852 0.53130549 -2.3570397
0.66059065 0.01164611 -0.17703223
0.67221302 0.011733658 -0.15521623
10.912135 0.18666427 -2.1214147
13.553133 0.22710949 -2.1469069
17.887194 0.29661265 -2.1965733
26.913635 0.43689615 -2.354948
0.66255891 0.0093672816 -0.17754988
0.66056013 0.009108413 -0.15251681
10.914683 0.14859651 -2.1217961
13.553843 0.17979525 -2.1469069
17.898085 0.23118298 -2.1977918
26.946875 0.34334639 -2.3577371
0.66258758 0.0070546013 -0.17754988
0.64889604 0.0066823089 -0.14981739
10.919062 0.1105383 -2.1225593
13.574141 0.13267833 -2.1500356
17.92062 0.16890663 -2.2004731
26.987753 0.24964356 -2.3612232
0.67419893 0.0048244614 -0.1806557
0.64891547 0.0044173347 -0.14981739
10.907601 0.072341949 -2.1202698
13.590324 0.085397087 -2.1525385
17.917109 0.10944956 -2.1999855
27.076126 0.15596069 -2.3688931
35.966118 0.19459645 -1.884932
36.012024 0.18857691 -0.62860078
0.67227948 0.002581428 -0.18013807
35.984276 0.13190994 0.62811214
0.65282398 0.0022788546 -0.1507172
10.905818 0.036166307 -2.1198881
13.594483 0.040337436 -2.1531644
35.908199 0.10027965 4.4089894
17.937225 0.050092705 -2.2024229
27.14822 0.066339947 -2.3751683
35.986538 0.0753593 -1.8859788
35.972458 0.069068938 -0.62790269
0.65876138 0.00034479069 -0.1765146
36.024513 0.012585049 0.62881023
0.65477675 0.00011447095 -0.15116711
35.934685 0.0062822597 1.8832572
10.915695 -0 -2.1217961
35.928761 -0.0062707514 3.1433589
13.606395 -0.0047495281 -2.1550415
35.900391 -0.018797401 4.4080148
17.941263 -0.0093940236 -2.2029104
27.208063 -0.023743518 -2.3803978
0.65489519 -0.0018288171 -0.17547932
0.64697856 -0.0020325498 -0.1493675
58.910866 -0.18507454 3.0874031
10.929378 -0.036243323 -2.1244676
13.598402 -0.049840972 -2.15379
17.968922 -0.068996042 -2.2063227
27.295498 -0.11433578 -2.3880672
0.6432932 -0.004154264 -0.17237349
0.64306939 -0.0043773018 -0.14846769
10.929172 -0.076301239 -2.1244676
58.572758 -0.41914505 5.1245832
13.60998 -0.099768147 -2.1556673
17.964556 -0.1379606 -2.2058353
27.290911 -0.21434669 -2.3877187
0.64907008 -0.006457407 -0.17392641
0.64889723 -0.006568952 -0.14981739
10.93669 -0.11453293 -2.125994
13.629327 -0.14511023 -2.1587958
17.971939 -0.19761977 -2.2068105
27.345779 -0.31024134 -2.3925993
0.64131832 -0.0085072676 -0.17185585
0.65276748 -0.0088870432 -0.1507172
10.936251 -0.15079968 -2.125994
13.64454 -0.19290797 -2.161299
17.983051 -0.26052487 -2.2082727
27.388359 -0.40634429 -2.3964343
0.65287232 -0.011053985 -0.17496169
0.65662938 -0.011232233 -0.15161701
58.307266 -1.0075774 3.0562108
10.943477 -0.19101909 -2.1275203
13.647691 -0.24298674 -2.1619246
31.39323 -0.55893254 3.8552151
18.009817 -0.32379541 -2.2116849
27.398726 -0.50216407 -2.39748
0.6644184 -0.013569544 -0.17806751
0.65658385 -0.013638824 -0.15161701
10.938818 -0.22913554 -2.1267571
31.434889 -0.66395587 2.7508097
13.64676 -0.29062462 -2.1619246
31.486233 -0.67603618 3.8669145
18.026371 -0.39018914 -2.2138786
27.500383 -0.60006046 -2.4065444
0.67016089 -0.016027279 -0.17962041
0.6467914 -0.015694287 -0.1493675
10.965428 -0.26798931 -2.1320999
13.645662 -0.33825889 -2.1619246
18.030853 -0.45326018 -2.2146099
27.545925 -0.69726115 -2.4107277
0.68361878 -0.018736985 -0.18324389
0.65062863 -0.01806006 -0.1502673
10.966389 -0.30631897 -2.1324816
13.660194 -0.38633588 -2.1644275
54.565964 -1.5527588 6.7025704
18.102579 -0.51829892 -2.223628
27.56324 -0.79398382 -2.4124711
0.68354923 -0.021123145 -0.18324389
0.65640497 -0.020513682 -0.15161701
10.959364 -0.34441188 -2.1313365
13.674558 -0.43451837 -2.1669304
27.664026 -0.88387638 3.3984489
18.253433 -0.58639336 -2.2423961
27.635969 -0.89263666 -2.4190946
0.66416419 -0.022844952 -0.17806751
0.66217208 -0.023007847 -0.15296671
10.954173 -0.38252813 -2.1305733
13.672957 -0.48224887 -2.1669304
27.577452 -0.97748315 3.388212
18.259211 -0.65038884 -2.243371
27.632685 -0.98909879 -2.4190946
0.68338507 -0.025894664 -0.18324389
0.65819752 -0.025055308 -0.15206692
10.970428 -0.42144132 -2.1340079
13.679179 -0.52789211 -2.1681819
27.578026 -1.0690818 3.3886993
18.308527 -0.71294332 -2.2497082
27.676844 -1.0874262 -2.4232781
0.70066738 -0.02887666 -0.18790263
0.65031779 -0.027028993 -0.1502673
10.967007 -0.45773631 -2.1336262
13.693042 -0.57630253 -2.1706848
27.522558 -1.163161 3.3823621
18.299974 -0.77659506 -2.2489769
27.712898 -1.1808964 -2.4267645
53.612907 -2.3032908 -2.8123252
0.6928426 -0.030977122 -0.18583208
0.65606493 -0.029447518 -0.15161701
10.973187 -0.49637038 -2.1351528
13.687109 -0.62152797 -2.1700592
27.748585 -1.2649088 3.4106357
18.287384 -0.83682203 -2.2477584
27.732492 -1.2787265 -2.4288561
0.67729336 -0.03265122 -0.18169098
0.66373837 -0.032229982 -0.15341662
10.97335 -0.53476655 -2.1355343
13.700522 -0.67246431 -2.1725621
18.309971 -0.90511721 -2.250927
27.763678 -1.3773 -2.4319937
0.65788251 -0.03401763 -0.1765146
0.66557395 -0.034531809 -0.15386651
10.977298 -0.57337469 -2.1366794
13.694272 -0.71768647 -2.1719363
18.312815 -0.96614403 -2.2516582
27.790533 -1.4758955 -2.4347827
53.386902 -2.8446078 -2.8018579
53.556862 -2.8724122 -0.93618196
0.6577661 -0.036199059 -0.1765146
0.66350359 -0.036747124 -0.15341662
10.977295 -0.60988235 -2.1370609
13.683794 -0.76504284 -2.1706848
18.364826 -1.0331839 -2.2584829
27.82925 -1.570514 -2.4386177
53.255028 -3.0426893 -0.93108588
0.66920704 -0.039172199 -0.17962041
0.64002687 -0.037688315 -0.14801779
10.982939 -0.64865953 -2.1385872
13.70076 -0.8139751 -2.1738136
18.347237 -1.0964539 -2.2567768
27.85144 -1.6693152 -2.4410579
0.67292249 -0.041747164 -0.1806557
0.64572626 -0.040286224 -0.1493675
10.976689 -0.68674803 -2.1378241
13.709664 -0.86253887 -2.1756909
18.373014 -1.1623709 -2.2604327
27.905096 -1.7703092 -2.4462874
0.67277265 -0.044095851 -0.1806557
0.64947081 -0.042796254 -0.1502673
10.972266 -0.72493029 -2.1374426
13.710511 -0.91065121 -2.1763165
55.703365 -3.7095788 6.8546638
18.343098 -1.2247784 -2.2572641
27.922602 -1.8693025 -2.448379
0.66105109 -0.045645535 -0.17754988
0.65903777 -0.045737661 -0.15251681
10.971627 -0.76336241 -2.1378241
13.715133 -0.95905542 -2.177568
18.287224 -1.2851822 -2.250927
27.971554 -1.9706796 -2.4532597
17.295631 -1.230664 -0.30265963
0.66666806 -0.048372164 -0.17910279
0.64526898 -0.04704592 -0.1493675
10.972811 -0.80194205 -2.1385872
13.719581 -1.007503 -2.1788194
18.343998 -1.3535371 -2.2584829
27.964506 -2.0683067 -2.4532597
17.263313 -1.2889452 -0.30217096
0.66842145 -0.0508455 -0.17962041
0.63927168 -0.048852582 -0.14801779
10.983648 -0.84128916 -2.1412585
13.727798 -1.0562965 -2.1806967
18.386663 -1.4212329 -2.2643328
28.01671 -2.1705253 -2.4584892
0.67401719 -0.053638179 -0.18117334
0.65853184 -0.052521523 -0.15251681
10.986516 -0.88009435 -2.1424036
13.728157 -1.1021297 -2.1813223
56.351349 -4.5339217 6.9414349
18.366016 -1.480921 -2.2623827
28.036766 -2.2705603 -2.4609296
17.343096 -1.4075791 -0.91190183
0.66035891 -0.054755546 -0.17754988
0.6641705 -0.055305034 -0.15386651
10.971798 -0.9155426 -2.1401138
13.787218 -1.1553218 -2.1913342
56.679371 -4.7594991 6.9838452
18.309307 -1.5406936 -2.2560456
28.013199 -2.3621814 -2.4595351
32.053692 -2.7085259 6.252811
17.314196 -1.4660871 -0.91064578
0.66593778 -0.057559364 -0.17910279
0.65621763 -0.056834608 -0.15206692
10.964624 -0.9534955 -2.1393507
13.779375 -1.2006927 -2.1907084
56.081871 -4.8966641 6.9121861
18.38122 -1.6081482 -2.2655511
28.032568 -2.4623921 -2.4619753
17.301279 -1.5227942 -0.910227
17.244167 -1.5238338 -0.30217096
0.66189504 -0.059421901 -0.17806751
0.66377866 -0.05982459 -0.15386651
11.000508 -0.99338174 -2.1469829
13.763296 -1.247714 -2.1888313
18.345842 -1.6696023 -2.2618952
28.079359 -2.5653048 -2.466856
17.307793 -1.5842705 -0.91085511
17.246706 -1.5847498 -0.30231059
0.66551971 -0.062207043 -0.17910279
0.63834262 -0.059779152 -0.14801779
11.01243 -1.0351636 -2.1500359
13.742897 -1.2966663 -2.1863284
17.286543 -1.6340594 -2.1319826
17.291992 -1.6406648 -1.5196475
17.252163 -1.6429622 -0.90823823
17.249031 -1.6457019 -0.30245018
0.6576072 -0.063783757 -0.17703223
0.64199835 -0.06249601 -0.1489176
10.995071 -1.0722641 -2.1473646
57.106934 -5.5792584 5.0199966
13.765812 -1.3473239 -2.1907084
18.206985 -1.7884189 -2.2462959
17.238905 -1.7085173 -0.30238038
0.66506922 -0.06685169 -0.17910279
57.470585 -5.7869835 1.0082256
0.64953184 -0.065518931 -0.1507172
57.42437 -5.8025789 3.0248091
10.999074 -1.1114269 -2.148891
13.780678 -1.3973603 -2.1938372
18.174959 -1.8493499 -2.2431273
28.169882 -2.8713272 -2.4773147
17.258156 -1.765193 -0.90918034
17.22687 -1.7680694 -0.30227569
0.64946002 -0.067573451 -0.17496169
57.370476 -5.9792662 1.0068294
9.1347675 -0.95365554 -2.1203887
10.987318 -1.1489974 -2.1473646
13.771786 -1.4450428 -2.1932113
18.156548 -1.9115341 -2.2416649
28.211205 -2.9750738 -2.4818468
17.287638 -1.8292074 -0.91106445
17.226557 -1.8288251 -0.30238038
7.8252163 -0.84180015 -2.1088579
9.1178207 -0.98407221 -2.1172395
11.006663 -1.1898755 -2.1519439
13.766658 -1.4931066 -2.1932113
18.145817 -1.9744711 -2.2411776
18.542946 -2.0209577 -1.6319041
56.812817 -6.2019472 11.1089
17.273207 -1.8886731 -0.91064578
17.231997 -1.8902541 -0.30258983
7.83951 -0.87103003 -2.1135163
18.588406 -2.0685997 0.32646471
9.1046467 -1.014814 -2.1149898
11.004394 -1.2285064 -2.1523256
13.780993 -1.5433506 -2.1963401
18.111198 -2.0346971 -2.2377651
18.48826 -2.0803258 -1.6277206
17.26651 -1.9489564 -0.91064578
17.23358 -1.9482856 -0.30272943
7.836422 -0.89838982 -2.1135163
18.490055 -2.1197529 0.32485908
9.1051025 -1.045445 -2.1158895
18.504486 -2.1279516 0.9761703
10.998088 -1.2666868 -2.1519439
18.531862 -2.1376543 1.6320785
13.799349 -1.5917579 -2.2000947
18.562216 -2.1444385 2.2943125
18.104351 -2.0947449 -2.2377651
18.472969 -2.1439304 -1.6270235
17.283758 -2.0089703 -0.91190183
17.232634 -2.009125 -0.30283415
7.8372359 -0.92482412 -2.1145515
18.462685 -2.1819353 0.32451007
9.1110744 -1.0783668 -2.118139
18.469179 -2.1892397 0.97470492
11.003574 -1.3043061 -2.153852
18.481144 -2.1939292 1.6282436
13.82117 -1.6431819 -2.2044747
18.495481 -2.2021787 2.2870002
18.10284 -2.158633 -2.2384963
18.494421 -2.2086 2.9500415
18.467737 -2.2054133 -1.6271976
18.534538 -2.2166719 3.6284239
18.470455 -2.2122777 -0.97491425
18.543798 -2.2243452 4.311862
17.207647 -2.0671191 -0.30252004
18.57412 -2.2345595 5.0128074
7.8167009 -0.95007777 -2.1098928
18.462896 -2.2473354 0.32464966
9.1207952 -1.1118143 -2.1212883
18.477287 -2.2556324 0.97554237
10.998955 -1.342708 -2.153852
18.455574 -2.2562511 1.6266748
13.827115 -1.6928571 -2.206352
18.464037 -2.2638276 2.2840755
18.110958 -2.2237463 -2.2404461
18.455227 -2.2692866 2.9450355
18.483656 -2.2727823 -1.6292894
18.476027 -2.2751176 3.6185019
18.494337 -2.2806492 -0.97658908
18.497238 -2.2842844 4.3028636
17.192389 -2.1261907 -0.30238038
18.493353 -2.290359 4.9931374
7.81142 -0.97711748 -2.1093752
18.514465 -2.3192255 0.3256968
9.1110592 -1.1429174 -2.1199389
18.508932 -2.3250949 0.97763574
11.009786 -1.3830509 -2.1569052
18.483168 -2.3251357 1.6298124
13.850519 -1.7448157 -2.211045
18.487534 -2.3322408 2.2879751
18.130657 -2.2904344 -2.2438586
18.48247 -2.3381562 2.9506674
18.57642 -2.3500416 -1.6381793
18.467974 -2.3395972 3.6185019
18.477552 -2.3473644 4.3001642
17.200729 -2.1882091 -0.30265963
18.466084 -2.3524578 4.9879608
7.8156257 -1.0053644 -2.1114457
9.1050806 -1.1744647 -2.119489
11.014625 -1.4227312 -2.158813
13.863935 -1.7956897 -2.2141736
18.597397 -2.4120796 2.3025997
18.161924 -2.3588219 -2.2487333
18.654413 -2.426096 2.9794512
28.387583 -3.6919415 -2.5045075
18.533672 -2.4136827 3.6330035
50.835201 -6.6294084 -2.6867189
18.546539 -2.4219425 4.3181605
18.526716 -2.4259312 5.0065961
7.8139849 -1.0328932 -2.1119635
9.1047897 -1.2067523 -2.1203887
11.005699 -1.4606544 -2.1580498
13.888912 -1.8482423 -2.2191796
18.185062 -2.4264052 -2.2526331
28.40217 -3.7947037 -2.5069478
50.669216 -6.7877212 -2.6791825
18.742706 -2.5141299 4.36585
7.7950163 -1.0580839 -2.1078224
9.1063137 -1.2393149 -2.1217382
11.014151 -1.500918 -2.1607211
13.917604 -1.9015255 -2.2248113
18.245317 -2.4992976 -2.2611639
28.432177 -3.8997791 -2.5107825
7.7970161 -1.0860869 -2.1093752
9.105793 -1.2716334 -2.1226382
11.02051 -1.5409865 -2.1630108
13.926533 -1.9522896 -2.2273142
18.338701 -2.5773365 -2.2738385
28.414444 -3.9984474 -2.5104339
7.8123012 -1.1160288 -2.1145515
9.1034546 -1.3020982 -2.1230881
11.013121 -1.5791674 -2.1626294
13.939535 -2.0012679 -2.2304428
18.180725 -2.6166434 -2.2553141
28.491026 -4.1106958 -2.5184524
50.404461 -7.2993169 -0.8889907
7.7932653 -1.1396927 -2.1104105
9.0969267 -1.3335847 -2.1226382
11.000053 -1.6145389 -2.1611028
13.944191 -2.0516391 -2.2323201
18.352156 -2.7067373 -2.2777381
28.453587 -4.2016602 -2.5163605
50.294212 -7.4447432 -2.6645284
7.8102555 -1.1700377 -2.1161046
9.0979967 -1.3661989 -2.1239879
10.986585 -1.6517591 -2.1595764
13.956478 -2.1032445 -2.2354488
18.016768 -2.7215636 -2.2372777
28.493904 -4.309298 -2.5212412
50.244228 -7.6166658 -2.6632726
7.8137622 -1.1984651 -2.118175
9.093173 -1.3979485 -2.1239879
10.971051 -1.6886063 -2.1576684
13.980287 -2.1567676 -2.2404547
18.03266 -2.7883806 -2.2404461
28.533819 -4.4172688 -2.5261221
50.264694 -7.7993531 -2.6657844
7.801897 -1.2245347 -2.1161046
9.0959377 -1.4308925 -2.1257875
10.974787 -1.7284192 -2.1595764
13.992186 -2.2086351 -2.2435834
17.856155 -2.8249428 -2.2197285
28.50642 -4.5149736 -2.5250762
7.7880378 -1.25023 -2.1135163
9.0928116 -1.4629439 -2.1262374
10.980316 -1.7685909 -2.1618662
14.011693 -2.2618709 -2.2479637
18.02647 -2.9164226 -2.2421525
28.54162 -4.6227341 -2.5296082
7.7931581 -1.2789719 -2.1161046
9.0934181 -1.4956237 -2.1275871
10.991509 -1.8097792 -2.1653006
14.023202 -2.313983 -2.2510922
18.096479 -2.9926078 -2.2521458
28.564623 -4.7288427 -2.5330944
7.798173 -1.307765 -2.1186929
9.095829 -1.5286485 -2.1293867
10.994806 -1.8497646 -2.1672087
14.042309 -2.3675168 -2.2554724
18.019373 -3.0445139 -2.2438586
28.551872 -4.8291869 -2.533443
7.7840395 -1.3333468 -2.1161046
9.0846758 -1.5594004 -2.128037
10.992152 -1.8887972 -2.1679718
14.061214 -2.4212122 -2.2598526
18.030153 -3.1111076 -2.2465396
28.554474 -4.9322143 -2.5351863
7.7812405 -1.3608429 -2.1166222
9.0964527 -1.5941299 -2.132086
11.014497 -1.9322438 -2.173696
14.072132 -2.4736998 -2.2629812
18.425823 -3.2456536 -2.2972372
28.544931 -5.0332417 -2.5358834
7.7783442 -1.3883357 -2.1171398
9.1023426 -1.6279312 -2.1347857
11.01928 -1.9727553 -2.1759858
14.086744 -2.5269914 -2.2667358
18.082237 -3.2502496 -2.2558017
28.531111 -5.1335568 -2.5362322
7.7772522 -1.416171 -2.118175
9.0889359 -1.6582954 -2.1329858
11.035503 -2.0154405 -2.1805654
14.106984 -2.5814815 -2.2714286
17.814999 -3.2664499 -2.2238719
28.575726 -5.244627 -2.54181
49.504822 -9.1036997 -2.6379418
7.7741618 -1.4436626 -2.1186929
9.1025467 -1.6919874 -2.137485
11.038051 -2.0557468 -2.1824734
14.117764 -2.6318679 -2.2745574
17.919199 -3.3470132 -2.2382526
28.60033 -5.3524055 -2.545645
49.313381 -9.2376566 -2.6293588
7.7769237 -1.4708709 -2.1207633
9.1214762 -1.7284677 -2.1433337
11.044675 -2.0948999 -2.1851447
14.13178 -2.6855576 -2.278312
17.963961 -3.42031 -2.245321
28.562851 -5.4434891 -2.5439017
49.017956 -9.3595419 -2.6153328
7.7679482 -1.4972771 -2.1197281
9.1268673 -1.762514 -2.146033
11.048861 -2.1356757 -2.1874344
14.137835 -2.737875 -2.2808149
17.821344 -3.4576628 -2.2289906
28.57888 -5.5499949 -2.5470393
48.996746 -9.5328779 -2.6159606
7.7664657 -1.5251275 -2.1207633
9.1206589 -1.7943619 -2.146033
11.062529 -2.1784031 -2.1916323
14.13982 -2.7895026 -2.282692
17.620264 -3.4825149 -2.2053478
28.602333 -5.6582265 -2.5508742
49.053295 -9.7217112 -2.6207757
49.435078 -9.8063431 -0.87970603
7.7573061 -1.5514706 -2.1197281
9.1146584 -1.8245974 -2.146033
11.07988 -2.2220237 -2.1965933
14.165352 -2.843374 -2.2883236
17.414005 -3.501792 -2.1809738
28.613659 -5.7643285 -2.5536633
7.7577972 -1.5783416 -2.1212809
9.1177807 -1.858348 -2.1482825
11.072451 -2.2587535 -2.1965933
14.178565 -2.8975494 -2.292078
18.193193 -3.7245998 -2.2801757
28.625614 -5.8655825 -2.556452
7.7522407 -1.6054119 -2.1212809
9.1226873 -1.8925388 -2.1509819
11.076033 -2.2997847 -2.1988828
14.187704 -2.9510469 -2.2952068
18.401625 -3.834245 -2.3079619
28.62837 -5.9703493 -2.5585439
7.7428093 -1.6316657 -2.1202457
9.1141195 -1.9239691 -2.150532
11.081383 -2.341274 -2.2015543
14.196642 -3.0046432 -2.2983353
18.45027 -3.9116299 -2.3157616
28.607355 -6.0702448 -2.5585439
7.7446227 -1.6603031 -2.1223164
9.1092529 -1.9561807 -2.1509819
11.090418 -2.3836541 -2.204989
14.18993 -3.0550122 -2.2989612
18.419039 -3.9722433 -2.3135679
28.632732 -6.1801548 -2.5627275
7.7425547 -1.6881498 -2.1233516
9.1061754 -1.9887974 -2.1518817
11.108881 -2.4282217 -2.2103314
14.206196 -3.1104407 -2.3033414
18.548546 -4.0679822 -2.3316045
28.618769 -6.2817731 -2.5634246
7.7460451 -1.7172569 -2.1259398
9.114398 -2.0239515 -2.1554811
11.100337 -2.466984 -2.2103314
14.226103 -3.1668785 -2.3083472
18.425732 -4.1085105 -2.317955
28.581114 -6.378161 -2.5620303
7.7381191 -1.7438605 -2.1254222
9.1034756 -2.0548961 -2.1545811
11.097403 -2.507014 -2.2114763
14.238081 -3.2217491 -2.3121016
18.605616 -4.2134342 -2.342329
28.601419 -6.4875846 -2.565865
7.7247605 -1.7677875 -2.1233516
9.1137066 -2.0889916 -2.1586304
11.108165 -2.5481906 -2.2152925
14.250422 -3.2742543 -2.3158562
18.459986 -4.2448592 -2.3257549
28.579748 -6.5823946 -2.565865
7.7282653 -1.79558 -2.1259398
9.1181183 -2.1218524 -2.1613297
11.12451 -2.5908015 -2.2202537
14.26257 -3.3268774 -2.3196106
28.573284 -6.6807613 -2.5672596
7.7445116 -1.8278707 -2.1321514
9.1091347 -2.1516297 -2.1608799
11.130683 -2.6332333 -2.2233064
14.301438 -3.385988 -2.3277452
17.744972 -4.2078166 -2.2392275
28.542036 -6.7786188 -2.5665624
7.7553167 -1.8575926 -2.1368101
9.1243076 -2.1888683 -2.1662786
58.448677 -14.032287 3.1502061
11.148148 -2.6784914 -2.2286491
14.331785 -3.4460485 -2.3346283
18.380558 -4.4263554 -2.3213673
28.545319 -6.884748 -2.5690026
7.7371936 -1.8832635 -2.1337044
9.1162233 -2.2222958 -2.1662786
11.1497 -2.7221272 -2.2309389
14.3536 -3.5069933 -2.34026
18.661156 -4.5663557 -2.3589032
28.4928 -6.982686 -2.5665624
7.7264886 -1.9106815 -2.1326692
9.1231508 -2.2594414 -2.169878
11.162997 -2.7666981 -2.2355182
14.378993 -3.5690961 -2.3465173
18.566114 -4.6118464 -2.3489099
28.506922 -7.0917215 -2.5700483
7.7144885 -1.934883 -2.1311162
9.1212778 -2.2911065 -2.1712275
11.182322 -2.8108799 -2.2412426
14.386234 -3.6215811 -2.3496459
18.433298 -4.6438069 -2.3340418
28.452337 -7.1784167 -2.5672596
7.7099018 -1.9609307 -2.1316338
9.1230726 -2.3237462 -2.1734772
11.203378 -2.855705 -2.2473485
14.435393 -3.6849022 -2.3596578
17.363039 -4.438695 -2.2004731
28.420656 -7.2707529 -2.5665624
7.7123628 -1.9902449 -2.1342218
9.1243401 -2.358016 -2.1757267
11.227553 -2.9036429 -2.2542176
14.45304 -3.7431934 -2.3646638
18.312038 -4.7494569 -2.32283
28.456816 -7.3859324 -2.5721402
45.70583 -11.896957 -0.82438189
7.6978927 -2.0151968 -2.1321514
9.1386738 -2.3957813 -2.1811254
11.243936 -2.9497914 -2.2595603
14.470454 -3.8016517 -2.3696697
60.277592 -15.847266 7.6526642
17.577356 -4.6244512 -2.2316716
28.427008 -7.4842067 -2.5717916
7.6926794 -2.0425513 -2.1326692
9.1490879 -2.4326742 -2.1856244
11.262029 -2.9965944 -2.2652845
14.476184 -3.8572261 -2.3727982
18.481743 -4.9314299 -2.3486662
28.393009 -7.5813341 -2.5710945
7.6910987 -2.0708981 -2.1342218
9.1405411 -2.4645956 -2.1856244
11.274246 -3.0420253 -2.2698641
14.485515 -3.9139171 -2.3765526
60.456757 -16.346449 7.6897125
18.29579 -4.9502878 -2.3272171
28.385605 -7.6856041 -2.5728374
7.689414 -2.0992587 -2.1357749
9.1525602 -2.50214 -2.1905735
11.309007 -3.0937939 -2.2790227
14.498438 -3.9717636 -2.3809328
60.353382 -16.544786 7.6838627
18.236282 -5.0025687 -2.3218548
28.347076 -7.7814779 -2.5717916
7.6969347 -2.1302092 -2.1399159
9.1587934 -2.5382366 -2.1941726
11.31138 -3.1369236 -2.2816939
14.522552 -4.0329199 -2.3871903
18.28756 -5.085341 -2.3306296
28.387461 -7.9045625 -2.5780668
7.6927948 -2.1594496 -2.1409512
9.1536293 -2.5712452 -2.1950724
11.316818 -3.1831455 -2.2851286
14.541898 -4.0957599 -2.3928218
18.416819 -5.1906104 -2.3493974
28.355862 -8.0025225 -2.5777183
40.311787 -11.391889 -2.1953888
7.6703453 -2.182061 -2.1368101
9.1685085 -2.6117179 -2.2009211
11.335846 -3.2312398 -2.2912345
14.527513 -4.1464953 -2.3928218
18.360413 -5.2439618 -2.3445227
28.34691 -8.1069326 -2.5794613
40.137367 -11.494043 -2.188062
7.6909118 -2.2155058 -2.1445746
9.1654139 -2.643728 -2.202271
11.359021 -3.2786133 -2.2981036
14.525068 -4.1979384 -2.3946991
59.201164 -17.121122 7.5668683
18.508827 -5.3527985 -2.3657279
28.3237 -8.2019987 -2.5798099
40.041481 -11.610394 -2.1849217
7.7224693 -2.252357 -2.1554451
9.1696911 -2.6779311 -2.2054203
11.3707 -3.3228712 -2.3026831
14.545195 -4.2560682 -2.4003308
58.824005 -17.223635 7.5259199
18.229042 -5.3409076 -2.3323357
28.311638 -8.3003616 -2.5812044
7.731235 -2.2842262 -2.1601038
9.1752367 -2.7143457 -2.2090194
11.370327 -3.3658857 -2.3049729
14.556764 -4.3146739 -2.4047108
58.523727 -17.357742 7.4952087
18.193161 -5.3994226 -2.330142
28.278673 -8.3980036 -2.5808558
7.7435722 -2.3172915 -2.1657977
9.1881075 -2.7530687 -2.2144182
11.358508 -3.4055552 -2.3049729
14.60594 -4.3847709 -2.4153483
18.274958 -5.4931822 -2.3430603
28.256817 -8.4989586 -2.581553
7.7298894 -2.3426266 -2.1642449
55.275494 -16.762369 1.0082256
9.1821709 -2.7862561 -2.215318
11.359701 -3.4491754 -2.3076441
14.620786 -4.4449215 -2.4203544
18.308847 -5.5731263 -2.349885
28.25366 -8.605669 -2.5839934
7.7434125 -2.3777471 -2.1704566
55.404831 -17.023582 1.011716
9.1812105 -2.8227553 -2.2175674
11.380759 -3.5011787 -2.3145132
14.619499 -4.5031319 -2.4228573
18.269329 -5.6343436 -2.3474474
28.22574 -8.7103405 -2.584342
7.7498236 -2.4093504 -2.1745977
9.1917686 -2.8611572 -2.2225163
11.38159 -3.5449705 -2.3171847
14.618777 -4.5588408 -2.4253602
18.427668 -5.753695 -2.3703589
28.18375 -8.8052502 -2.5832961
7.7524228 -2.4398675 -2.1777036
9.1928768 -2.896739 -2.2252157
11.393487 -3.5923526 -2.3221457
14.617845 -4.6145997 -2.4278631
18.367722 -5.8054214 -2.3652403
28.194639 -8.9167919 -2.587131
7.7291336 -2.4622228 -2.1735625
55.226597 -17.593199 1.011716
9.2017879 -2.9331264 -2.2297149
11.399582 -3.6380703 -2.3259618
14.62128 -4.6690569 -2.4309919
18.448584 -5.8983388 -2.3781586
28.197496 -9.0260897 -2.5902686
7.7393126 -2.4937644 -2.1787388
55.004978 -17.734322 1.0087839
9.2007666 -2.9682202 -2.2319643
11.419217 -3.6861053 -2.3324494
14.616171 -4.7237115 -2.4328692
18.450544 -5.9700336 -2.3810833
28.137081 -9.1097279 -2.5874796
7.7323976 -2.5213637 -2.1792564
54.950344 -17.928699 1.0089236
9.1847916 -2.9985042 -2.2306147
11.423075 -3.7314301 -2.3358839
14.625878 -4.783299 -2.4372492
18.446573 -6.0399613 -2.3832772
28.177059 -9.2314596 -2.5941036
7.7345567 -2.551971 -2.1823623
9.1927729 -3.0366595 -2.2351139
11.445398 -3.7829871 -2.3431346
14.635347 -4.8430119 -2.4416294
56.114147 -18.579712 7.2578077
18.372614 -6.0868344 -2.3764522
28.182486 -9.3422985 -2.5975897
7.7512555 -2.5875175 -2.1896091
55.920128 -18.678061 1.0290986
9.1950541 -3.0730536 -2.2382631
11.452604 -3.8297656 -2.3473325
14.65207 -4.9053578 -2.4472611
18.306082 -6.1357894 -2.3706028
28.176149 -9.4494848 -2.6000299
7.7458377 -2.6157956 -2.1906445
9.1916552 -3.1076281 -2.2400625
11.457764 -3.8760099 -2.3511486
14.65731 -4.9640765 -2.4510155
18.359753 -6.2251496 -2.3803523
28.142992 -9.547781 -2.6000299
7.7403159 -2.6440663 -2.1916797
9.2052727 -3.1462851 -2.2459114
61.407276 -21.000462 3.4012096
11.477599 -3.9274225 -2.3580177
14.648243 -5.0152144 -2.4522669
18.124935 -6.2126212 -2.352566
28.124571 -9.6511335 -2.6014245
7.726027 -2.6678281 -2.1901269
9.201601 -3.1809454 -2.2477109
11.527596 -3.9872818 -2.3709927
14.649314 -5.0727801 -2.4553957
18.155653 -6.2940569 -2.3593907
28.109533 -9.7557812 -2.6031678
41.504696 -14.429101 -0.76699835
7.7380815 -2.7037745 -2.1963384
9.1959591 -3.2149746 -2.2490606
61.541946 -21.527569 3.4169102
11.579613 -4.0528541 -2.3847308
14.66045 -5.1368895 -2.4604015
56.609055 -19.835302 7.3650522
18.21225 -6.3849769 -2.3696277
28.112906 -9.8670387 -2.6066539
7.7449899 -2.7365611 -2.2009974
9.2061605 -3.2564564 -2.2544594
11.569098 -4.0945601 -2.3854942
14.66105 -5.1946301 -2.4635303
18.532969 -6.5737906 -2.4144754
28.112091 -9.9771061 -2.6097915
41.288013 -14.677645 -0.76486915
7.739028 -2.7648792 -2.2020326
9.215497 -3.2941828 -2.2594085
11.562128 -4.1375647 -2.3870206
14.680939 -5.2565365 -2.4697876
18.643744 -6.6827693 -2.4317811
28.077093 -10.075174 -2.6097915
7.7334514 -2.7918398 -2.2030678
9.2222691 -3.3329539 -2.2639074
11.553882 -4.177886 -2.3881655
14.686646 -5.3164921 -2.473855
18.373947 -6.6585317 -2.3996074
28.058512 -10.173659 -2.611186
7.7381778 -2.8241162 -2.2072091
