# .PCD v0.7 - Point Cloud Data file format
VERSION 0.7
FIELDS x y z
SIZE 4 4 4
TYPE F F F
COUNT 1 1 1
WIDTH 1555
HEIGHT 1
VIEWPOINT 0 0 0 1 0 0 0
POINTS 1555
DATA ascii
3.7615304 11.908299 -2.4274724
4.5793605 14.479821 -2.4053366
5.7347417 18.111086 -2.3325794
7.8676052 24.831938 -2.2789483
13.066827 41.191841 -2.2647865
2.7223482 8.5302591 -2.3992527
3.1827321 9.9608135 -2.4141748
3.7988815 11.882007 -2.4248009
4.620245 14.433645 -2.4003308
5.788835 18.062603 -2.3289232
7.9481602 24.785351 -2.2772052
2.753891 8.5262175 -2.4008055
3.2102852 9.927393 -2.4087758
3.8379204 11.861203 -2.4232745
4.6645088 14.398638 -2.397202
5.8364553 18.005543 -2.3240488
8.0284739 24.738506 -2.2754622
2.7815526 8.5152016 -2.4002879
3.2431858 9.9166937 -2.4087758
3.8741825 11.839079 -2.4213662
4.7103825 14.37746 -2.3962634
5.8843875 17.950247 -2.3194177
8.1030045 24.689034 -2.2733703
2.8067436 8.4967604 -2.3976998
3.2736084 9.8984833 -2.4069762
3.908083 11.803118 -2.4167869
4.7524476 14.344884 -2.3934476
5.9401398 17.908869 -2.3167362
8.1828632 24.641685 -2.2716272
2.8323507 8.4699268 -2.3930409
3.3092453 9.884572 -2.4065266
3.9469471 11.775685 -2.4141154
4.7974586 14.304893 -2.3896933
5.998785 17.866278 -2.3140552
8.269311 24.600201 -2.2705815
13.679254 40.647079 -2.2476203
2.8627584 8.4576588 -2.3925233
3.3398254 9.8557644 -2.4024773
3.9881861 11.755564 -2.4129708
4.8396935 14.257286 -2.3846872
6.0616693 17.836657 -2.3130803
8.3504524 24.543312 -2.268141
13.795933 40.502144 -2.2423866
2.8943663 8.4489355 -2.3930409
3.3714986 9.830554 -2.399328
4.0261426 11.726013 -2.4099178
4.8829346 14.213295 -2.3803072
6.1153769 17.780529 -2.3086929
8.4351568 24.497471 -2.2667465
2.9194205 8.4403114 -2.3930409
3.398104 9.8131409 -2.3975284
4.0518055 11.694318 -2.40572
4.9231405 14.193148 -2.3793685
6.1687636 17.764181 -2.3089368
8.5025663 24.457281 -2.265352
13.958773 40.12925 -2.2266858
2.9452329 8.4149675 -2.3888998
3.4316912 9.7993803 -2.3970783
4.0894465 11.664566 -2.402667
4.9731688 14.169414 -2.3784299
6.2366581 17.759394 -2.3111303
8.5773201 24.397377 -2.262563
2.9726529 8.3991709 -2.3873467
3.4662807 9.7830639 -2.3961787
4.1262002 11.639118 -2.4003773
5.0133467 14.125908 -2.3740497
6.30193 17.74687 -2.3123491
8.6530828 24.341007 -2.2601228
14.179946 39.843933 -2.216428
3.0004876 8.3892679 -2.3873467
3.4973927 9.7678461 -2.3952789
4.1634474 11.621675 -2.3996141
5.0528235 14.088753 -2.3706081
6.3701291 17.752035 -2.3157616
8.7256651 24.28968 -2.2580309
3.0282931 8.3792706 -2.3873467
3.5198176 9.7287064 -2.3885303
4.1992941 11.600421 -2.3980875
5.0948019 14.058919 -2.368418
6.4334145 17.733419 -2.3162489
8.8076849 24.251581 -2.2573338
20.346228 55.931183 -1.0388719
3.0603092 8.3717461 -2.3883822
3.5537584 9.7163601 -2.3885303
4.2336807 11.562829 -2.3935082
5.1374683 14.016036 -2.3643508
6.5014243 17.727631 -2.3184426
8.8840513 24.198244 -2.2552419
14.520573 39.508343 -2.2059608
20.555159 55.89735 -1.0395701
3.0861681 8.3519506 -2.3857942
3.5859644 9.6941328 -2.3862808
4.2692499 11.535091 -2.390837
5.1822352 13.986909 -2.3624737
6.5787868 17.737185 -2.32283
8.9545841 24.129732 -2.2517557
20.780794 55.877869 -1.0406172
3.1071858 8.3194122 -2.3795824
3.6225135 9.6888561 -2.3880804
4.3053536 11.509088 -2.3885472
5.217175 13.931733 -2.3562162
20.010927 53.407906 7.0028567
6.62254 17.665783 -2.3164928
9.038765 24.098326 -2.2517557
14.655627 39.032051 -2.1850264
3.140985 8.321166 -2.3832059
3.6466663 9.650631 -2.3817818
4.3420329 11.484805 -2.3866391
5.2566819 13.889421 -2.3521488
6.6300149 17.499619 -2.2977247
9.1072874 24.025642 -2.247921
3.1686373 8.3065414 -2.3821707
3.6758721 9.6312027 -2.3799822
4.3820992 11.469578 -2.3866391
5.2956624 13.85346 -2.3490202
6.6347966 17.33849 -2.2794445
9.1811256 23.967657 -2.2454805
23.015455 59.988628 -1.1215265
3.1989458 8.3031979 -2.3842413
3.705961 9.6092224 -2.3777328
4.4137516 11.438498 -2.3832045
5.3382907 13.82015 -2.3465173
6.6444449 17.183767 -2.2621388
9.2476091 23.903633 -2.2423429
14.98464 38.692825 -2.1745594
22.961376 59.259369 -1.1093099
3.2251048 8.2847805 -2.3821707
3.7378085 9.596879 -2.3777328
4.4443793 11.399243 -2.3782434
5.3790693 13.789488 -2.3443272
6.6494088 17.028503 -2.2445898
9.3222942 23.848936 -2.2402511
15.066319 38.523869 -2.16786
3.2454908 8.2560606 -2.3769941
3.7698557 9.5801468 -2.376833
4.4749613 11.366176 -2.3744273
5.4199247 13.752251 -2.3411984
6.656353 16.872236 -2.2270405
9.3937721 23.786602 -2.237462
15.188216 38.439468 -2.1660807
22.934704 57.985626 -1.0884367
3.2750142 8.2423153 -2.3764765
3.7996769 9.5578747 -2.3745835
4.5144105 11.344227 -2.3732824
5.4593315 13.704764 -2.3365054
6.6600833 16.710596 -2.20876
9.4693689 23.735159 -2.235719
15.342346 38.416931 -2.1679649
22.905491 57.325844 -1.0775465
3.3109636 8.2487612 -2.3816531
3.8303216 9.5330353 -2.3718839
4.550324 11.31929 -2.3713744
5.499022 13.665467 -2.3330638
6.6686292 16.55534 -2.1914546
9.5417309 23.676092 -2.2332788
15.401642 38.177914 -2.1574976
22.907276 56.72604 -1.067843
3.3353839 8.2264109 -2.3785472
3.8577144 9.5051603 -2.3682847
4.58464 11.290603 -2.3687029
5.5414867 13.633378 -2.3308737
6.6710129 16.395897 -2.173418
9.6213188 23.635256 -2.2325814
15.506146 38.053646 -2.1535201
22.871035 56.071732 -1.0570225
3.3648098 8.216507 -2.3790648
3.895303 9.5024557 -2.3709843
4.6165719 11.256369 -2.364887
5.5837941 13.601158 -2.3286836
6.6852007 16.267851 -2.1595249
9.6871004 23.560986 -2.2287467
15.638895 37.999283 -2.1535201
3.3868272 8.1886444 -2.3744061
3.9223201 9.4786835 -2.3682847
21.046545 50.835991 2.8835022
4.6513309 11.2293 -2.3625972
5.6144886 13.547898 -2.3227391
6.698041 16.146578 -2.146363
9.769269 23.527033 -2.2287467
15.751038 37.914009 -2.1516361
21.096085 50.730049 -0.95900971
3.416194 8.1827154 -2.3759589
3.9523797 9.4577408 -2.3664851
4.6892977 11.215627 -2.3629787
5.6556482 13.513638 -2.3202362
6.7520494 16.117609 -2.1456318
9.8318377 23.457756 -2.2252605
15.835352 37.744617 -2.1451464
3.443984 8.1689625 -2.3754413
22.749842 53.961517 1.0221875
3.9791749 9.4338093 -2.3637857
4.7238355 11.188339 -2.3606889
5.6919713 13.474793 -2.3167946
6.7985082 16.078674 -2.1434383
9.9167728 23.43063 -2.2259576
15.913716 37.581547 -2.1388662
22.8144 53.825672 -1.0204421
3.4733217 8.1628294 -2.3769941
22.723465 53.377636 1.0126235
4.0090289 9.4126892 -2.3619862
4.7532125 11.154552 -2.3568728
5.733551 13.442122 -2.3146045
6.8382273 16.016504 -2.1383197
9.9937868 23.384886 -2.2249119
16.036961 37.507401 -2.1378195
22.813276 53.304508 -1.0120651
3.4994047 8.1411705 -2.3744061
22.731167 52.882793 1.0047351
4.0403194 9.3950586 -2.3610861
4.7863097 11.11902 -2.3530567
5.7819958 13.419204 -2.3142917
6.8642359 15.923264 -2.1290576
10.065888 23.327904 -2.22282
16.123632 37.331024 -2.1311202
22.816782 52.802345 -1.0040369
3.5216465 8.114728 -2.3702648
22.71619 52.318542 0.99558997
4.071619 9.3730383 -2.3592868
4.8219557 11.095045 -2.3515301
5.8224959 13.38445 -2.3117888
6.9003582 15.847039 -2.1222329
10.148143 23.283545 -2.2221227
16.225115 37.208603 -2.1273522
22.798988 52.234516 -0.99482208
3.5513668 8.1017647 -2.3702648
22.7076 51.803051 0.98728263
4.1027489 9.3551979 -2.3583868
4.8602242 11.071903 -2.3503854
5.8603921 13.337699 -2.3074086
6.917284 15.735628 -2.1105335
10.216513 23.218803 -2.2193336
16.350103 37.123299 -2.1258867
22.789265 51.719097 -0.98651469
3.5743053 8.0811119 -2.3676767
22.726435 51.357742 0.98030168
4.1298599 9.3283443 -2.3552375
4.8945251 11.050341 -2.3492403
5.900589 13.309161 -2.3058443
6.9383554 15.635177 -2.1002965
10.295076 23.188435 -2.2196825
16.409864 36.926506 -2.1177223
22.775436 51.226627 -0.97855645
3.6095827 8.0844603 -2.3723354
22.686295 50.810989 0.97129625
4.1544108 9.3003645 -2.3516383
4.9250584 11.015265 -2.3454244
5.9350095 13.267883 -2.3020899
6.9690704 15.564978 -2.0939593
10.359655 23.115997 -2.2161963
16.525681 36.857311 -2.1168849
22.770697 50.738152 -0.97073776
3.6300261 8.0583544 -2.3681943
22.656458 50.272072 0.96250021
4.1932559 9.3000193 -2.3552375
4.9518747 10.977395 -2.3408449
5.9796591 13.243486 -2.3014641
7.0249996 15.544173 -2.0944467
10.432965 23.074257 -2.2154989
16.654245 36.799397 -2.1168849
3.6437347 8.0139809 -2.3588769
22.719208 49.945122 0.95775318
4.2208529 9.274683 -2.3525381
4.9877152 10.954687 -2.3397002
6.0094705 13.186581 -2.2952068
7.0660315 15.490662 -2.0905468
10.501872 23.01232 -2.2130587
16.782591 36.741039 -2.1168849
22.810061 49.890507 -0.95754373
3.6765232 8.0117474 -2.3619826
22.925129 49.93457 0.95907956
4.2475061 9.2474966 -2.3493888
5.0218272 10.928288 -2.3377919
6.0472064 13.147578 -2.292078
7.1159139 15.456883 -2.0893283
10.573795 22.957426 -2.2113154
16.838837 36.526245 -2.1078832
23.052763 49.959476 -0.96040595
3.7093401 8.0093822 -2.3650885
23.132889 49.926834 0.96047574
4.2740254 9.2202368 -2.3462396
5.0591207 10.908911 -2.3374104
6.0963936 13.133554 -2.2933295
7.1790152 15.451757 -2.0920093
10.655553 22.923986 -2.2116642
16.954414 36.441902 -2.1064177
23.2743 49.980209 -0.96236062
3.7356381 7.9928861 -2.3640532
23.344305 49.925472 0.96201152
4.3070126 9.2070255 -2.3466892
5.0888443 10.873404 -2.3335941
6.155612 13.140814 -2.2983353
7.1948395 15.352369 -2.0817723
10.733822 22.883041 -2.2113154
17.039087 36.292099 -2.1011841
23.494339 50.018593 -0.96459454
3.7588263 7.9734654 -2.3619826
23.567755 49.970768 0.96438509
4.3341885 9.185647 -2.3448899
5.115653 10.83694 -2.3293962
6.19662 13.114972 -2.2973969
7.2414656 15.319454 -2.0805535
10.796008 22.818508 -2.2085266
17.159353 36.235394 -2.1011841
23.660067 49.940407 -0.96459454
3.7769532 7.9435091 -2.3568065
23.760809 49.95013 0.96550202
4.3679729 9.1782627 -2.3466892
5.1498766 10.81637 -2.3286331
6.2417741 13.097919 -2.2980225
7.3145556 15.335289 -2.0861595
10.861317 22.761005 -2.2064347
17.248423 36.113411 -2.0974159
23.84631 49.882778 -0.96508318
3.8038244 7.9285336 -2.3562887
23.973089 49.946213 0.96703786
4.3923945 9.1471472 -2.3426404
5.1825032 10.787708 -2.3263433
6.2823176 13.065372 -2.2961452
7.357708 15.2882 -2.0832345
10.937239 22.715775 -2.2057374
17.383041 36.07098 -2.0984626
24.068953 49.900089 -0.96703786
3.8306298 7.9134712 -2.3557711
24.192623 49.955811 0.96885294
4.4166527 9.1159754 -2.3385913
5.2192693 10.767787 -2.3259618
6.3347864 13.057578 -2.2986481
7.4014955 15.242781 -2.0805535
11.039976 22.725843 -2.210444
17.411041 35.808903 -2.0867395
24.29023 49.912868 -0.96892267
3.8565364 7.8965788 -2.3547359
24.424807 49.989635 0.97115666
4.4475884 9.098752 -2.3381412
5.2456098 10.726577 -2.3210008
6.3837991 13.042485 -2.2998998
7.4223485 15.15089 -2.0715353
17.495478 35.665421 -2.0819247
24.487215 49.874454 -0.96983027
3.8780985 7.8709393 -2.3511124
24.63274 49.972233 0.97248304
4.4750152 9.0744324 -2.3358917
5.274332 10.690596 -2.3171847
6.4415345 13.044916 -2.3042798
7.4699092 15.114213 -2.0700727
11.108289 22.466043 -2.1926641
17.641121 35.647099 -2.0844367
24.703943 49.896912 -0.97185469
3.9012525 7.8487039 -2.3485241
24.84281 49.979813 0.97422826
4.5059485 9.0612879 -2.3363416
5.3098702 10.668602 -2.3164213
6.488277 13.030559 -2.3055315
7.5075903 15.064487 -2.0666604
11.160848 22.375431 -2.187609
17.705719 35.481178 -2.0781562
24.920868 49.896236 -0.97353011
3.9246638 7.8305416 -2.3469713
25.083464 50.025063 0.97681117
4.5305586 9.0315704 -2.3327425
5.3399382 10.640406 -2.3141315
6.5328336 13.006067 -2.3052187
7.5440836 15.006263 -2.0622733
11.269 22.405937 -2.1942329
17.789961 35.34066 -2.0735509
25.130867 49.880383 -0.97492635
3.9563298 7.8254147 -2.3495593
25.279581 49.980034 0.97764891
4.5576601 9.0070057 -2.330493
5.3752723 10.618199 -2.3133683
6.5594473 12.946177 -2.2986481
7.5533214 14.894858 -2.0505736
11.338135 22.348694 -2.1924899
17.936716 35.32465 -2.0762722
25.353764 49.888615 -0.97681117
3.9836199 7.8115578 -2.3495593
25.499344 49.980545 0.9793942
4.5846453 8.9823618 -2.3282435
5.4087305 10.592378 -2.3118417
6.5749359 12.865154 -2.2883236
7.6215439 14.900211 -2.0549612
11.419714 22.316072 -2.193187
17.945206 35.037834 -2.0630836
25.54414 49.831856 -0.97743952
4.0055628 7.7872953 -2.3464534
25.715706 49.973038 0.98099977
4.6186457 8.9715023 -2.3295932
5.4321904 10.547252 -2.3061175
6.593554 12.791208 -2.2792504
7.6735129 14.873514 -2.0549612
11.486571 22.254829 -2.1910954
18.058243 34.95723 -2.0620368
25.806107 49.912907 -0.98079032
4.0220442 7.7526898 -2.3402419
25.963697 50.024956 0.98379219
4.6472421 8.9501352 -2.3282435
5.4716878 10.533454 -2.3072627
6.5916953 12.678726 -2.263294
7.7033825 14.804379 -2.0491114
11.551311 22.189854 -2.1886549
18.121071 34.780636 -2.0553379
4.0517707 7.7437372 -2.3417947
26.138172 49.934013 0.98379219
4.6730251 8.9235039 -2.3255439
5.505692 10.50907 -2.3061175
6.5964584 12.580418 -2.2498407
7.7614741 14.789702 -2.0508175
11.630535 22.152933 -2.1890037
18.249807 34.731308 -2.0561752
26.247015 49.908516 -0.98428082
4.0724673 7.7175856 -2.3381712
26.372049 49.95565 0.98602605
4.6995978 8.8985205 -2.3232944
5.5386772 10.482844 -2.3045912
6.5987816 12.478732 -2.2357616
7.8037634 14.744976 -2.0483801
11.692882 22.084024 -2.1862147
18.368118 34.662098 -2.0558612
26.479801 49.948421 -0.98679399
4.101192 7.7067361 -2.3392065
4.7299991 8.8846073 -2.3237445
5.5687647 10.451322 -2.3019197
6.5992441 12.380079 -2.2219954
7.8096318 14.638452 -2.0371683
11.760519 22.025496 -2.1844714
18.460371 34.558723 -2.053349
26.642693 49.834515 -0.98637509
4.1221619 7.6845808 -2.3366184
26.840078 50.014622 0.99077314
4.7582159 8.8628912 -2.3223946
5.5894608 10.406852 -2.2961955
6.6096807 12.296071 -2.211045
7.9001865 14.684523 -2.0474052
11.818392 21.958303 -2.1816826
18.599842 34.529236 -2.0554426
26.872324 49.865585 -0.98874867
4.1452866 7.6633472 -2.334548
27.040049 49.988651 0.99202973
4.789433 8.8504925 -2.3232944
5.6266913 10.389003 -2.2965772
6.6118345 12.202878 -2.1982174
7.9800706 14.715827 -2.0554485
11.893064 21.913416 -2.181334
18.68185 34.407684 -2.0518837
27.086315 49.845284 -0.99021465
4.1687179 7.6396236 -2.3319597
27.254776 49.92659 0.99286741
4.8168449 8.8200636 -2.3201451
5.659081 10.357974 -2.2942874
6.6141019 12.095939 -2.1835127
8.0727262 14.751253 -2.0647106
11.973295 21.86968 -2.181334
18.800385 34.31118 -2.0504184
27.333263 49.842613 -0.99223912
4.1962929 7.6267176 -2.3324773
27.467445 49.901226 0.99426359
4.8391418 8.7878351 -2.3160961
5.6980472 10.343314 -2.2954323
6.6152759 11.998391 -2.1700592
8.1538963 14.776865 -2.0722666
12.039938 21.810305 -2.1795907
18.875603 34.164932 -2.0456035
27.549669 49.823891 -0.99377489
4.2200766 7.6069565 -2.3309245
4.8764114 8.782814 -2.3192453
5.7264891 10.309633 -2.2923794
6.6196833 11.907893 -2.1578572
8.1552448 14.658107 -2.0595922
12.11793 21.771627 -2.1799393
18.944212 34.008102 -2.0401604
27.773138 49.83707 -0.99586928
4.2428336 7.5854335 -2.3288538
27.952929 49.974876 0.99949938
4.9074111 8.7699976 -2.3201451
5.7557292 10.277589 -2.2897081
6.6234083 11.822113 -2.146281
8.2057543 14.634443 -2.0600796
12.176298 21.697926 -2.1768019
19.064714 33.959019 -2.0409977
27.984142 49.806072 -0.99719566
4.2689118 7.5730062 -2.3293715
28.176281 49.964108 1.0012445
4.9427843 8.7612982 -2.3223946
5.7839875 10.248188 -2.2874184
6.6316061 11.740441 -2.1356435
8.2294254 14.557331 -2.0532548
12.240344 21.643549 -2.1754072
19.149664 33.833179 -2.0374389
28.218948 49.815952 -0.99935967
4.2972283 7.5614195 -2.3304069
28.350531 49.865444 1.0012445
4.960814 8.7219696 -2.316546
5.8226357 10.233056 -2.2885633
6.6373601 11.655423 -2.1243804
8.2674141 14.506091 -2.0500863
12.313852 21.597225 -2.1750586
19.267656 33.766125 -2.0374389
28.434309 49.790089 -1.0008258
4.3216772 7.5430193 -2.3293715
28.623875 49.939659 1.0047351
4.9815297 8.6876974 -2.312047
5.8583231 10.212667 -2.2885633
6.6632438 11.606491 -2.1196871
8.282402 14.415179 -2.0413115
12.391136 21.557573 -2.1754072
19.337612 33.615559 -2.0324149
28.743639 49.926212 -1.0055728
4.3460436 7.5245452 -2.3283362
28.848036 49.926018 1.0064802
5.0128031 8.6719427 -2.3124969
5.886076 10.178557 -2.2855103
6.7007518 11.57803 -2.1187487
8.315752 14.35698 -2.0371683
12.448337 21.483156 -2.1722698
19.444807 33.530579 -2.031368
28.943848 49.870533 -1.0064802
4.367424 7.5009804 -2.325748
5.0440226 8.6560764 -2.3129468
5.9156303 10.147778 -2.2832205
6.7461014 11.563103 -2.1203129
8.3648195 14.326149 -2.0369244
12.525267 21.44301 -2.1726184
19.521421 33.393524 -2.0271811
29.109056 49.774284 -1.0064802
4.3886938 7.4773583 -2.3231599
29.339035 49.987186 1.011716
5.0677638 8.6309004 -2.3106971
5.9520144 10.128757 -2.2836022
6.7824092 11.53726 -2.1196871
9.1712656 15.588382 -2.2207034
12.587905 21.378559 -2.1705265
19.581362 33.242565 -2.0219476
29.420725 49.906654 -1.0112274
4.4203515 7.474402 -2.3267834
29.578499 49.994625 1.0139499
5.0998473 8.6165104 -2.3115969
5.9875731 10.112341 -2.2843654
6.7914205 11.460835 -2.1099885
9.2235956 15.552861 -2.2202158
12.644493 21.312712 -2.1680863
19.705429 33.187752 -2.0227849
29.627453 49.858658 -1.0123444
4.4414673 7.4506302 -2.3241951
29.789719 49.952892 1.0152065
5.1229072 8.5869398 -2.3084476
6.0268583 10.098124 -2.2858918
6.7989731 11.382788 -2.0999765
9.2676477 15.503529 -2.2177784
12.722906 21.27528 -2.1687834
19.81501 33.108479 -2.0221567
29.821856 49.789249 -1.0130423
4.471426 7.4417062 -2.3262658
29.963894 49.848606 1.0152065
5.1458182 8.5573168 -2.3052983
6.0580196 10.070296 -2.2843654
6.7999454 11.294678 -2.0880876
9.3145399 15.459178 -2.2160723
12.780633 21.20344 -2.1659944
19.909838 33.004902 -2.0200636
30.047136 49.770454 -1.0147877
4.4923701 7.4177914 -2.3236775
5.1726298 8.5343018 -2.3039486
6.0961866 10.054126 -2.2855103
6.7706728 11.157723 -2.0671253
9.3663826 15.423179 -2.2155848
12.846298 21.145073 -2.1645999
20.000015 32.894249 -2.0175514
30.293459 49.784832 -1.017231
4.5182376 7.4020638 -2.3236775
5.2074661 8.5245094 -2.3061984
6.1220345 10.017707 -2.2820759
6.8044238 11.125596 -2.0655608
9.4077234 15.370075 -2.2126598
12.915864 21.093309 -2.1639028
20.114725 32.824226 -2.0175514
30.53186 49.784485 -1.0193951
4.5349398 7.3714371 -2.3190186
30.693872 49.872707 1.0221875
5.2331061 8.4996405 -2.3043985
6.1528492 9.9895878 -2.2805493
6.8090158 11.046284 -2.0552363
9.4654846 15.343904 -2.213635
12.976864 21.027744 -2.1618109
20.20397 32.713047 -2.0150392
30.753834 49.75584 -1.0210007
4.5616593 7.3572049 -2.3195364
30.905727 49.826431 1.0234441
5.2524667 8.4647655 -2.2998996
6.1814666 9.9580421 -2.2782595
6.8152208 10.97043 -2.0455372
9.5022202 15.283792 -2.2097349
13.043877 20.972164 -2.1607652
20.254717 32.540577 -2.0087588
30.990751 49.750034 -1.023095
4.5852675 7.3379583 -2.318501
31.251175 49.992947 1.0290986
5.2809467 8.4447269 -2.2994497
6.2245221 9.9497175 -2.2813125
6.8691902 10.971693 -2.0502305
9.551301 15.2438 -2.20876
13.104292 20.906256 -2.1586735
20.35121 32.442604 -2.0070841
31.232285 49.749939 -1.0253289
4.6015835 7.3071995 -2.3138423
5.3145509 8.4328346 -2.3012493
6.2497849 9.9129877 -2.277878
6.8326092 10.829032 -2.0280166
9.5964899 15.203655 -2.2075415
13.17081 20.850275 -2.1576276
20.453651 32.354488 -2.0060375
31.437698 49.710323 -1.0266553
4.6237226 7.2886362 -2.3128071
5.3341322 8.4020023 -2.2976501
6.2931509 9.9087772 -2.2816939
6.886498 10.834654 -2.0333354
9.6468592 15.171745 -2.2075415
13.235606 20.799759 -2.1569302
20.539368 32.252796 -2.0039439
31.677593 49.723843 -1.0290986
4.656188 7.2862873 -2.3169482
5.3609138 8.3826275 -2.2972002
6.3365536 9.9043941 -2.2855103
6.9351687 10.831721 -2.0370898
9.6944084 15.12962 -2.2063227
13.297361 20.736668 -2.1551871
20.607397 32.123985 -2.0001757
31.926556 49.730782 -1.0315419
4.6744943 7.2561789 -2.3128071
32.145435 49.899094 1.0360795
5.3827505 8.352397 -2.2940509
6.3706923 9.877799 -2.2847471
23.984097 37.173294 3.8704121
6.9309001 10.738185 -2.0242622
9.7407055 15.08568 -2.2048604
13.371834 20.693468 -2.1555357
20.698961 32.007992 -1.9976636
32.158623 49.70969 -1.0334269
4.6987405 7.2381978 -2.3122892
5.4154491 8.3358822 -2.2949507
6.4083357 9.8604441 -2.2858918
6.9511065 10.687433 -2.0192564
9.7872658 15.036571 -2.2029104
13.43672 20.627623 -2.1537926
20.775679 31.88199 -1.9943142
32.403965 49.688629 -1.0354513
4.7273564 7.2241602 -2.3133247
32.611179 49.835117 1.0395701
5.4413137 8.3120346 -2.2936008
6.4390559 9.8286762 -2.2839837
24.162121 36.867401 3.8564672
6.9393282 10.584239 -2.0045516
9.8309803 14.989037 -2.2009606
13.504264 20.573933 -2.1530955
20.879225 31.785599 -1.9930581
32.651882 49.688866 -1.0378249
4.7383389 7.1915259 -2.3076308
5.4688458 8.2939453 -2.2936008
6.4796343 9.8231468 -2.2874184
24.238312 36.731453 3.8501921
6.9856029 10.58217 -2.0083058
9.877346 14.951388 -2.2002294
13.565827 20.519064 -2.1520495
20.987791 31.733183 -1.9938955
32.962181 49.800415 -1.0424323
4.7635946 7.1725025 -2.3071132
5.4912958 8.2650652 -2.2909014
6.4884167 9.758462 -2.277878
7.0363817 10.574584 -2.0117474
9.9228802 14.906899 -2.1987669
13.632948 20.464954 -2.1513524
33.21125 49.798187 -1.0448058
4.799345 7.1718869 -2.3122892
33.409351 49.906322 1.0482962
5.5172162 8.2384052 -2.2891018
6.5104232 9.7178106 -2.27368
7.0358524 10.494171 -2.0011098
9.9682236 14.862277 -2.1973045
13.697643 20.407312 -2.1503065
20.020473 29.804869 -1.8816872
33.431732 49.751663 -1.0462718
4.8166218 7.1463223 -2.3091838
5.5488629 8.2265282 -2.2909014
6.5107608 9.6489763 -2.2626133
7.0728226 10.474058 -2.0017357
10.002999 14.807763 -2.1941359
13.751847 20.341972 -2.1482146
20.163973 29.804474 -1.8858739
33.641354 49.706768 -1.047668
4.8359551 7.1239152 -2.3071132
5.5717349 8.2016325 -2.2891018
6.5129294 9.5834904 -2.2523096
7.1030765 10.444011 -2.0004842
10.052397 14.76947 -2.1936483
13.803536 20.273199 -2.1457744
33.882244 49.688171 -1.0497622
4.8575225 7.1022062 -2.3055601
34.082222 49.813114 1.053532
5.5981226 8.1789207 -2.2882023
6.516398 9.5169582 -2.2420058
7.1673965 10.459894 -2.0083058
10.099403 14.72774 -2.1926734
13.856171 20.198612 -2.1429853
21.492258 31.306534 -1.9901272
34.137024 49.688259 -1.0522754
4.8811903 7.0836148 -2.3050425
34.369377 49.858494 1.0570225
5.6222153 8.1529112 -2.2864025
6.5272841 9.4618311 -2.2343736
7.1780558 10.397421 -2.0011098
10.153005 14.695664 -2.1931608
13.922067 20.143564 -2.1422882
21.510508 31.099913 -1.9817535
34.392216 49.687172 -1.0547886
4.9069834 7.0681238 -2.3055601
5.6461902 8.1268358 -2.2846029
6.5255322 9.3890181 -2.2225432
7.2582979 10.435546 -2.0133119
10.196306 14.648727 -2.1914546
13.98547 20.085028 -2.1412423
21.580118 30.968918 -1.9781946
34.661495 49.704624 -1.0577205
4.9360571 7.0572829 -2.3076308
5.6745262 8.1070757 -2.2846029
6.5312419 9.3275833 -2.2133844
7.375164 10.525007 -2.0355256
10.232559 14.591921 -2.1882861
14.044048 20.019779 -2.1394989
21.532028 30.671082 -1.9639592
34.904297 49.70068 -1.0600941
4.9528708 7.0289564 -2.3040073
35.079071 49.7831 1.0630261
5.7036233 8.0914011 -2.2855027
6.5252829 9.2501841 -2.2004094
7.3895226 10.471442 -2.0298939
10.277452 14.553044 -2.1875548
14.106951 19.960871 -2.1384532
21.534439 30.459272 -1.9549574
35.13533 49.660149 -1.0618393
4.9694433 7.0030417 -2.3009014
35.285057 49.705997 1.0640035
5.7307067 8.0698519 -2.285053
6.5274997 9.1884813 -2.1908689
7.3722363 10.369912 -2.0151892
10.331646 14.521932 -2.1882861
14.166131 19.904243 -2.1374075
21.594294 30.318842 -1.9507706
35.310776 49.540466 -1.0619092
4.9927363 6.9840794 -2.3003838
5.7520361 8.0402908 -2.2823534
6.5355372 9.1321144 -2.1828551
7.3140717 10.212427 -1.9895338
10.373026 14.472867 -2.1863363
14.230875 19.8482 -2.1367102
21.658089 30.184856 -1.9470025
35.581451 49.553356 -1.0648412
5.0159545 6.9650426 -2.2998662
5.7800689 8.0201626 -2.2823534
6.5421138 9.0742102 -2.1744595
24.06216 33.36301 3.598835
7.4386735 10.310182 -2.0136247
10.416507 14.426917 -2.1848738
14.303533 19.795902 -2.1367102
21.711832 30.037851 -1.9423969
35.826885 49.529301 -1.0670053
5.041451 6.9466105 -2.2998662
5.8091722 8.0015144 -2.2828033
6.5430188 9.0056973 -2.163774
24.174902 33.261703 3.5974402
7.4218121 10.207758 -1.9989198
10.455123 14.374416 -2.1824365
14.374887 19.749079 -2.1370587
21.779455 29.89995 -1.9386288
36.098469 49.5397 -1.0699372
5.063386 6.9258518 -2.2988307
5.8384624 7.9801679 -2.2828033
6.5349894 8.9289389 -2.150799
24.488605 33.447182 3.6267247
7.4900842 10.226409 -2.0076802
10.510088 14.339198 -2.1829238
14.43196 19.682709 -2.1353157
21.836424 29.759336 -1.9344418
36.256115 49.374832 -1.0692391
5.0806594 6.8988004 -2.2957251
19.085455 25.905815 0.56165338
5.8674369 7.961309 -2.2832532
6.54282 8.8744678 -2.1431668
7.5022774 10.168412 -2.0014229
10.557716 14.299233 -2.1824365
14.493471 19.622601 -2.1342697
21.800093 29.493402 -1.9220905
36.635174 49.527699 -1.0753126
5.1081648 6.8856769 -2.2972779
19.21628 25.893637 0.5628401
5.8905468 7.9345188 -2.2814536
6.5503492 8.8200502 -2.1355343
7.5400853 10.145331 -2.0020485
10.603896 14.262547 -2.1821926
14.561883 19.571884 -2.1342697
21.864723 29.365879 -1.9187411
36.837448 49.457249 -1.0764295
5.1240292 6.859417 -2.294172
19.36429 25.913059 0.56465513
5.9086576 7.9040174 -2.2783043
6.5560403 8.76684 -2.127902
7.4671636 9.9779348 -1.9738904
10.639242 14.211412 -2.1797554
14.63148 19.529869 -2.1349669
21.863749 29.162167 -1.9101579
37.118828 49.491608 -1.0798502
5.1479106 6.8439293 -2.2946897
19.505419 25.922215 0.56626081
5.9348378 7.8843784 -2.2783043
6.5531926 8.7027044 -2.1175983
7.570353 10.046194 -1.9923496
10.674432 14.155176 -2.1768305
14.708168 19.497145 -2.1367102
21.900158 29.009806 -1.9049244
37.373337 49.470219 -1.0822238
5.1682711 6.8212981 -2.2931368
19.65377 25.930458 0.56793618
5.964673 7.866724 -2.2792041
19.596619 25.836315 1.6994532
6.5692954 8.6610041 -2.113019
7.6674719 10.101532 -2.0086186
10.728584 14.124149 -2.1778054
14.743576 19.402863 -2.1320038
21.96261 28.882301 -1.901575
37.632973 49.454048 -1.0847368
5.1897082 6.8001428 -2.2921014
19.775711 25.903027 0.56884372
5.9968295 7.8520484 -2.2810037
19.74732 25.847101 1.704687
6.58638 8.6208582 -2.1088212
7.641499 9.9946709 -1.9926625
10.766962 14.072427 -2.1756117
14.760359 19.284822 -2.1246827
5.2051668 6.7712684 -2.2884779
6.0289574 7.8372445 -2.2828033
6.6212158 8.6040421 -2.1103475
7.6823688 9.9757586 -1.9942267
10.816022 14.034755 -2.1756117
14.819075 19.222134 -2.1234624
38.211918 49.494038 -1.0914385
5.2335043 6.7591662 -2.2905486
6.0515008 7.8099909 -2.2810037
6.65482 8.5855312 -2.1114926
7.2195354 9.307373 -1.8656377
10.858864 13.98907 -2.1743929
14.905631 19.195471 -2.1262515
22.002829 28.314804 -1.8792796
38.524406 49.540298 -1.0954177
5.2523127 6.7347641 -2.2884779
21.462872 27.510813 0.60905409
6.0739326 7.7826738 -2.2792041
6.6968279 8.5777254 -2.1153085
7.7579064 9.9296665 -1.9957911
10.89906 13.940142 -2.1726868
14.979916 19.152737 -2.1272974
22.052286 28.174925 -1.8750929
21.527992 27.485291 -0.60940313
5.268631 6.7072735 -2.2853725
21.529127 27.397984 0.6082164
6.1046734 7.7660217 -2.2805538
6.7036734 8.5249729 -2.108058
7.7424335 9.8388805 -1.9829636
10.940289 13.892651 -2.1712244
15.034345 19.084681 -2.1255541
22.078777 28.006809 -1.8690219
21.569302 27.340904 -0.6078673
5.2872186 6.6827793 -2.2833018
21.542721 27.219181 0.60591269
6.1329522 7.7461934 -2.2810037
6.7272973 8.493824 -2.1061497
7.5313334 9.5021753 -1.9203898
10.986246 13.851269 -2.1707368
15.078587 19.003988 -2.1224165
22.089462 27.820082 -1.8616948
21.570068 27.146452 -0.60521454
5.3093085 6.6627731 -2.2827842
21.455624 26.915516 0.60081655
6.1599565 7.7247372 -2.2810037
6.7373152 8.445735 -2.100044
7.8885746 9.8818483 -2.0026743
11.025861 13.801975 -2.1690307
15.144827 18.951242 -2.1224165
22.151518 27.699125 -1.8587641
21.521 26.891451 -0.60120052
5.331326 6.6426916 -2.2822666
21.453041 26.720394 0.59812891
6.1844411 7.700151 -2.2801039
6.7249494 8.3701286 -2.087069
7.8376117 9.7480288 -1.9810863
11.070242 13.758761 -2.1682997
15.218377 18.907576 -2.1234624
22.270628 27.649624 -1.8606482
21.516857 26.694717 -0.5984779
5.356905 6.6270494 -2.2833018
21.43051 26.502285 0.59491765
6.2112846 7.6785145 -2.2801039
6.7368302 8.3252411 -2.0817263
7.9946651 9.8725891 -2.0120604
24.407022 30.12944 4.7609482
11.108299 13.712728 -2.166837
15.269235 18.835762 -2.1213708
21.494371 26.486582 -0.59540629
5.3788538 6.6092472 -2.2833018
21.463987 26.364399 0.59341675
6.2428679 7.6654286 -2.2823534
6.7520022 8.2876329 -2.0779099
7.9711914 9.7771244 -1.9979812
23.681257 29.036104 4.6005678
11.148698 13.669662 -2.1658623
15.31902 18.769585 -2.1196277
21.494793 26.308304 -0.59299785
5.3860474 6.5734439 -2.2770901
21.46003 26.181715 0.59090358
6.2719584 7.6492057 -2.2837031
6.7508101 8.2302856 -2.0691328
24.439833 29.785316 3.3708355
7.9258633 9.6559734 -1.9785833
23.681669 28.840824 4.5820441
11.190049 13.622989 -2.1646435
15.37431 18.703693 -2.1182332
22.168819 26.959969 -1.8292466
21.502617 26.131214 -0.59069413
5.4113321 6.5551491 -2.2776077
21.451979 25.986378 0.58818102
6.2961378 7.6242623 -2.2828033
24.580631 29.755156 2.0226803
6.759675 8.1797543 -2.0626454
8.0845699 9.7760429 -2.0092444
11.232477 13.577724 -2.1636686
15.431887 18.640703 -2.1171873
22.165539 26.755491 -1.8208727
21.513321 25.958992 -0.58849514
5.4354181 6.5377045 -2.2781253
21.440966 25.779951 0.58528394
6.3202987 7.5966415 -2.2814536
6.7819018 8.1485691 -2.0607371
8.0718679 9.6916037 -1.9976684
11.275808 13.528841 -2.1624498
15.489209 18.577534 -2.1161413
22.14109 26.536869 -1.8112429
21.513475 25.766384 -0.58591223
5.4532466 6.5127659 -2.2760549
21.425516 25.579262 0.58242172
6.3505344 7.5790129 -2.2828033
6.7712107 8.0782022 -2.0489073
8.1158075 9.6754742 -2.0001712
11.307647 13.471156 -2.1595249
15.548835 18.517256 -2.1154442
22.156488 26.367678 -1.8049628
21.492611 25.559502 -0.58291036
5.477191 6.4951682 -2.2765725
21.457945 25.437056 0.58088589
6.3769536 7.5567975 -2.2828033
6.8196282 8.0785217 -2.0550129
8.2247448 9.7361145 -2.0186305
24.458595 28.94286 4.6527281
11.355878 13.433121 -2.1597686
15.603089 18.450691 -2.1140497
22.196777 26.229195 -1.8007758
21.479599 25.36377 -0.58015287
5.4910784 6.4657016 -2.272949
21.470226 25.272079 0.57882649
6.4058156 7.5374632 -2.2837031
6.8477883 8.0546656 -2.0550129
8.2151575 9.6561928 -2.007993
11.400129 13.390374 -2.1592813
15.646728 18.371847 -2.1112607
22.200111 26.048185 -1.7936581
21.487558 25.1943 -0.5779888
5.5123572 6.4450278 -2.2724314
21.449104 25.069353 0.57589447
6.4295511 7.5120974 -2.2828033
6.877141 8.0322018 -2.0553946
8.2706614 9.6529608 -2.0133119
11.444214 13.347486 -2.1587937
15.697786 18.301998 -2.1095176
22.160814 25.818981 -1.783191
21.498507 25.029636 -0.5759294
5.5360842 6.4272089 -2.272949
21.421621 24.861013 0.57282293
6.4391923 7.4704204 -2.2769547
6.9192376 8.0245047 -2.0595925
7.7377791 8.9674759 -1.8759624
11.477765 13.292428 -2.1563563
15.761581 18.247087 -2.1095176
21.494162 24.848576 -0.57348609
5.5622807 6.4122238 -2.2745018
21.423077 24.687918 0.57055408
6.4447918 7.4243498 -2.2697561
6.9188857 7.9676929 -2.0511968
8.3313713 9.5875301 -2.0117474
11.510058 13.240813 -2.1541626
15.822558 18.188953 -2.109169
22.175295 25.473831 -1.7700024
21.477949 24.664066 -0.57086825
5.5746207 6.3835559 -2.2708783
21.445618 24.548973 0.56898338
6.4539909 7.3853273 -2.2643573
6.945272 7.9447036 -2.0511968
8.3696251 9.5672817 -2.0133119
11.553907 13.202568 -2.1541626
15.877544 18.130384 -2.1084716
22.217516 25.352093 -1.7666527
21.469986 24.49045 -0.56849468
5.5893803 6.3577824 -2.2682903
21.437117 24.37561 0.56660986
6.4604235 7.343401 -2.2580585
6.9522028 7.8968353 -2.0450909
8.324276 9.452013 -1.9948525
11.606482 13.169606 -2.1553814
15.914381 18.044962 -2.1049855
21.485207 24.335901 -0.56664473
5.6126475 6.3372517 -2.2682903
21.425526 24.183126 0.5639571
6.4640284 7.2934241 -2.2499604
6.9654689 7.8536735 -2.0405114
8.4060564 9.4746351 -2.0061157
11.64677 13.11807 -2.153919
15.977762 17.983536 -2.1046369
21.469263 24.13895 -0.56388724
5.6332626 6.313756 -2.2672548
21.416821 23.995522 0.56140906
6.4686508 7.2449732 -2.2423122
7.0150728 7.8542056 -2.046999
8.4157124 9.4157801 -2.0001712
11.678886 13.05754 -2.1509941
16.035131 17.921711 -2.1039395
21.524265 24.039791 -1.6910795
21.468014 23.968525 -0.56165338
5.6668901 6.3069859 -2.2719138
21.422773 23.842552 0.55948925
6.4678907 7.1959429 -2.2337639
6.9991217 7.7814994 -2.0344057
8.4244318 9.3628559 -1.9948525
11.71947 13.015786 -2.1505065
16.108248 17.877481 -2.105334
21.504921 23.858494 -1.6833339
21.457777 23.789513 -0.55921
5.665741 6.2638035 -2.2631137
21.438766 23.693502 0.55774403
6.4720483 7.1502042 -2.2265656
7.0433354 7.7786231 -2.0397482
8.5034885 9.3846226 -2.0058029
11.766156 12.976276 -2.1507504
16.14603 17.800348 -2.102545
21.483349 23.667946 -1.6751696
21.461369 23.627129 -0.5571506
5.6862698 6.2425613 -2.2625961
21.418987 23.506182 0.55509126
6.4799032 7.1088443 -2.220717
6.9963651 7.6727514 -2.0183775
8.5548382 9.375309 -2.0101831
11.806029 12.929259 -2.1497755
16.197323 17.732109 -2.1011508
21.495771 23.516146 -1.6697265
21.462725 23.463543 -0.55505633
5.7106385 6.2255201 -2.2636313
21.411671 23.334034 0.55278754
6.4783177 7.0574746 -2.2117188
7.0921564 7.7234764 -2.0382218
8.5834961 9.341033 -2.0092444
11.849749 12.886505 -2.1495316
16.245621 17.660809 -2.0994074
21.485752 23.34104 -1.6626089
21.461857 23.298758 -0.55292714
5.7362661 6.2098064 -2.2651844
21.421068 23.181305 0.55093753
6.476459 7.006196 -2.2027209
7.1590595 7.7419176 -2.0496705
8.6267853 9.3226099 -2.0117474
11.889262 12.839241 -2.1485567
16.299049 17.595219 -2.0983615
21.477476 23.169231 -1.6557004
21.464184 23.138666 -0.55090266
5.7634029 6.197825 -2.2677724
21.418823 23.025229 0.54891312
6.4810729 6.9647064 -2.1964221
7.1632881 7.6951447 -2.0435643
8.6590023 9.2953949 -2.0120604
11.930422 12.798287 -2.1483128
16.354593 17.538153 -2.0980129
21.464262 23.001499 -1.6487921
21.456163 22.976759 -0.54873854
5.7757607 6.1677966 -2.264149
21.40064 22.845238 0.54639995
6.4840226 6.9192901 -2.1892235
7.1592259 7.6371479 -2.0347872
8.6913948 9.2651138 -2.0120604
11.976381 12.758016 -2.1485567
16.408892 17.4737 -2.0971413
21.478765 22.856575 -1.6437678
21.443089 22.802658 -0.54636502
5.7919555 6.1419749 -2.2620785
21.415758 22.702036 0.54475939
6.4880757 6.8753533 -2.1824751
7.165628 7.5906949 -2.029063
8.7141895 9.2246647 -2.0098703
12.02084 12.716135 -2.1485567
16.461578 17.407627 -2.0960956
21.46781 22.685722 -1.6368595
21.444187 22.644901 -0.54437548
5.8067079 6.114717 -2.2594905
21.406734 22.534349 0.54252553
6.4905519 6.8300657 -2.1752765
7.1758475 7.548562 -2.0244837
8.7517805 9.1999178 -2.0111217
12.065157 12.674094 -2.1485567
16.486513 17.312548 -2.0915635
21.472469 22.532566 -1.6312072
21.452715 22.496107 -0.54259533
5.8360291 6.1027861 -2.2625961
21.385731 22.355453 0.54001236
6.4847145 6.7763925 -2.1653788
7.264606 7.5887027 -2.042038
8.6881838 9.0694609 -1.9892209
12.112068 12.634768 -2.1490443
16.570286 17.279345 -2.0945268
21.465258 22.368122 -1.6247176
21.452412 22.346949 -0.54071045
5.8519316 6.0768151 -2.2605255
21.413969 22.236885 0.5388605
6.4963369 6.7436213 -2.1617796
7.2787824 7.5505824 -2.0386035
8.6949034 9.0164251 -1.9839021
12.142869 12.583108 -2.1470942
16.630505 17.221394 -2.0945268
21.46159 22.216391 -1.618856
21.44273 22.181345 -0.53851146
5.8720527 6.0573745 -2.2605255
21.396803 22.064379 0.53648698
6.5035558 6.7041178 -2.1563809
7.2805395 7.502449 -2.0321159
8.7566023 9.0171938 -1.9907852
12.186721 12.540642 -2.1470942
16.670862 17.149004 -2.0924351
21.458242 22.058304 -1.612785
21.446095 22.030426 -0.53666151
5.886415 6.0299263 -2.2579374
21.381487 21.895124 0.53418326
6.4915075 6.6451354 -2.1446834
7.3423624 7.5134954 -2.042038
8.8184032 9.0176487 -1.9976684
12.231815 12.499443 -2.1473379
16.705521 17.065088 -2.0892975
21.452654 21.899082 -1.6066093
21.438877 21.869743 -0.53456724
5.9101319 6.0121021 -2.2589729
21.391882 21.753349 0.53254277
6.5023665 6.6099315 -2.1406343
7.3162117 7.4346509 -2.0275364
8.8027039 8.9389563 -1.9870309
12.273974 12.455256 -2.1470942
16.764992 17.006668 -2.0892975
21.457426 21.751553 -1.601271
21.437828 21.716499 -0.53264749
5.9270062 5.9873142 -2.2574198
21.394524 21.60465 0.53072768
6.5020828 6.5636592 -2.1329858
7.3352103 7.402092 -2.0256283
8.7211857 8.7945623 -1.9616885
12.308991 12.40388 -2.1456318
16.796177 16.919765 -2.0858111
21.455812 21.598583 -1.5955142
21.445818 21.573477 -0.530972
5.9546909 5.9734282 -2.2600081
21.385082 21.444885 0.52863342
6.5070653 6.5229855 -2.1271372
7.379035 7.3945069 -2.0305893
8.8104582 8.8227701 -1.974829
12.355019 12.363649 -2.1461194
16.883312 16.889212 -2.0892975
21.456205 21.448723 -1.5899665
21.426718 21.41177 -0.52873808
5.9659238 5.9430637 -2.2563846
21.39657 21.314583 0.52716738
6.5093269 6.4821215 -2.1208386
7.3727927 7.3368545 -2.0218122
8.7976513 8.7517128 -1.9654428
12.39313 12.319814 -2.1456318
16.913898 16.802086 -2.0858111
21.457766 21.308498 -1.5848376
21.426105 21.262188 -0.52688813
5.9773617 5.9150925 -2.2532787
21.384129 21.153973 0.52503818
6.5152884 6.4429154 -2.1154397
7.3705559 7.2861385 -2.0145614
8.8548508 8.747324 -1.9713873
12.436063 12.276475 -2.1456318
16.969519 16.745909 -2.0858111
21.449541 21.152124 -1.5787667
21.4247 21.112881 -0.52503818
6.0021062 5.8982553 -2.2548318
21.367964 20.990919 0.52283919
6.5182714 6.4010196 -2.1091411
7.426765 7.2906251 -2.0229571
8.8994303 8.730197 -1.974516
16.999407 16.658686 -2.082325
21.449049 21.004452 -1.5733237
21.419655 20.961048 -0.52311844
6.0268044 5.8813167 -2.2563846
21.380991 20.85755 0.52137315
6.5182552 6.3564572 -2.1019428
7.4142103 7.2276564 -2.0126534
8.9199476 8.6894283 -1.972326
7.5005064 7.3041253 -1.2854779
17.043179 16.585346 -2.0805819
21.447775 20.85705 -1.5678807
21.430265 20.832748 -0.52168733
6.0823402 5.8962574 -2.2698431
21.372488 20.71139 0.51948833
6.5336976 6.3293843 -2.100143
7.4635258 7.227612 -2.0195224
8.9728441 8.6831551 -1.9776447
7.4961538 7.2516069 -1.2806032
17.112404 16.542589 -2.082325
21.449303 20.720598 -1.5629612
21.420122 20.685162 -0.51976758
6.1074247 5.8814173 -2.2719138
21.358944 20.561346 0.51749879
6.5448232 6.2982225 -2.0969937
7.4294424 7.1470203 -2.0038762
7.6059957 7.3117452 -1.6710331
7.5042443 7.2088914 -1.2776783
17.164299 16.482986 -2.0819762
21.444408 20.578819 -1.5576229
21.401253 20.523083 -0.51756859
6.1181455 5.8507147 -2.2682903
21.36986 20.428642 0.51603276
6.5681753 6.2766857 -2.0974436
7.4671226 7.1332455 -2.0073106
9.0303116 8.620513 -1.9773319
7.5049458 7.1593575 -1.2735348
17.218843 16.420225 -2.0816276
21.446714 20.437698 -1.5525987
21.40905 20.387569 -0.51603276
6.1301241 5.821342 -2.2651844
21.349676 20.267183 0.51383376
6.5900469 6.2537184 -2.0974436
7.4748826 7.0909243 -2.0027313
9.0015717 8.5332174 -1.9645042
7.5154753 7.1194701 -1.2710973
17.273167 16.357275 -2.081279
21.432322 20.281731 -1.5464231
21.3981 20.24225 -0.51414788
6.1588426 5.8078599 -2.2682903
21.360037 20.142761 0.51247251
6.5937309 6.2157912 -2.0920448
7.5024495 7.0674796 -2.0034947
9.0686474 8.5398865 -1.9729517
7.5159149 7.0727401 -1.2671976
17.341761 16.307814 -2.0826735
21.428158 20.143509 -1.541294
21.403028 20.105835 -0.51257718
6.1780667 5.7874055 -2.2682903
21.3587 20.001097 0.5107621
6.6068511 6.1847477 -2.0893452
7.4283657 6.951345 -1.9775445
9.1690979 8.5742931 -1.9882823
7.5115514 7.0193529 -1.2623228
17.407394 16.261091 -2.0840681
21.431189 20.00589 -1.5364791
21.399973 19.962795 -0.51083195
6.1939888 5.7618551 -2.2667372
21.343439 19.847454 0.50873768
6.6398201 6.1722608 -2.0929446
7.5733938 7.0376315 -2.0096004
9.0759354 8.4279776 -1.9616885
7.5214515 6.9795918 -1.2598853
17.462595 16.19887 -2.0838938
21.432035 19.867159 -1.5315596
21.393248 19.817305 -0.50901693
6.2126436 5.7388897 -2.2662196
21.358238 19.722628 0.50744617
6.6670508 6.1543345 -2.0947442
7.6080117 7.020474 -2.0122719
9.1996946 8.483285 -1.982025
7.5253334 6.9344602 -1.2564731
17.47361 16.095964 -2.0784903
21.432194 19.728643 -1.5266401
21.391645 19.677528 -0.50734144
6.2269444 5.7119427 -2.264149
21.339991 19.56822 0.50538683
6.692801 6.1349764 -2.0960939
7.5948391 6.9593868 -2.0023496
9.2365284 8.4577971 -1.9835892
7.564137 6.9215522 -1.2589104
17.532618 16.037575 -2.0788388
21.440493 19.598455 -1.5223484
7.7144537 7.0467339 -0.18237765
6.2482719 5.6914744 -2.2646666
21.338678 19.430326 0.50374627
6.7127352 6.1102624 -2.095644
7.6248927 6.9381204 -2.0038762
7.6027956 6.9131641 -1.6275443
7.6058836 6.9111238 -1.2618352
17.573748 15.962874 -2.0770955
7.7167745 7.0045123 -0.5461781
7.6975303 6.9821458 -0.1814003
6.2709651 5.6722226 -2.265702
21.34705 19.302073 0.50235009
6.7239022 6.0776482 -2.0924947
7.6344957 6.8983011 -2.0000601
7.6224804 6.8826132 -1.6266057
8.1752768 7.3765674 -1.3520186
17.6264 15.898769 -2.0767469
7.7115078 6.9507871 -0.54408467
7.7129431 6.9472022 -0.18119089
6.2777929 5.6386781 -2.2610431
21.329479 19.151293 0.50036049
6.7465291 6.0554409 -2.0929446
7.6395345 6.8545632 -1.9950989
8.2097607 7.3610268 -1.7464346
8.2157583 7.3612337 -1.3544559
17.661016 15.81853 -2.0743067
7.6672649 6.8625555 -0.53926975
7.6715631 6.8615808 -0.17965508
6.3046455 5.6231613 -2.2636313
21.334999 19.022163 0.49892941
6.7618051 6.026669 -2.091145
21.342478 19.015465 1.4980645
7.6824694 6.8448343 -2.0000601
8.2088509 7.3086782 -1.7408029
8.2265759 7.3193135 -1.3520186
17.704218 15.746185 -2.072912
7.6762457 6.8224788 -0.53822303
7.7104177 6.8480411 -0.18000412
6.3126678 5.5908713 -2.2594905
21.330894 18.885279 0.49728888
6.7638307 5.986237 -2.0852964
21.274103 18.821735 1.4886441
7.7048473 6.8166733 -1.9996784
9.5011282 8.3999777 -2.0086186
8.2282667 7.2695284 -1.3481188
17.744139 15.671106 -2.0711691
7.6550884 6.7559962 -0.53508288
7.5393085 6.6491346 -0.17546651
6.3248901 5.5624242 -2.2569022
21.332113 18.753925 0.49578795
6.7773681 5.9561563 -2.0830467
21.255642 18.673546 1.4827825
7.6887703 6.7547526 -1.9893748
9.3878841 8.2416487 -1.9785833
8.2177801 7.2093415 -1.3422691
7.7444425 6.7916913 -0.90119034
7.6320591 6.6884289 -0.53183806
7.571497 6.6306829 -0.17567593
6.3544555 5.5492058 -2.2605255
21.334183 18.624109 0.49432197
6.7937088 5.9286232 -2.0816972
21.254242 18.547806 1.4783863
7.7921929 6.7975626 -2.0099821
9.4716835 8.2568626 -1.9901596
8.2219419 7.1623554 -1.3388567
7.7680984 6.7646222 -0.90119034
7.656868 6.6630564 -0.53194273
6.3650303 5.5193949 -2.2574198
21.323309 18.49037 0.49264652
6.7971358 5.8920197 -2.0767481
21.278109 18.438183 1.4755602
7.8707814 6.8178806 -2.024102
9.4676542 8.1982508 -1.9835892
8.2276373 7.1194615 -1.3359319
7.7554965 6.7061872 -0.89700693
7.6487031 6.6115036 -0.52984929
7.6618533 6.6182065 -0.17672306
6.3789043 5.4944797 -2.255867
21.377104 18.406706 0.4924022
6.8176632 5.8682561 -2.0767481
7.8769717 6.7776618 -2.0199041
9.5246754 8.18962 -1.9895338
8.228343 7.0700054 -1.332032
7.7519994 6.6583605 -0.89404356
7.6712499 6.5797024 -0.17640893
6.398046 5.4721785 -2.255867
31.968058 27.33227 0.73415291
6.824769 5.8330312 -2.0726991
7.9199882 6.7667012 -2.0248652
9.5456867 8.1499157 -1.9879694
8.2348518 7.0257759 -1.3291072
7.7812567 6.6364336 -0.89474088
7.741363 6.5930796 -0.17749096
6.4126925 5.4460578 -2.2543139
32.307175 27.427588 0.73973769
6.856976 5.8192587 -2.0762982
7.9345798 6.7313924 -2.0225754
9.5680523 8.111434 -1.9867179
8.2047977 6.9507971 -1.3203326
7.7876453 6.5904002 -0.53466421
7.7998228 6.5983701 -0.17832869
6.4346142 5.4261355 -2.2553494
32.547756 27.44664 0.74315834
6.8807068 5.8002539 -2.0776479
7.9520216 6.698597 -2.021049
8.1987286 6.9039717 -1.6976269
7.8075743 6.5652795 -0.89247483
7.827805 6.5799589 -0.53592026
7.7670741 6.5265965 2.3421905
7.8304663 6.5775328 -0.17850322
7.7182937 6.4810123 2.7005181
6.4466496 5.3998041 -2.2532787
32.618843 27.312313 0.7425999
6.8695321 5.7499323 -2.0681999
7.8778243 6.5915608 -1.9966254
9.6336555 8.0549822 -1.9889081
7.7579021 6.479712 1.6009505
7.838479 6.5470133 -0.89352071
7.732513 6.4562216 1.958082
7.8660583 6.5653944 -0.53696698
7.717988 6.439517 2.3205953
7.851841 6.5488806 -0.17846832
7.6993222 6.4193926 2.6860242
6.4595194 5.3723249 -2.2512081
32.876968 27.333803 0.7462998
6.8775711 5.7159548 -2.0646007
7.8655734 6.5347643 0.53592026
7.7860198 6.4686708 -1.9676224
7.7494369 6.4359975 0.88131887
9.6525936 8.0137377 -1.9870309
7.7538466 6.435082 1.2372177
13.400085 11.117066 -2.1378324
7.7257347 6.4071984 1.5896872
7.9226284 6.5704885 -0.90049314
7.7157078 6.3966103 1.9481598
7.8935428 6.5417185 -0.53728098
7.7209086 6.3963766 2.3147464
7.868494 6.5163279 -0.17832869
7.7097797 6.3826203 2.6818831
6.473763 5.3460555 -2.2496552
7.7769389 6.41994 0.17602497
6.892971 5.6881933 -2.0632513
7.7835674 6.420845 0.52880251
7.8176379 6.4489503 -1.9699122
7.7457252 6.3873572 0.8783555
9.5402756 7.864399 -1.9582468
7.7548122 6.3903041 1.2338053
13.457193 11.085372 -2.1407571
7.7373767 6.3714027 1.5874972
7.8516932 6.4655375 -0.88986009
7.7273779 6.3609066 1.9454886
7.8114552 6.4278297 -0.53016329
7.7296433 6.3582463 2.3106971
7.7907977 6.4062648 -0.17605987
7.7320113 6.3556709 2.6818831
6.4938803 5.3246484 -2.2501729
7.7761054 6.3737383 0.17550141
6.9142904 5.6653337 -2.0637012
7.7734876 6.3670573 0.52660441
7.9084496 6.4776015 -1.987085
7.7494769 6.3451319 0.87626386
7.8525491 6.4272423 -1.6072079
7.7494187 6.3405671 1.229418
7.8288913 6.4033108 -1.2418487
7.7610984 6.3456078 1.58781
7.8048029 6.3813415 -0.88201612
7.7449756 6.3301644 1.9443438
7.8013673 6.3739843 -0.52796519
7.7517891 6.3312278 2.3106971
7.7883267 6.358798 -0.17550141
7.7391858 6.3164258 2.6767068
6.5139236 5.3031693 -2.2506905
7.7812448 6.3326726 0.17511745
6.9294906 5.6374731 -2.0623512
7.7682199 6.3198195 0.52482504
7.8777022 6.4066033 -1.9737284
7.760756 6.3092461 0.87504369
7.8274159 6.3611703 -1.597509
7.7637992 6.3072209 1.2281992
7.8161845 6.3497782 -1.2364866
7.7560315 6.2986641 1.5824912
7.8332191 6.3590794 -0.88271332
7.7731242 6.3080373 1.9458703
7.8189149 6.3429408 -0.52765119
7.7727432 6.3054848 2.3106971
7.7984967 6.324121 -0.17525707
7.7780981 6.3053222 2.6829183
6.5314727 5.2815399 -2.2506905
7.7944236 6.3005495 0.17494293
6.9542122 5.6193604 -2.0641508
7.7891364 6.2940221 0.52482504
7.8622508 6.3508344 -1.9645696
7.7878337 6.2884836 0.87574089
7.8346353 6.3240099 -1.5946931
7.7985783 6.2926574 1.2303931
7.8155713 6.3063693 -1.2330741
7.7876372 6.2815924 1.5846813
7.8480616 6.328064 -0.88201612
7.7878842 6.2772994 1.9443438
7.8227963 6.303194 -0.52649975
7.8072662 6.2906804 2.3147464
7.8054109 6.2869334 -0.17494293
7.8170199 6.294035 2.6891301
6.5323825 5.2465467 -2.2449965
7.8168354 6.2759175 0.17497782
6.9758463 5.5987091 -2.0650506
7.8094959 6.2655492 0.52472031
7.7898526 6.2497897 -1.9412909
7.8086467 6.2626219 0.87574089
7.8463144 6.2905822 -1.5928159
7.8255939 6.2717333 1.2313679
7.8328876 6.2753277 -1.232343
7.8280206 6.2691855 1.5884358
7.8394542 6.2783422 -0.87870419
7.8331809 6.2710686 1.9504496
7.840539 6.2747207 -0.52629042
7.8565683 6.2852998 2.3228445
7.8179402 6.2521539 -0.17473349
7.8857193 6.3041077 2.7051768
6.559721 5.230938 -2.2481024
7.8340058 6.2448521 0.17487311
6.9983935 5.576755 -2.0659504
7.8500681 6.2531824 0.52597642
7.7793756 6.1968703 -1.9332769
7.8429298 6.2452526 0.87713534
7.8589501 6.255775 -1.5909387
7.8660803 6.2592082 1.2342927
7.862515 6.2541246 -1.2335616
7.8715014 6.2590365 1.5928159
7.8597612 6.2497015 -0.87852991
7.8826828 6.2656822 1.9573188
7.853013 6.2398558 -0.52566242
7.8491087 6.2322917 -0.17494293
6.5809703 5.2104044 -2.2491376
7.8761373 6.2336073 0.17532688
7.0040646 5.5414076 -2.0619013
7.8749828 6.2282186 0.52618575
7.7747827 6.1489716 -1.9267894
7.9006257 6.2462645 0.88114458
7.8714423 6.2209535 -1.5890616
7.9143624 6.2526307 1.2384363
7.8905249 6.2315683 -1.2345365
7.8799667 6.2209902 -0.8783555
7.8872867 6.2223077 -0.52649975
7.9006553 6.2283754 -0.17560612
6.603673 5.1909833 -2.2506905
7.935586 6.2357273 0.1761646
7.0310297 5.522943 -2.0641508
7.9453697 6.2389312 0.52943057
7.7977414 6.1230092 -1.927171
7.9008808 6.1995339 -1.5906258
7.9247279 6.2137842 -1.2364866
7.9188848 6.2069645 -0.88027298
7.9325447 6.2132092 -0.52806985
7.9365196 6.2118535 -0.17592026
6.6171856 5.1643338 -2.2491376
35.084972 27.371984 0.7767368
7.0856042 5.5259342 -2.0744987
7.8500361 6.1198921 -1.9348032
7.9583101 6.1998444 -1.5978218
7.9667349 6.2019339 -1.2396551
7.968801 6.2013149 -0.88341063
8.0298662 6.2443309 -0.53309411
8.1428986 6.3276691 -0.18000412
