# .PCD v0.7 - Point Cloud Data file format
VERSION 0.7
FIELDS x y z
SIZE 4 4 4
TYPE F F F
COUNT 1 1 1
WIDTH 1466
HEIGHT 1
VIEWPOINT 0 0 0 1 0 0 0
POINTS 1466
DATA ascii
-2.6044629 -6.5547137 -1.8898968
-2.9478774 -7.4114566 -1.8414494
-11.973716 -30.088621 1.6971506
-3.410311 -8.5697336 -1.7928416
-11.312989 -28.413855 2.6756811
-4.0484438 -10.162959 -1.7326683
-11.85396 -29.742352 3.9312618
-4.4160247 -11.074471 -1.4638947
-4.4260774 -11.094049 -1.0449973
-11.879423 -29.760923 6.2287693
-9.1985903 -23.033092 -1.2998159
-11.716591 -29.323248 7.2902136
-20.077923 -50.198406 14.486621
-2.6273265 -6.5455828 -1.8898968
-2.9788172 -7.4137788 -1.8445988
-12.103996 -30.109648 1.7007095
-3.4445963 -8.5687056 -1.7951311
-11.429947 -28.418554 2.6798646
-4.0853686 -10.152432 -1.7332941
-11.253399 -27.951412 3.6997099
-5.2534666 -13.042092 -1.7264012
-4.4458466 -11.026014 -1.0401167
-11.870173 -29.438869 6.1700001
-9.2893982 -23.026772 -1.3012813
-11.667162 -28.906294 7.1966338
-20.530928 -50.815826 14.685393
-2.6440377 -6.5180078 -1.8847204
-2.9973485 -7.3852787 -1.8400996
-3.4804142 -8.5669365 -1.7974207
-12.138711 -29.864141 2.8203597
-4.1151104 -10.119092 -1.7301654
-11.383802 -27.992868 3.7104342
-5.3071895 -13.043901 -1.7290823
-4.4707804 -10.977214 -1.0369791
-11.940949 -29.304258 6.150919
-9.3842907 -23.018463 -1.3027468
-11.746536 -28.79838 7.1804376
-2.671901 -6.5212517 -1.8883438
-3.032531 -7.3940763 -1.8450485
-3.5140228 -8.563817 -1.7993289
-12.221701 -29.769979 2.815479
-4.1361461 -10.069947 -1.7242209
-11.501413 -27.987682 3.7153091
-5.354208 -13.022527 -1.7288387
-12.18679 -29.626059 5.0737963
-4.5105872 -10.965226 -1.0373276
-12.195593 -29.632767 6.2287693
-9.4919567 -23.052052 -1.3065149
-11.864805 -28.800446 7.1912355
-20.78355 -50.399715 14.607747
-2.6916931 -6.504746 -1.8862734
-3.0419164 -7.3438368 -1.8351506
-12.766428 -30.805679 1.7476025
-3.5469015 -8.558754 -1.8008554
-4.1871667 -10.093765 -1.7307911
-11.585345 -27.914356 3.7109218
-5.4049602 -13.016591 -1.7305448
-12.258298 -29.506721 5.0606556
-4.5465412 -10.943894 -1.0368047
-12.161819 -29.260067 6.1593151
-9.5723639 -23.01878 -1.3065149
-11.764647 -28.276659 7.0706615
-20.773678 -49.88102 14.478338
-2.7166178 -6.5006566 -1.8878261
-3.0735493 -7.3475561 -1.83875
-14.049311 -33.58596 1.9079598
-3.5759978 -8.5445089 -1.8004738
-12.683173 -30.2904 2.8730018
-4.2216125 -10.077266 -1.7304782
-11.876081 -28.335108 3.7723441
-5.4288692 -12.946386 -1.7237202
-4.5831728 -10.924283 -1.036456
-12.131666 -28.902452 6.0929132
-9.6526594 -22.985226 -1.3065149
-11.91763 -28.364777 7.1030545
-21.238419 -50.52422 14.685393
-2.7370391 -6.4857955 -1.8862734
-3.1047196 -7.3534808 -1.8427991
-3.6088579 -8.5392084 -1.8020002
-12.965743 -30.664347 2.912745
-4.2565455 -10.066851 -1.731104
-11.903466 -28.13834 3.7513824
-5.4756389 -12.937452 -1.7249388
-12.374131 -29.222506 5.0262399
-4.6445947 -10.963255 -1.0416855
-12.85084 -30.333548 6.4035501
-9.7038879 -22.894245 -1.3031654
-12.034448 -28.378923 7.1165514
-21.527884 -50.716511 14.763039
-2.7555039 -6.4695735 -1.8842027
-3.1357183 -7.3551474 -1.8459483
-3.641777 -8.5380287 -1.8042899
-13.223761 -30.98768 2.9476073
-4.2730432 -10.008329 -1.7235951
-11.947028 -27.968834 3.7343209
-5.5153069 -12.905482 -1.7232326
-4.7122555 -11.021071 -1.0486579
-22.400021 -52.364098 11.070739
-9.8120327 -22.926334 -1.3069336
-12.279179 -28.677114 7.202033
-21.514523 -50.197147 14.633629
-2.77807 -6.4599152 -1.8842027
-3.1652262 -7.353106 -1.8481979
-3.6700053 -8.5216589 -1.8035268
-13.331844 -30.941334 2.9476073
-4.3095164 -9.9969797 -1.7242209
-12.072886 -27.99258 3.7430952
-5.5658259 -12.89891 -1.7249388
-4.7712302 -11.052114 -1.05319
-12.436431 -28.766443 7.2353258
-21.813898 -50.40897 14.717486
-2.8036804 -6.4572678 -1.8862734
-3.1815534 -7.3205652 -1.8427991
-3.6926837 -8.4925909 -1.8000921
-13.311011 -30.598637 2.9193687
-4.3388686 -9.9691973 -1.7220308
-12.168941 -27.946625 3.7426078
-5.5933776 -12.839365 -1.7195766
-11.858622 -27.220972 4.7027335
-4.8384371 -11.101145 -1.0594652
-12.533719 -28.743235 6.0952029
-9.9846277 -22.886564 -1.3086084
-22.156445 -50.762409 12.787118
-2.8285296 -6.4527488 -1.8878261
-3.2128561 -7.3260365 -1.8468481
-3.7278292 -8.4922342 -1.8027636
-4.3576064 -9.9221992 -1.7163991
-12.149755 -27.651684 3.7084844
-5.6303306 -12.808026 -1.7178704
-11.974243 -27.226429 4.7108684
-4.8964171 -11.127955 -1.0636487
-12.60999 -28.658388 6.0860443
-10.055636 -22.84236 -1.3079803
-21.943001 -49.774963 14.575654
-2.8475683 -6.4380341 -1.8862734
-3.2368307 -7.3112135 -1.8459483
-3.7511997 -8.4690552 -1.8004738
-4.4138312 -9.9556866 -1.7248467
-12.347618 -27.837744 3.7391956
-5.675005 -12.788295 -1.7178704
-12.091649 -27.235018 4.7196283
-4.9837584 -11.220047 -1.0741073
-12.6972 -28.585487 6.0799384
-10.256974 -23.080894 -1.3236811
-12.576816 -28.287846 7.1471448
-22.126036 -49.71925 14.581866
-2.8687818 -6.4222617 -1.8847204
-3.2559702 -7.2856374 -1.8423492
-3.7870252 -8.4660025 -1.8027636
-4.451098 -9.9412451 -1.7251595
-12.785418 -28.55542 3.8415658
-5.7090588 -12.744857 -1.7147018
-12.099398 -26.997959 4.6858382
-5.06528 -11.297119 -1.0831715
-13.917186 -31.025063 6.6096244
-10.235191 -22.806263 -1.3100739
-12.480858 -27.797115 7.0346694
-2.8753006 -6.376987 -1.8743677
-3.2850575 -7.2789826 -1.8436987
-3.8149383 -8.449152 -1.8020002
-4.4922805 -9.9400473 -1.7276624
-12.505609 -27.658234 3.7270086
-5.7401876 -12.689481 -1.7100707
-12.545276 -27.733072 4.8209977
-5.1375432 -11.351974 -1.090144
-13.371101 -29.53121 6.3012767
-10.321328 -22.78495 -1.3109111
-12.571374 -27.739183 7.0310702
-10.32882 -22.790909 -0.43676391
-2.9127474 -6.4003186 -1.8842027
-10.360469 -22.765553 0.43658939
-3.3011017 -7.2503142 -1.8391999
-3.8452225 -8.4375706 -1.8023818
-14.062864 -30.843882 2.9657354
-4.5309544 -9.9376783 -1.7298526
-12.958098 -28.407671 3.8337662
-5.6924047 -12.473531 -1.6835033
-12.404081 -27.167995 4.7302656
-5.2516408 -11.497077 -1.1058321
-13.353123 -29.233126 6.247087
-10.458261 -22.885025 -1.3186569
-12.572542 -27.498842 6.9806809
-2.9492698 -6.4239831 -1.8940378
-3.3353405 -7.258225 -1.8441486
-3.8740008 -8.4265575 -1.8027636
-14.165071 -30.797079 2.9657354
-4.5837827 -9.9612808 -1.7367356
-13.08707 -28.427177 3.8425407
-5.7350783 -12.451781 -1.6832595
-12.680711 -27.51923 4.7990971
-5.3664474 -11.646075 -1.1218687
-13.404129 -29.075794 6.2234263
-10.574884 -22.928181 -1.3232625
-12.758262 -27.649431 7.03017
-2.9700515 -6.4101429 -1.8930025
-3.358197 -7.2412343 -1.8427991
-3.9009128 -8.4076405 -1.8016186
-14.418451 -31.061899 2.9960659
-4.6110382 -9.9290953 -1.7339199
-12.699415 -27.333565 3.7006848
-5.7693052 -12.411885 -1.6805785
-12.806682 -27.539282 4.8103604
-5.474278 -11.771799 -1.1358136
-13.538661 -29.100033 6.2386913
-10.688567 -22.963556 -1.3274493
-12.889257 -27.678921 7.0490665
-2.9825902 -6.378737 -1.886791
-3.3875835 -7.2382932 -1.8450485
-3.9285727 -8.3904161 -1.8008554
-14.558907 -31.079941 3.0026898
-4.660758 -9.9451351 -1.7395515
-12.846998 -27.400505 3.7157967
-5.9154434 -12.610928 -1.7103145
-13.006795 -27.716154 4.8491559
-5.5932078 -11.918555 -1.1518502
-13.011047 -27.712637 5.9509511
-10.768661 -22.926105 -1.3274493
-13.032203 -27.732531 7.0742607
-3.0064852 -6.3717809 -1.8878261
-3.4128294 -7.2264237 -1.8450485
-3.9569981 -8.374877 -1.8004738
-4.7148681 -9.9698772 -1.7467474
-13.018974 -27.516991 3.7377331
-5.973866 -12.620705 -1.7144581
-13.397677 -28.29187 4.9580345
-5.7115226 -12.06102 -1.1675383
-14.055856 -29.66836 6.3814163
-10.865731 -22.924471 -1.3295428
-13.354369 -28.162287 7.195734
-10.928996 -23.037167 -0.44507128
-3.038959 -6.3799038 -1.8935202
-3.4342608 -7.2033119 -1.8423492
-3.9893572 -8.3638611 -1.801237
-4.7522292 -9.9543123 -1.7470603
-13.106053 -27.440428 3.7338333
-6.024363 -12.60768 -1.7156768
-13.021124 -27.250378 4.7834535
-5.8072486 -12.147859 -1.177997
-14.352549 -30.00983 6.4661355
-10.958302 -22.90251 -1.3305895
-13.440672 -28.077999 7.1867366
-3.0595369 -6.3657746 -1.8924849
-3.453907 -7.1831026 -1.8400996
-4.0270424 -8.3675747 -1.8050531
-15.426583 -32.039757 3.1111114
-4.7929258 -9.9545164 -1.7498761
-12.933364 -26.849556 3.6592491
-6.0644145 -12.584056 -1.7151892
-13.124745 -27.222555 4.7865825
-5.8634672 -12.156226 -1.1807859
-14.499751 -30.061096 6.4875059
-13.638766 -28.250885 7.2425246
-3.0705187 -6.334733 -1.8862734
-3.4696016 -7.1517167 -1.8351506
-4.0633411 -8.3718367 -1.8088694
-13.602461 -28.013174 2.7244885
-4.834548 -9.9519415 -1.7523791
-13.00792 -26.764969 3.653887
-6.0709801 -12.486046 -1.7047086
-13.319919 -27.382635 4.822875
-5.9529448 -12.232427 -1.1901989
-14.669888 -30.144463 6.5165091
-11.120935 -22.841755 -1.3314269
-13.67927 -28.083971 7.2119308
-3.0937147 -6.3234372 -1.8862734
-3.4954016 -7.1413131 -1.8356007
-4.0948596 -8.3586521 -1.809251
-13.641918 -27.834314 2.7119379
-4.8622942 -9.9164181 -1.7492503
-13.335479 -27.197075 3.719209
-6.1363816 -12.509335 -1.7108021
-13.455461 -27.417542 4.8372669
-6.0412655 -12.304572 -1.199263
-13.797586 -28.065121 7.2200289
-3.1234639 -6.3281898 -1.890932
-3.5319097 -7.1494188 -1.8409994
-4.124012 -8.3443069 -1.809251
-13.873218 -28.058001 2.7384334
-4.9126453 -9.9312563 -1.754882
-13.516076 -27.311697 3.7416329
-6.1874738 -12.497433 -1.7122644
-13.577373 -27.423519 4.8466535
-6.1443176 -12.404814 -1.2111162
-9.247282 -18.653053 -1.0911001
-9.2698221 -18.690313 -0.36416191
-3.1498404 -6.3258953 -1.8935202
-3.5529923 -7.1324348 -1.8396497
-4.1399746 -8.3035059 -1.8035268
-13.971075 -28.009403 2.7384334
-4.9499607 -9.923749 -1.7564464
-13.56048 -27.174362 3.7289586
-6.2288828 -12.476845 -1.7122644
-13.711859 -27.453711 4.8604193
-6.2374492 -12.483099 -1.2208776
-10.90585 -21.816517 -1.2782536
-3.1638658 -6.3016028 -1.889379
-3.5787425 -7.1217299 -1.8400996
-4.1533785 -8.2616663 -1.7974207
-14.049558 -27.934439 2.7356446
-4.9694767 -9.8764114 -1.7511276
-13.553502 -26.924726 3.7011721
-6.2688265 -12.447935 -1.7112895
-13.796935 -27.384514 4.8566651
-6.3204436 -12.539534 -1.2285473
-13.693158 -27.166733 5.9135528
-11.584452 -22.97316 -1.3483838
-3.1886876 -6.2934113 -1.8904144
-3.6062238 -7.114409 -1.8414494
-4.1587605 -8.1973648 -1.7867355
-14.240218 -28.05687 2.752727
-5.0020652 -9.8510866 -1.7498761
-13.62224 -26.827692 3.6943476
-6.313139 -12.427747 -1.7115332
-13.878122 -27.30801 4.8516593
-6.4093256 -12.606196 -1.237263
-14.928376 -29.349228 6.4004974
-3.2000866 -6.2615995 -1.8842027
-3.6393747 -7.1150231 -1.8450485
-15.454562 -30.200861 1.7779572
-4.1927152 -8.193284 -1.7890252
-14.521472 -28.365234 2.7879379
-5.0310187 -9.8230162 -1.747999
-13.691511 -26.72105 3.686548
-6.3849072 -12.455752 -1.7186016
-14.253949 -27.794825 4.9473968
-6.4787478 -12.633387 -1.2421436
-15.016395 -29.26899 6.3943911
-11.814211 -23.017609 -1.3559201
-3.2272339 -6.260695 -1.8873086
-3.6615081 -7.0970807 -1.8436987
-15.512255 -30.054441 1.7725142
-4.2302947 -8.1960449 -1.7928416
-15.476011 -29.971386 2.9510932
-5.0689034 -9.8124142 -1.7492503
-6.4356413 -12.447497 -1.7205516
-14.392632 -27.825609 4.9617891
-6.5795588 -12.720413 -1.2529509
-15.132909 -29.244293 6.4004974
-11.907341 -23.00106 -1.3573855
-3.2508504 -6.2528195 -1.8883438
-3.6745658 -7.0617833 -1.8378501
-15.602317 -29.971767 1.7708396
-4.2588787 -8.1812286 -1.7928416
-15.51795 -29.79702 2.9392402
-5.1086011 -9.805172 -1.7511276
-6.4625306 -12.393273 -1.7161642
-15.653672 -30.006462 5.360384
-6.6865854 -12.817489 -1.2648041
-15.204016 -29.132118 6.3875222
-12.013441 -23.00893 -1.3603163
-3.2753487 -6.2465663 -1.8898968
-3.6901364 -7.0316582 -1.8333511
-15.625135 -29.761507 1.7616284
-4.282846 -8.1576223 -1.7909334
-15.527376 -29.56275 2.9214604
-5.1501451 -9.8012705 -1.7536306
-6.5223842 -12.402265 -1.7205516
-15.695776 -29.832758 5.3391089
-6.8017907 -12.928076 -1.2780517
-15.300118 -29.068443 6.3852324
-3.292618 -6.2265563 -1.8873086
-3.7101016 -7.0101228 -1.8311015
-15.654163 -29.565577 1.7532547
-4.3140512 -8.1478271 -1.7920781
-15.58757 -29.427383 2.9134421
-5.1972761 -9.8076696 -1.7580107
-6.5433111 -12.337334 -1.7147018
-15.627601 -29.453234 5.2809157
-6.9290514 -13.059136 -1.2933912
-15.429115 -29.066877 6.3966813
-12.252461 -23.072676 -1.3691088
-3.2925162 -6.1741142 -1.8748853
-3.7336316 -6.99541 -1.8306518
-15.74222 -29.482565 1.75158
-4.3544874 -8.1552324 -1.7970392
-15.808476 -29.594219 2.9354053
-5.2352042 -9.7964373 -1.7592622
-6.6237855 -12.384436 -1.7244513
-15.734045 -29.405468 5.282167
-9.6403551 -18.016928 -1.7877386
-15.523066 -28.999001 6.3936286
-12.332932 -23.029762 -1.3691088
-3.3113029 -6.1574793 -1.8733324
-3.7552564 -6.9771862 -1.8293018
-4.3847899 -8.1434402 -1.7978026
-15.936253 -29.584465 2.9399376
-5.2618713 -9.7641907 -1.7567593
-6.675456 -12.376963 -1.726645
-15.823969 -29.33922 5.2796636
-9.7211637 -18.016483 -1.7910506
-3.3447485 -6.1679597 -1.8800616
-3.7811613 -6.9698339 -1.8306518
-4.4169364 -8.1349859 -1.7993289
-16.151642 -29.73525 2.9605062
-5.3055363 -9.7675171 -1.7605137
-6.7117233 -12.346038 -1.7254263
-9.7801857 -17.975439 -1.7903533
-12.544781 -23.047029 -1.3751796
-3.3540654 -6.1364918 -1.87385
-3.8082731 -6.9617214 -1.8320013
-4.4438891 -8.1202936 -1.7993289
-5.3395996 -9.7489386 -1.7605137
-6.7566867 -12.326015 -1.7259138
-9.8292027 -17.923691 -1.7884358
-12.605935 -22.968082 -1.3730863
-3.372668 -6.1196709 -1.872297
-3.8372574 -6.9569173 -1.8342509
-4.4750528 -8.109889 -1.8004738
-16.28241 -29.495546 2.9476073
-5.3869672 -9.7544489 -1.7648939
-6.807354 -12.316255 -1.7278637
-9.8994217 -17.903219 -1.7898303
-12.742122 -23.025293 -1.3791573
-3.3930697 -6.1061726 -1.8717794
-3.8671997 -6.9537001 -1.8369503
-4.5119233 -8.1096601 -1.8039083
-5.4123349 -9.7200527 -1.762078
-6.8599677 -12.309757 -1.7303011
-9.953124 -17.852894 -1.7882615
-12.894433 -23.109741 -1.386903
-3.4134195 -6.0926061 -1.8712618
-3.8866837 -6.9316592 -1.8347007
-4.540206 -8.0938606 -1.8039083
-5.4462314 -9.7011013 -1.762078
-6.9067822 -12.29266 -1.731276
-10.011477 -17.811094 -1.7875642
-3.4394166 -6.0890641 -1.87385
-3.9127743 -6.9214435 -1.8356007
-4.5771275 -8.0933428 -1.8073429
-5.4888167 -9.697504 -1.7648939
-6.9066029 -12.192477 -1.7205516
-10.063766 -17.758705 -1.7858212
-13.019984 -22.956617 -1.3831348
-3.4635184 -6.0820575 -1.8754028
-3.9337759 -6.9050431 -1.8347007
-4.607296 -8.0807285 -1.8081062
-5.5277958 -9.6912594 -1.7670839
-6.9410892 -12.159163 -1.7190892
-10.122725 -17.718281 -1.7852982
-13.157487 -23.020823 -1.3896245
-3.4807839 -6.0655117 -1.87385
-3.9665904 -6.9064784 -1.83875
-4.6321111 -8.0620003 -1.8073429
-5.5606065 -9.6701927 -1.7667711
-6.993392 -12.152066 -1.7215265
-10.169497 -17.663895 -1.7832065
-13.263684 -23.019751 -1.3923459
-3.4970984 -6.0449634 -1.8712618
-3.9982569 -6.9084663 -1.8427991
-4.6602244 -8.0457821 -1.8073429
-5.5995765 -9.6636639 -1.7689612
-7.0465975 -12.151132 -1.7246951
-8.6579266 -14.917701 -1.5090145
-13.339949 -22.975639 -1.3923459
-13.335114 -22.948862 -0.46329159
-3.5249908 -6.0444016 -1.8748853
-13.381195 -22.935915 0.46350101
-4.0147099 -6.8786182 -1.83875
-4.6981812 -8.0464201 -1.8111591
-5.6289783 -9.6328421 -1.7670839
-7.1011081 -12.142359 -1.7271326
-8.7069283 -14.882229 -1.5084915
-13.474527 -23.012768 -1.3975794
-3.5470474 -6.0337248 -1.8754028
-4.0416594 -6.8696017 -1.8400996
-4.7282319 -8.0333548 -1.8119223
-5.6735978 -9.6318569 -1.7705256
-7.1384091 -12.108947 -1.7259138
-8.74263 -14.824286 -1.5057026
-13.62381 -23.082556 -1.4046973
-3.5739951 -6.0312791 -1.8785087
-4.0775442 -6.8755651 -1.8454984
-4.7592502 -8.0218668 -1.8130672
-5.7061763 -9.6102953 -1.7702127
-7.1826591 -12.087369 -1.7264012
-10.381537 -17.463667 -1.7774541
-13.692045 -23.014259 -1.4034412
-3.5910645 -6.0121331 -1.8764381
-4.0975189 -6.8545995 -1.8436987
-4.7841978 -8.0001507 -1.8119223
-5.7447577 -9.5987949 -1.7717769
-7.2350121 -12.079252 -1.7288387
-10.424003 -17.396559 -1.7743167
-13.809275 -23.027988 -1.4072093
-3.6130252 -6.0012159 -1.8769557
-4.1254439 -6.8469315 -1.8454984
-4.8131075 -7.9850831 -1.8123039
-5.7802696 -9.5820656 -1.7724028
-7.279182 -12.057323 -1.7293261
-10.484665 -17.360067 -1.7743167
-3.6409669 -6.0001287 -1.8805792
-4.1472964 -6.8291583 -1.8445988
-4.8480868 -7.9799781 -1.8149751
-5.8095779 -9.5550795 -1.7711512
-7.329483 -12.045405 -1.731276
-10.56695 -17.359104 -1.7779771
-14.111023 -23.162992 -1.4214448
-3.6649129 -5.9923267 -1.8821322
-4.1690745 -6.8113151 -1.8436987
-4.8738627 -7.9596581 -1.814212
-5.8573456 -9.558321 -1.7755314
-7.3797855 -12.033287 -1.7332259
-10.622271 -17.31362 -1.7771056
-14.156254 -23.055727 -1.4178859
-3.6878352 -5.9827862 -1.8831675
-4.2010107 -6.8099895 -1.8472981
-4.9036798 -7.9459381 -1.8149751
-5.8917131 -9.5394974 -1.7758442
-7.4238315 -12.01083 -1.7337134
-10.675308 -17.264574 -1.7758855
-14.297605 -23.104679 -1.4239569
-3.711755 -5.9747996 -1.8847204
-4.2206407 -6.7886634 -1.8454984
-4.9293127 -7.9254379 -1.814212
-5.9322834 -9.530612 -1.7780343
-7.4720106 -11.994953 -1.7351758
-10.726025 -17.211987 -1.7743167
-14.371827 -23.04446 -1.4233288
-3.7274616 -5.9536204 -1.8821322
-4.251555 -6.7854486 -1.8486477
-4.9642472 -7.9198284 -1.8168833
-5.9676156 -9.5131941 -1.7786602
-7.5201683 -11.978886 -1.7366383
-10.810412 -17.213247 -1.7783258
-3.7544074 -5.9503751 -1.8852381
-4.2731338 -6.767271 -1.847748
-5.0012994 -7.9173899 -1.820318
-6.0039525 -9.4973135 -1.7795987
-7.5661812 -11.95927 -1.7376132
-10.881087 -17.192242 -1.7800689
-14.624267 -23.088671 -1.4323306
-3.7782638 -5.9421248 -1.886791
-4.2967286 -6.7523146 -1.847748
-5.0310121 -7.9031973 -1.8210812
-6.0381298 -9.4779644 -1.7799115
-7.6121507 -11.939484 -1.7385882
-10.943175 -17.157513 -1.7804176
-14.700474 -23.030746 -1.4319118
-3.8031518 -5.9354062 -1.8888614
-4.3234282 -6.7421961 -1.8490976
-5.0585709 -7.8855858 -1.8210812
-6.0722423 -9.4584932 -1.7802243
-7.6517015 -11.914174 -1.7385882
-10.972835 -17.072283 -1.7755368
-14.819674 -23.039762 -1.43568
-3.8186233 -5.9162693 -1.886791
-4.3478775 -6.7310958 -1.8499974
-5.0889535 -7.8753643 -1.8226075
-6.1164474 -9.458209 -1.7839788
-7.70087 -11.903736 -1.7407818
-11.046717 -17.062559 -1.7783258
-14.837347 -22.899982 -1.4300278
-3.8361154 -5.9003344 -1.8857557
-4.3723006 -6.7199078 -1.8508973
-5.1193252 -7.865027 -1.8241341
-6.1499348 -9.441185 -1.7846047
-7.7456279 -11.881772 -1.7415131
-10.367519 -15.897673 -1.6604911
-10.384227 -15.91116 -0.99574399
-3.8619816 -5.8949876 -1.8883438
-4.3967996 -6.706234 -1.8513472
-5.1532083 -7.8569589 -1.8264238
-6.1871891 -9.4262657 -1.785856
-7.7990437 -11.872911 -1.7441941
-10.40544 -15.834749 -1.6577022
-10.425438 -15.853121 -0.99438322
-3.8878567 -5.8895316 -1.890932
-4.4223304 -6.694097 -1.852247
-5.1870985 -7.8487501 -1.8287135
-6.2287731 -9.4177904 -1.7883589
-7.8404408 -11.845615 -1.7441941
-10.49805 -15.854813 -1.6636288
-10.467475 -15.796655 -0.99312723
-3.9083917 -5.8759246 -1.890932
-4.4445891 -6.6769986 -1.8517971
-5.2122874 -7.8273277 -1.8279504
-6.2681828 -9.4058552 -1.7902362
-7.881743 -11.818174 -1.7441941
-11.268754 -16.890398 -1.7764084
-15.559801 -23.304499 -1.4685471
-3.9321041 -5.8670611 -1.8924849
-4.4798107 -6.6792445 -1.8567461
-5.2439537 -7.8156066 -1.8294767
-6.3075843 -9.3937569 -1.7921134
-7.9295912 -11.800477 -1.7456566
-11.314306 -16.831118 -1.7743167
-15.565248 -23.137354 -1.4614294
-3.9439113 -5.8404913 -1.8883438
-4.5030971 -6.6635671 -1.8567461
-5.2799997 -7.810266 -1.8325297
-6.3491893 -9.3847713 -1.7946163
-7.9707351 -11.772726 -1.7456566
-11.34729 -16.753578 -1.7703073
-15.706429 -23.172155 -1.4670817
-3.9740546 -5.841064 -1.8930025
-4.5263314 -6.6478071 -1.8567461
-5.316071 -7.8047705 -1.8355827
-6.375237 -9.3527575 -1.7927393
-8.0252018 -11.76451 -1.7485815
-11.380997 -16.677662 -1.7664726
-15.818753 -23.163374 -1.4700124
-3.9987888 -5.8335299 -1.8950732
-4.552815 -6.6367879 -1.8580956
-5.3455043 -7.7894034 -1.8363459
-6.4167891 -9.3434744 -1.7952422
-8.0639734 -11.733151 -1.7480941
-11.484291 -16.703506 -1.773445
-15.931218 -23.154081 -1.4729433
-4.0213227 -5.8227153 -1.8961084
-4.5814939 -6.628871 -1.8603452
-5.3748956 -7.7739258 -1.8371091
-6.4527373 -9.3258915 -1.7961807
-8.1139183 -11.717989 -1.7500439
-11.542527 -16.663317 -1.773445
-16.025593 -23.118031 -1.4741993
-4.0405207 -5.8070564 -1.8955908
-4.6034923 -6.611239 -1.8598953
-5.401999 -7.7551169 -1.8371091
-6.4909 -9.3114138 -1.7977451
-8.1547737 -11.689595 -1.7500439
-11.604043 -16.627825 -1.7739679
-16.119923 -23.081594 -1.4754554
-4.0618749 -5.7944989 -1.8961084
-4.637733 -6.611083 -1.8643943
-5.433547 -7.7426405 -1.8386356
-6.5335808 -9.3032475 -1.8005608
-8.2137909 -11.687044 -1.7539438
-11.648265 -16.567659 -1.7718763
-16.273943 -23.12973 -1.4821545
-4.0876493 -5.7881756 -1.8986967
-13.623266 -19.283615 0.41212112
-4.6551585 -6.5868969 -1.8621449
-5.4628081 -7.7268329 -1.8393987
-6.5648746 -9.2787714 -1.800248
-8.2545376 -11.658301 -1.7539438
-11.699116 -16.517143 -1.7708303
-16.368711 -23.07564 -0.4938333
-4.1111889 -5.778594 -1.9002496
-4.6815133 -6.5753689 -1.8634945
-5.4988585 -7.7205095 -1.8424517
-6.6052504 -9.2670593 -1.8024381
-8.3020983 -11.639112 -1.7554061
-11.739341 -16.451876 -1.7682157
-4.1392112 -5.7751999 -1.903873
-4.7089701 -6.5677271 -1.8657441
-5.5211945 -7.6948886 -1.8409253
-6.6474638 -9.2611523 -1.8055668
-8.3475952 -11.621192 -1.7568686
-11.783907 -16.393003 -1.7662982
-4.1594706 -5.7630081 -1.9043906
-4.7421355 -6.5654688 -1.8697932
-5.5512805 -7.6829023 -1.8424517
-6.6728034 -9.2282887 -1.8036896
-8.3997507 -11.608064 -1.759306
-11.873247 -16.402254 -1.7715275
-11.815446 -16.310408 -1.0555117
-4.1750178 -5.7422042 -1.90232
-4.7661705 -6.5504508 -1.870243
-5.5780659 -7.6634774 -1.8424517
-6.7084675 -9.2097282 -1.8046281
-8.4519091 -11.594715 -1.7617433
-11.942174 -16.376804 -1.7732707
-11.902914 -16.311014 -1.0582331
-4.2007442 -5.7353878 -1.9049082
-4.7855511 -6.5290585 -1.8688934
-5.6140699 -7.6566267 -1.8455048
-6.7405729 -9.1862574 -1.8046281
-8.5087833 -11.587541 -1.7651558
-11.976851 -16.304512 -1.7699587
-12.047321 -16.388445 -1.0659788
-4.2241797 -5.7253532 -1.9064611
-4.8071556 -6.510747 -1.8684435
-5.6407628 -7.6369829 -1.8455048
-6.7749457 -9.1658487 -1.805254
-8.5586214 -11.570539 -1.7671057
-12.032509 -16.261005 -1.7697846
-12.142487 -16.397659 -1.0693284
-4.2556634 -5.7260785 -1.9116375
-4.8345051 -6.5001812 -1.870243
-5.6720738 -7.6235466 -1.8470311
-6.8104391 -9.1468973 -1.8061925
-8.598958 -11.540593 -1.7671057
-12.067764 -16.190149 -1.7666469
-12.280855 -16.464035 -1.0764461
-4.2756248 -5.7111883 -1.9116375
-4.8583341 -6.4848251 -1.8706928
-5.6986508 -7.6037006 -1.8470311
-6.8470669 -9.1293898 -1.8074441
-8.6534891 -11.529558 -1.7700305
-12.185216 -16.229187 -1.7755368
-12.383841 -16.481745 -1.0804236
-4.2943721 -5.6946864 -1.9111199
-4.8938537 -6.4849377 -1.8756418
-5.7298899 -7.5900302 -1.8485577
-6.8860383 -9.1148901 -1.8093213
-8.7008657 -11.508781 -1.7714928
-12.24059 -16.184963 -1.7753625
-12.535314 -16.562637 -1.088588
-4.3165598 -5.6827393 -1.9121553
-4.9141016 -6.4647126 -1.8747422
-5.762291 -7.5777965 -1.8504658
-6.9130282 -9.0845098 -1.8080698
-8.7566204 -11.49887 -1.7746614
-12.301841 -16.148476 -1.7760596
-12.663281 -16.610903 -1.094659
-4.3398919 -5.6722398 -1.9137081
-4.935452 -6.4459739 -1.8742923
-5.7970624 -7.5685472 -1.8531371
-6.9579139 -9.0775709 -1.8115114
-8.8003302 -11.472959 -1.7753928
-12.348433 -16.092791 -1.7746652
-12.777143 -16.639467 -1.099474
-4.3679199 -5.667767 -1.9173316
-4.961493 -6.4333358 -1.8756418
-5.8186488 -7.5420475 -1.8516105
-6.991972 -9.0563545 -1.812137
-8.8427505 -11.445313 -1.7758802
-12.377727 -16.014906 -1.7708303
-12.932899 -16.721155 -1.1078477
-4.3829393 -5.6463814 -1.915261
-4.9970698 -6.4329066 -1.8805909
-5.8425307 -7.51859 -1.8508474
-7.0320311 -9.0428076 -1.8143271
-8.8984995 -11.434741 -1.7790488
-12.393162 -15.919724 -1.7650781
-13.113935 -16.833464 -1.1183149
-4.4038119 -5.6325693 -1.9157786
-5.0243778 -6.423975 -1.8828404
-5.8784227 -7.5105166 -1.8539003
-7.0607619 -9.0178843 -1.8140143
-8.9486141 -11.420795 -1.7814863
-12.442512 -15.868526 -1.7642065
-13.169686 -16.789885 -1.1183149
-4.429635 -5.6270432 -1.9188845
-5.0443587 -6.4033351 -1.8819405
-5.9105844 -7.5002365 -1.8561901
-7.0897517 -8.9900799 -1.8133886
-8.9970312 -11.400398 -1.7831924
-12.525928 -15.866273 -1.7685643
-13.352023 -16.900532 -1.128782
-4.4492512 -5.6115456 -1.9188845
-5.0642562 -6.3826365 -1.8810407
-5.9391718 -7.4826326 -1.8569533
-7.1370597 -8.9853868 -1.8174559
-9.0417128 -11.375139 -1.7841673
-12.639519 -15.895748 -1.776757
-4.4784565 -5.608057 -1.9230256
-5.0925884 -6.3725319 -1.8832903
-5.9652548 -7.4618554 -1.8569533
-7.178256 -8.9727583 -1.8199588
-9.0739202 -11.33421 -1.7827048
-12.712364 -15.873302 -1.7791973
-4.4931607 -5.5863695 -1.9209551
-5.1282434 -6.3714137 -1.888239
-5.9912658 -7.4409866 -1.8569533
-7.2206864 -8.9614887 -1.8227745
-9.1258869 -11.317923 -1.7851423
-12.780205 -15.844339 -1.7809405
-4.5138493 -5.5721526 -1.9214727
-5.1516805 -6.3549881 -1.8886892
-6.0233841 -7.4276538 -1.8588613
-7.2419672 -8.9239588 -1.8202716
-9.1778545 -11.301405 -1.7875797
-12.839202 -15.804269 -1.7814633
-4.5308304 -5.5533686 -1.9204375
-5.1676688 -6.3294196 -1.8864396
-6.0567269 -7.4157066 -1.8611511
-7.2780719 -8.9047451 -1.8215232
-9.2197628 -11.272373 -1.7880672
-12.871578 -15.731604 -1.7783258
-4.5563211 -5.5449805 -1.9230256
-5.1922059 -6.3143525 -1.8873394
-6.0850716 -7.3975501 -1.8619143
-7.3191547 -8.8914871 -1.8240261
-9.2716732 -11.255445 -1.7905045
-12.987232 -15.760381 -1.7866927
-4.5805745 -5.534997 -1.9250962
-5.2154589 -6.2976913 -1.8877892
-6.1146126 -7.3808012 -1.8630592
-7.3577137 -8.8750067 -1.8259033
-9.3159761 -11.229124 -1.7914795
-13.079071 -15.75941 -1.7917477
-19.280838 -23.199162 -0.52653909
-4.5949202 -5.5130377 -1.9230256
-19.373602 -23.236422 0.52807492
-5.2486444 -6.2929163 -1.8918384
-6.1390815 -7.3579044 -1.8626775
-7.3911781 -8.8523026 -1.826529
-9.3652983 -11.208722 -1.7934294
-13.16083 -15.745765 -1.7954082
-29.357653 -35.074032 -0.79837781
-4.6141362 -5.4969649 -1.9230256
-29.947655 -35.664936 0.81289822
-5.2768455 -6.2820168 -1.8940878
-6.1697807 -7.342442 -1.8642039
-7.4296627 -8.8355207 -1.8284062
-9.4209833 -11.195708 -1.796598
-13.20545 -15.687535 -1.7940139
-29.374218 -34.845966 -0.7955156
-4.6332951 -5.4808259 -1.9230256
-5.3000002 -6.2650461 -1.8945377
-6.2067857 -7.3343496 -1.8676385
-7.4540758 -8.8019943 -1.8268418
-9.470273 -11.17487 -1.7985479
-13.316818 -15.708211 -1.8016834
-29.560385 -34.819439 -0.79726088
-4.659914 -5.473444 -1.9261314
-5.3167806 -6.2405758 -1.8927382
-6.2348986 -7.3156266 -1.8684019
-7.4950075 -8.7879467 -1.8293447
-9.5118017 -11.144764 -1.7990354
-13.379329 -15.670726 -1.8027295
-29.793505 -34.846752 -0.80026269
-4.6865363 -5.4659438 -1.9292372
-5.3474154 -6.2323313 -1.8958875
-6.2655115 -7.299777 -1.8699282
-7.5282145 -8.7647257 -1.8299706
-9.5532312 -11.114507 -1.7995229
-13.430056 -15.619393 -1.8022064
-30.026304 -34.884163 -0.80340403
-4.7043238 -5.4480896 -1.9287195
-5.3731489 -6.2204633 -1.8976872
-6.2858176 -7.2719221 -1.8684019
-7.5649896 -8.7486811 -1.8318479
-9.5991287 -11.093273 -1.801229
-13.540579 -15.637184 -1.8097019
-30.208145 -34.848648 -0.80500972
-4.7185626 -5.4280858 -1.9271667
-5.4037843 -6.2119603 -1.9008365
-6.3137636 -7.2554798 -1.8695467
-7.6006722 -8.7281761 -1.8330992
-9.6404009 -11.062691 -1.8017164
-13.602833 -15.60421 -1.8110963
-4.7412987 -5.4159422 -1.9287195
-5.429286 -6.1974583 -1.9021862
-6.3429341 -7.2378263 -1.8706915
-7.6297889 -8.7001085 -1.8327864
-9.6920567 -11.04389 -1.8041539
-13.687448 -15.591072 -1.8151054
-4.7665634 -5.4066048 -1.9313078
-5.4457293 -6.1726227 -1.9003865
-6.3785529 -7.227417 -1.8737445
-7.6666498 -8.6808252 -1.8343508
-9.7436914 -11.024868 -1.8065913
-13.766862 -15.571558 -1.8184173
-4.7892537 -5.3942685 -1.9328607
-5.4737144 -6.1608601 -1.9026359
-6.4024367 -7.2036414 -1.8733629
-7.704782 -8.6628666 -1.836228
-9.7768364 -10.984858 -1.8056164
-13.826432 -15.529361 -1.8191147
-15.646032 -17.560726 -1.2326167
-4.8080554 -5.3775163 -1.9328607
-5.5016823 -6.1489782 -1.9048855
-6.4262362 -7.1797848 -1.8729813
-7.7428799 -8.6447496 -1.8381052
-9.8257217 -10.962488 -1.8075663
-13.924445 -15.529958 -1.824867
-15.720573 -17.520868 -1.2336632
-4.8229194 -5.3563938 -1.9313078
-5.5309415 -6.1384215 -1.9075849
-6.4552021 -7.1616831 -1.8741261
-7.7716875 -8.6162004 -1.8377923
-9.8719063 -10.936966 -1.8090287
-13.99059 -15.494563 -1.8264357
-15.910185 -17.60815 -1.2437118
-4.8428836 -5.3409576 -1.9318254
-5.5549536 -6.1219635 -1.9084847
-6.4893966 -7.1492834 -1.8767973
-7.8110137 -8.5992546 -1.8399823
-9.9153671 -10.908314 -1.8100036
-14.037889 -15.438261 -1.8255641
-4.8654051 -5.3283 -1.9333783
-5.5749736 -6.101099 -1.9080348
-6.5143127 -7.1265874 -1.8767973
-7.8396482 -8.5704813 -1.8396695
-9.9547243 -10.875101 -1.8102474
-14.105151 -15.403861 -1.8273073
-4.887898 -5.3155499 -1.9349313
-5.6001959 -6.0859032 -1.9093846
-6.5484581 -7.1139164 -1.8794687
-7.8762088 -8.5503283 -1.8412338
-10.002044 -10.850503 -1.8119535
-14.165584 -15.361858 -1.8281789
-24.212341 -26.238659 -1.8711153
-4.9103613 -5.3027081 -1.9364842
-5.6293521 -6.0748935 -1.9120839
-6.5719171 -7.0895734 -1.8790871
-7.9194422 -8.5372648 -1.8443626
-10.037154 -10.812614 -1.811466
-14.240813 -15.335676 -1.8309678
-24.295618 -26.145206 -1.8704872
-4.9275236 -5.2841225 -1.9359666
-5.6558428 -6.060904 -1.9138836
-6.5979629 -7.0680265 -1.8794687
-7.9491968 -8.5095673 -1.8443626
-10.08297 -10.786213 -1.8129284
-14.305147 -15.297511 -1.8323622
-24.427675 -26.103991 -1.8736275
-4.9393268 -5.2598481 -1.9333783
-5.6769643 -6.0411258 -1.9138836
-6.6252837 -7.0478125 -1.8802319
-7.9815569 -8.4846458 -1.8449883
-10.13689 -10.768294 -1.8158534
-14.314747 -15.201069 -1.8267844
-24.428249 -25.922623 -1.8667191
-4.9722567 -5.2580161 -1.9390724
-5.6953387 -6.0184422 -1.9129838
-6.6538939 -7.0289202 -1.8813769
-8.0233517 -8.4696398 -1.8478041
-10.179877 -10.738608 -1.8168284
-14.216915 -14.991982 -1.8076102
-24.543329 -25.863276 -1.8686032
-4.9932446 -5.2434254 -1.9401076
-5.720345 -6.0027561 -1.9143335
-6.6797419 -7.0070734 -1.8817585
-8.0569582 -8.4458694 -1.8487427
-10.224154 -10.710189 -1.818047
-14.258152 -14.930737 -1.8062155
-24.412682 -25.546415 -1.8518558
-5.0128551 -5.2273564 -1.9406252
-5.7520561 -5.9940014 -1.9179326
-6.7041626 -6.9837122 -1.8817585
-8.1014423 -8.4333658 -1.8521842
-10.27661 -10.690175 -1.8207282
-14.296371 -14.866517 -1.8044724
-25.989092 -27.006662 -1.9642733
-5.0230207 -5.201489 -1.9375196
-5.7756553 -5.9766884 -1.9188325
-6.7284994 -6.9602671 -1.8817585
-8.1308327 -8.4050331 -1.8521842
-10.330429 -10.671355 -1.823653
-14.331548 -14.799344 -1.8023807
-26.444574 -27.2887 -1.991488
-5.0451856 -5.1880794 -1.9390724
-5.7992005 -5.9592838 -1.9197323
-6.7568612 -6.9409599 -1.8829032
-8.1573668 -8.3737688 -1.8515586
-10.373162 -10.640914 -1.824628
-14.43598 -14.80343 -1.8090045
-26.974892 -27.642197 -2.0241456
-5.0700231 -5.1773376 -1.9416605
-5.8213296 -5.9403977 -1.9201821
-6.785172 -6.9215374 -1.8840481
-8.2100611 -8.3692188 -1.8568773
-10.414414 -10.608889 -1.8253592
-14.515483 -14.781385 -1.8124908
-17.49872 -17.806824 -1.3083991
-5.0907779 -5.1623597 -1.9426959
-5.843399 -5.9214282 -1.920632
-6.8120499 -6.9006047 -1.8848113
-8.2406139 -8.3419142 -1.8571903
-10.463941 -10.585178 -1.8275528
-14.59501 -14.758958 -1.815977
-17.491926 -17.676073 -1.3032701
-5.1101279 -5.1459289 -1.9432135
-5.8736486 -5.9106708 -1.9237814
-6.8305597 -6.8712149 -1.8832849
-8.2864008 -8.3299026 -1.8609446
-10.510631 -10.558437 -1.829259
-14.654876 -14.716393 -1.8170229
-17.540833 -17.602175 -1.302328
-5.1294255 -5.1294255 -1.9437311
-5.8997588 -5.8956423 -1.925581
-6.8614483 -6.8542671 -1.8851929
-8.3196211 -8.3051147 -1.8618832
-10.562881 -10.537104 -1.8319401
-14.711799 -14.670775 -1.8177202
-17.573877 -17.512642 -1.3002347
-27.833277 -27.71694 -0.68563527
-5.1472998 -5.1114893 -1.9437311
-18.581205 -18.445503 0.45700872
-5.9258366 -5.8805027 -1.9273807
-6.8909082 -6.8358049 -1.8867195
-8.351366 -8.2788029 -1.8625089
-10.622164 -10.522522 -1.83584
-14.788403 -14.644566 -1.8208576
-26.175526 -25.902834 -1.9299409
-18.787212 -18.578524 -0.46119729
-5.1774898 -5.1057 -1.9483899
-5.9352226 -5.8488383 -1.9237814
-6.9231176 -6.8199773 -1.8890091
-8.3942909 -8.2634592 -1.8656377
-10.66449 -10.490947 -1.8368149
-14.865003 -14.618002 -1.8239954
-26.177454 -25.724516 -1.9234513
-5.1897593 -5.0821891 -1.9463193
-18.989611 -18.589506 0.46385005
-5.9653502 -5.8376265 -1.9269307
-6.9440746 -6.7930236 -1.8882459
-8.4259081 -8.2368698 -1.8662634
-10.708145 -10.460592 -1.8380336
-14.93019 -14.579947 -1.8257385
-5.2171636 -5.0734687 -1.9499428
-5.9898844 -5.8208427 -1.9282805
-6.9705629 -6.7714772 -1.8890091
-8.4687834 -8.2211676 -1.8693922
-10.758842 -10.436975 -1.840471
-14.980992 -14.527742 -1.8257385
-26.436274 -25.600643 -0.6423533
-5.2292819 -5.04986 -1.9478723
-26.516733 -25.597973 0.64333063
-6.0157771 -5.8053107 -1.9300802
-6.9998074 -6.7525578 -1.8905357
-8.4960089 -8.1901827 -1.8690792
-10.808074 -10.41175 -1.8426646
-15.054581 -14.49747 -1.8285275
-26.519707 -25.502661 -0.64221364
-5.2524548 -5.0369239 -1.9499428
-26.600151 -25.499722 0.64319098
-6.0360036 -5.7842774 -1.9300802
-7.034678 -6.7389479 -1.8935887
-8.5174103 -8.1536484 -1.8675148
-10.865488 -10.397811 -1.8465644
-15.128133 -14.466863 -1.8313165
-25.098785 -23.984919 -1.8194072
-5.2733254 -5.0234756 -1.9514956
-6.0523291 -5.7615418 -1.9291801
-7.0612526 -6.7196422 -1.8947334
-8.5587187 -8.1389685 -1.8706435
-10.905664 -10.367193 -1.8475394
-15.18469 -14.424848 -1.8323622
-24.845022 -23.585295 -1.7953328
-5.3025842 -5.0179114 -1.9561545
-6.0742326 -5.7441192 -1.9300802
-7.0892043 -6.7015839 -1.8962599
-8.5957088 -8.1200409 -1.8728336
-10.944673 -10.331787 -1.8480269
-15.25273 -14.393559 -1.8348027
-24.867882 -23.450705 -1.7913553
-5.308805 -4.9887877 -1.9520133
-6.0970888 -5.7255473 -1.9309798
-7.1225748 -6.6862035 -1.8989313
-8.6240034 -8.0899849 -1.8728336
-10.998049 -10.309814 -1.8509518
-15.326138 -14.36203 -1.8375916
-24.937925 -23.352835 -1.7905179
-25.132738 -23.518806 -0.60081655
-5.3290105 -4.9728632 -1.9530486
-25.201818 -23.509308 0.60158443
-6.1227388 -5.7095451 -1.9327793
-7.1573567 -6.6720109 -1.9019842
-8.6579723 -8.065218 -1.8740851
-11.045595 -10.282178 -1.8529016
-15.381592 -14.308474 -1.8379403
-25.048544 -23.292843 -1.7926114
-25.229332 -23.444544 -0.60116559
-5.3500366 -4.9559221 -1.9540838
-25.292534 -23.42934 0.60179389
-6.138341 -5.6841679 -1.9314297
-7.1817641 -6.645731 -1.9019842
-8.6845722 -8.0307503 -1.8734595
-11.084336 -10.246254 -1.8533891
-15.457788 -14.279029 -1.8410778
-25.233545 -23.292999 -1.799729
-5.3729901 -4.9424496 -1.9561545
-6.1605687 -5.6629486 -1.9318796
-7.2164836 -6.6312485 -1.905037
-8.7212849 -8.0084009 -1.8753366
-11.127665 -10.210931 -1.854364
-15.525155 -14.241145 -1.8431696
-5.3873572 -4.9210582 -1.9551191
-6.1817374 -5.6427226 -1.9323295
-7.2395854 -6.606019 -1.905037
-8.7521048 -7.9805713 -1.8759624
-11.177916 -10.185392 -1.8568015
-15.604232 -14.213699 -1.8466558
-5.4116564 -4.9087119 -1.9577073
-6.2057276 -5.6250381 -1.9336793
-7.2640562 -6.5820265 -1.9054186
-8.7886934 -7.9579287 -1.8778396
-11.223704 -10.155636 -1.8585076
-15.662614 -14.167166 -1.8477017
-5.4215803 -4.8833289 -1.9551191
-6.2301397 -5.6096435 -1.9354788
-7.2942863 -6.5631938 -1.9073268
-8.8150349 -7.9287405 -1.8778396
-11.275037 -10.134283 -1.8614326
-15.729759 -14.128382 -1.8497934
-31.392746 -28.18688 -2.2110896
-5.4478216 -4.8743401 -1.9587426
-6.2540421 -5.5917592 -1.9368286
-7.3247919 -6.5468206 -1.9096165
-8.8441305 -7.8992376 -1.8781524
-11.32367 -10.106765 -1.8636261
-15.820617 -14.110518 -1.8546741
-5.4627628 -4.8517728 -1.9577073
-6.2676935 -5.5647182 -1.9350289
-7.356081 -6.5264444 -1.9115247
-8.8759794 -7.86939 -1.8787781
-11.367794 -10.075074 -1.8650886
-15.890654 -14.073704 -1.8571144
-31.704313 -28.059481 -2.2188356
-5.4985008 -4.8492861 -1.9644365
-6.2953572 -5.548151 -1.9372785
-7.3817644 -6.5033221 -1.9122878
-8.9137735 -7.847496 -1.8809682
-11.417796 -10.048447 -1.8675259
-15.951653 -14.028676 -1.8585091
-5.5000205 -4.8182955 -1.9592602
-6.3195863 -5.5323792 -1.9390782
-7.407722 -6.482686 -1.9134327
-8.9471827 -7.8243952 -1.8825326
-11.468989 -10.026207 -1.8704509
-16.028095 -14.001915 -1.8619952
-31.870491 -27.822014 -2.2171607
-5.5290847 -4.8114438 -1.9639189
-6.3481903 -5.5203447 -1.9422275
-7.4380693 -6.4658136 -1.9157225
-8.9775553 -7.7985682 -1.8834713
-11.526157 -10.008944 -1.8743507
-16.086479 -13.959135 -1.8633897
-5.5420871 -4.7905555 -1.9628838
-6.3605623 -5.4941669 -1.9404278
-7.4728427 -6.4526596 -1.919157
-9.0063562 -7.771338 -1.884097
-11.571309 -9.981039 -1.8763006
-16.159842 -13.929132 -1.8665273
-32.126957 -27.672596 -2.2221849
-5.559607 -4.7702122 -1.9628838
-6.3776979 -5.4682803 -1.9395281
-26.286345 -22.530127 1.8143831
-7.5009136 -6.4290619 -1.9203018
-9.0422812 -7.7447004 -1.8856614
-11.620106 -9.94557 -1.8780067
-16.23501 -13.890533 -1.8693165
-32.179592 -27.513119 -2.2188356
-5.5806355 -4.7545342 -1.9644365
-6.4011984 -5.4497743 -1.9408777
-26.361784 -22.435638 1.8141737
-7.5218143 -6.4015665 -1.9199202
-9.0797939 -7.7220478 -1.8878514
-11.659287 -9.9088068 -1.8787379
-16.313766 -13.859576 -1.8728025
-32.339375 -27.454918 -2.2232318
-5.6001482 -4.7375202 -1.9654719
-6.4320884 -5.4374614 -1.9444768
-26.473503 -22.371845 1.8164765
-7.548614 -6.3790741 -1.9210651
-9.1187668 -7.7005014 -1.8903543
-11.708976 -9.8808489 -1.8811754
-16.37664 -13.809965 -1.8741971
-32.526638 -27.4191 -2.229512
-5.6100774 -4.710752 -1.9628838
-6.4584913 -5.4212418 -1.9467264
-30.269308 -25.398966 2.0708292
-7.5734472 -6.3526254 -1.9214467
-9.1469288 -7.6670275 -1.8903543
-11.752524 -9.8475666 -1.8826377
-16.443077 -13.768064 -1.8762889
-32.626923 -27.29969 -2.229512
-5.6383557 -4.7010384 -1.9670248
-6.4768224 -5.3962846 -1.9462765
-28.896976 -24.076052 1.9711816
-7.6061349 -6.3349471 -1.924118
-9.1797104 -7.6401067 -1.8916059
-11.805326 -9.818387 -1.8853189
-16.512486 -13.728415 -1.8787292
-32.678997 -27.149906 -2.2265811
-5.6591954 -4.6850238 -1.9685777
-6.4961829 -5.376019 -1.9467264
-28.528393 -23.600748 1.940408
-7.6387939 -6.3171139 -1.9267894
-9.201951 -7.6071067 -1.89098
-11.853126 -9.7918282 -1.8877563
-16.584888 -13.69099 -1.8815181
-32.904415 -27.153255 -2.2357922
-5.6791773 -4.6699119 -1.9701307
-6.5164142 -5.3545489 -1.9471762
-30.115681 -24.746109 2.0427773
-7.6642489 -6.2954874 -1.9279342
-9.2513494 -7.5937405 -1.8956732
-11.887234 -9.7503929 -1.8877563
-16.648687 -13.651077 -1.8836099
-33.076244 -27.101522 -2.2410259
-5.6984377 -4.6525011 -1.9711659
-6.5477228 -5.3440003 -1.9512255
-28.242685 -23.042387 1.9102625
-7.6907444 -6.2724171 -1.9290791
-9.2856665 -7.570509 -1.8975502
-11.928736 -9.718442 -1.8892187
-16.711689 -13.605458 -1.8853531
-26.557137 -21.597805 -0.59750056
-5.7093325 -4.62993 -1.969613
-6.5723925 -5.3260193 -1.953025
-27.863571 -22.571533 1.8792796
-7.7038732 -6.2407012 -1.927171
-9.3135729 -7.5392933 -1.8978633
-11.982651 -9.6929741 -1.8923874
-16.787697 -13.575019 -1.8888392
-33.300343 -26.90839 -2.2437472
-5.726964 -4.6111841 -1.9701307
-6.5848708 -5.2981586 -1.9512255
-29.470501 -23.703363 1.9820675
-7.7378492 -6.2236147 -1.9302238
-9.3382921 -7.5054984 -1.8975502
-12.034985 -9.666007 -1.8953122
-16.856731 -13.533798 -1.8912796
-25.872576 -20.74267 -0.57882649
-5.744534 -4.592371 -1.9706483
-6.6078911 -5.278791 -1.9525751
-27.583483 -22.027493 1.8499717
-7.7744169 -6.2062359 -1.9336585
-9.3767891 -7.4827108 -1.9000533
-12.084171 -9.6363134 -1.8977495
-16.937387 -13.496758 -1.8947659
-25.691366 -20.450487 -0.57317197
-5.7688932 -4.5772905 -1.9732366
-6.6302495 -5.2569556 -1.9534749
-29.1917 -23.137068 1.9521314
-7.794034 -6.175261 -1.9328952
-9.4056988 -7.4495215 -1.9003662
-12.116296 -9.5894947 -1.8972621
-17.005497 -13.449415 -1.8968576
-25.703388 -20.306593 -0.57177573
-5.7825966 -4.5537243 -1.9722012
-6.6555986 -5.2374396 -1.9552746
-28.829674 -22.686716 1.9226137
-7.8201718 -6.151659 -1.9340401
-9.4593401 -7.4357505 -1.9056848
-12.162182 -9.5569544 -1.899212
-17.071142 -13.404743 -1.8989493
-27.123486 -21.282825 -1.8068467
-25.698586 -20.157515 -0.57010031
-5.7946219 -4.5321426 -1.9711659
-6.6836772 -5.2237415 -1.9584239
-28.907894 -22.593456 1.9228232
-7.8467169 -6.1305265 -1.9355664
-9.4855032 -7.4055567 -1.9059978
-12.217282 -9.5348892 -1.902868
-17.121786 -13.352961 -1.8996465
-25.807882 -20.105364 -0.57104272
-5.8172479 -4.5188274 -1.9737542
-6.7132778 -5.2111082 -1.962023
-27.708466 -21.500633 1.838039
-7.8778615 -6.1128974 -1.938238
-9.5131302 -7.3764844 -1.9066235
-12.256767 -9.4970484 -1.903843
-17.197472 -13.320513 -1.9031327
-25.857344 -19.999249 -0.57058895
-5.8406348 -4.5043926 -1.9763422
-6.7267971 -5.1840739 -1.9606735
-27.830812 -21.440346 1.841179
-7.9100385 -6.0937481 -1.9409093
-9.5419531 -7.3456392 -1.9072492
-12.305576 -9.4663124 -1.9062805
-17.256502 -13.270112 -1.9045273
-25.922237 -19.905214 -0.57048422
-5.8624578 -4.4886765 -1.9784129
-6.749496 -5.1641126 -1.962023
-28.067297 -21.466837 1.8518558
-7.9312601 -6.0661011 -1.9409093
-9.583231 -7.3242822 -1.910378
-12.351166 -9.4329395 -1.9082304
-17.337559 -13.236393 -1.9083622
-25.85957 -19.713989 -0.5675872
-5.8765521 -4.4670162 -1.9778951
-6.7690315 -5.1417007 -1.9624729
-28.100698 -21.337326 1.8491341
-7.9492583 -6.0360036 -1.940146
-9.6134586 -7.2943692 -1.9113165
-12.377693 -9.3849678 -1.9072554
-17.418585 -13.202273 -1.9121969
-5.8905663 -4.4453135 -1.9773775
-6.7993865 -5.1274281 -1.9660723
-28.213287 -21.267962 1.8516463
-7.9765511 -6.0129461 -1.9416724
-9.64044 -7.2619562 -1.9116293
-12.429407 -9.3560324 -1.9101802
-17.482782 -13.150315 -1.9139401
-5.9099131 -4.4260082 -1.9784129
-27.362112 -20.491829 0.59669781
-6.8219228 -5.1071653 -1.9674219
-8.0048237 -5.9883742 -1.9431988
-9.6764851 -7.2336698 -1.9135066
-12.481072 -9.326848 -1.9131051
-17.570084 -13.120207 -1.9184722
-26.208847 -19.549713 -0.57072854
-5.9330788 -4.4111147 -1.981001
-6.8390322 -5.0809655 -1.966972
-8.0445929 -5.974442 -1.9477782
-9.7175388 -7.2116203 -1.9166353
-12.515173 -9.2810402 -1.9131051
-17.628582 -13.068289 -1.9198667
-26.299431 -19.474771 -0.5712173
-5.9562106 -4.3961148 -1.9835893
-27.103878 -20.004625 0.5880065
-6.865252 -5.0652003 -1.9696715
-8.0622368 -5.9439964 -1.947015
-9.7429914 -7.1805282 -1.9169482
-12.565061 -9.2536154 -1.91603
-17.715813 -13.037376 -1.9243988
-26.389809 -19.399431 -0.57170594
-5.9691982 -4.3751965 -1.9830716
-6.8860354 -5.0435076 -1.9705712
-8.0914087 -5.9241872 -1.9493048
-9.7919092 -7.1639695 -1.9216411
-12.61171 -9.2202396 -1.9182236
-17.775034 -12.990312 -1.9261419
-26.466917 -19.321243 -0.57198519
-5.9844341 -4.3543334 -1.9830716
-6.9058752 -5.0229373 -1.9714712
-8.1120386 -5.8959064 -1.9493048
-9.825202 -7.1384254 -1.9235184
-12.656673 -9.1888618 -1.9204172
-17.846071 -12.94691 -1.9289309
-26.474283 -19.185328 -0.57069367
-6.0050521 -4.3357625 -1.9846245
-6.929852 -4.9998045 -1.9728208
-8.1495161 -5.8776178 -1.9531209
-9.8525391 -7.100647 -1.9235184
-12.714414 -9.1564417 -1.9238297
-17.919277 -12.900033 -1.9317199
-26.560663 -19.099834 -0.57104272
-6.029572 -4.321527 -1.9877304
-26.683275 -19.124493 0.57303238
-6.9574814 -4.9847426 -1.97597
-8.1731768 -5.8514209 -1.9538842
-9.8856707 -7.0748334 -1.9253956
-12.764083 -9.1280842 -1.9267545
-18.009586 -12.869844 -1.9366006
-26.664608 -19.033726 -0.57184559
-6.0359998 -4.2959075 -1.9851422
-26.759645 -19.038187 0.57324171
-6.9764271 -4.961555 -1.9764199
-8.1989355 -5.8288355 -1.9554106
-9.9199667 -7.0471497 -1.9272728
-12.802343 -9.088069 -1.9277295
-18.068413 -12.821581 -1.9383438
-29.34247 -20.806393 -1.8851413
-26.748829 -18.953253 -0.5722295
-6.0698919 -4.2881875 -1.9913538
-26.871674 -18.976961 0.57421905
-6.9968867 -4.9394202 -1.9773197
-8.2063999 -5.7911243 -1.9523578
-9.9638777 -7.0261402 -1.9310273
-0.82261121 -0.57985854 0.12357552
-12.856709 -9.05933 -1.9311417
-18.145638 -12.781379 -1.9418299
-29.362656 -20.667055 -1.8817918
-26.844267 -18.880474 -0.5728578
-6.0705881 -4.2569928 -1.9866952
-26.957405 -18.89682 0.57463795
-7.0236626 -4.9216766 -1.9800191
-8.2410374 -5.772583 -1.9557924
-9.9851055 -6.9890504 -1.9304014
-0.8051126 -0.56332695 0.12065066
-12.91428 -9.0326033 -1.9350417
-18.196672 -12.722527 -1.9425271
-29.388773 -20.532412 -1.878861
-26.93788 -18.813107 -0.57352102
-6.0980964 -4.2446036 -1.9908361
-27.06259 -18.837023 0.57554543
-7.0399451 -4.8983574 -1.9800191
-8.2788687 -5.7561069 -1.95999
-10.014716 -6.9604092 -1.931653
-0.76458931 -0.53120583 0.11431345
-12.970248 -9.0078459 -1.9389415
-18.270432 -12.679381 -1.9456648
-29.46983 -20.443951 -1.8796983
-27.032974 -18.73946 -0.57414931
-6.1153159 -4.2265563 -1.9918715
-27.174246 -18.774267 0.57652277
-7.0473781 -4.8671103 -1.9773197
-8.2962942 -5.7275076 -1.9596084
-10.055211 -6.9366283 -1.9347818
-0.72721827 -0.50148702 0.10846373
-13.017957 -8.9737816 -1.9413787
-18.337555 -12.631347 -1.9481051
-29.6101 -20.388525 -1.8840945
-27.142693 -18.675591 -0.57509166
-6.1403251 -4.210669 -1.9949772
-27.282492 -18.708708 0.57743037
-7.0771842 -4.8512955 -1.980919
-8.3220901 -5.7003899 -1.9607532
-10.100129 -6.9131136 -1.938536
-0.73551697 -0.50343043 0.10943868
-13.05248 -8.9305277 -1.9418663
-18.41114 -12.587501 -1.9512427
-29.974882 -20.478157 -1.9025168
-27.250654 -18.610052 -0.5759992
-6.153389 -4.1881227 -1.9944596
-27.380646 -18.628828 0.5780586
-7.0965295 -4.8264198 -1.9813689
-8.3386908 -5.6690979 -1.95999
-10.122566 -6.8767047 -1.9382232
-0.73243034 -0.49738565 0.10870746
-13.108118 -8.8982372 -1.9452786
-18.468157 -12.532106 -1.9526372
-29.933773 -20.29718 -1.8953992
-27.305519 -18.508085 -0.57578981
-6.1631689 -4.1633735 -1.9929067
-27.495291 -18.573751 0.57917553
-7.1270299 -4.812675 -1.985418
-8.3649387 -5.6443481 -1.9615166
-10.160053 -6.8530416 -1.9410391
-0.7324298 -0.49384433 0.10846373
-13.160598 -8.8702517 -1.948691
-18.544838 -12.489827 -1.9561234
-27.408117 -18.438337 -0.57659262
-6.1961942 -4.1558256 -1.9991184
-27.606466 -18.508835 0.58015287
-7.1454048 -4.7888522 -1.9858679
-8.3868723 -5.6187634 -1.9622798
-10.193761 -6.8241296 -1.9429164
-0.72095102 -0.48245257 0.10651381
-13.201381 -8.8308802 -1.9501534
-18.615967 -12.448195 -1.9592611
-6.2154865 -4.1373844 -2.0006714
-27.710859 -18.43895 0.58099061
-7.1572099 -4.760643 -1.9845182
-8.4113379 -5.5927162 -1.9634248
-10.225746 -6.7939711 -1.9444805
-0.72593808 -0.48212931 0.10700129
-13.242047 -8.7913351 -1.9516157
-18.692507 -12.405171 -1.9627472
-6.2202201 -4.1092725 -1.9975655
-27.815104 -18.368555 0.5818283
-7.1770358 -4.7377791 -1.985418
-8.4373646 -5.5676436 -1.9649512
-10.251049 -6.7593217 -1.9447935
-0.72264415 -0.47631514 0.10627007
-13.279285 -8.7494268 -1.9525908
-18.768972 -12.361764 -1.9662335
-6.2377577 -4.0896525 -1.9986008
-27.942604 -18.313009 0.58315474
-7.2098322 -4.7233753 -1.989917
-8.4616756 -5.5413842 -1.966096
-10.29111 -6.7343144 -1.9479222
-0.73260862 -0.4792231 0.10748877
-13.316392 -8.707366 -1.9535657
-18.83536 -12.311434 -1.9686739
-27.796858 -18.141294 -0.57938498
-6.2519956 -4.0678539 -1.9986008
-28.043236 -18.239344 0.58392262
-7.2230082 -4.6960545 -1.9890171
-8.4875507 -5.5160928 -1.9676224
-10.326151 -6.7058811 -1.9501122
-0.73760706 -0.47882462 0.10797625
-13.383341 -8.6846027 -1.9589281
-18.898279 -12.258622 -1.9707656
-33.694126 -21.839441 -2.1043243
-6.2758937 -4.0522943 -2.0017066
-28.150423 -18.169535 0.58483016
-7.2426319 -4.6729259 -1.989917
-8.5216026 -5.4960108 -1.9710571
-10.352818 -6.6719346 -1.950738
-0.73092997 -0.47087187 0.10675755
-13.423587 -8.6442804 -1.9603903
-18.977808 -12.216304 -1.9746004
-33.706322 -21.680637 -2.1003468
-6.2883739 -4.0293202 -2.001189
-28.267561 -18.105671 0.5859471
-7.2539749 -4.6444654 -1.9885672
-8.5456963 -5.4694061 -1.9722018
-10.392684 -6.6464009 -1.9538667
-0.72587913 -0.46404052 0.1057826
-13.467062 -8.6059227 -1.9623404
-19.057274 -12.173586 -1.9784353
-33.87944 -21.625172 -2.1064177
-28.148844 -17.953518 -0.58277076
-6.3105531 -4.0125265 -2.0037773
-28.364338 -18.028349 0.58664519
-7.2767224 -4.6232958 -1.9903669
-8.5713663 -5.4437509 -1.9737284
-10.434168 -6.6217265 -1.9573083
