# .PCD v0.7 - Point Cloud Data file format
VERSION 0.7
FIELDS x y z
SIZE 4 4 4
TYPE F F F
COUNT 1 1 1
WIDTH 1449
HEIGHT 1
VIEWPOINT 0 0 0 1 0 0 0
POINTS 1449
DATA ascii
0.63717312 -8.0600719 -1.2805728
1.2610826 -15.987903 1.9691651
0.63108766 -8.0008774 -0.98543561
1.6315403 -20.730688 3.2935717
0.62655014 -7.9788661 -0.7002092
1.3444369 -17.159264 3.345645
0.62653399 -8.0145159 -0.42130449
0.87998801 -11.256656 2.6067328
0.62340987 -7.9925036 -0.13993341
0.86771727 -11.149776 2.9966071
0.58838016 -7.6817245 -2.0643408
0.61115903 -7.9974604 0.1400032
0.61289233 -8.0386076 -1.8612449
0.87352133 -11.45698 0.60217756
0.61127859 -8.035943 -1.5665419
1.0355152 -13.644494 1.1971713
0.60835308 -8.0345631 -1.2761924
1.0893301 -14.420312 1.7756364
0.60963607 -8.0702276 -0.99372268
1.5669442 -20.791138 3.3023319
0.60202962 -8.0067282 -0.70247525
1.4038402 -18.714169 3.6478865
0.59727007 -7.9806976 -0.41942036
0.59481841 -7.9666085 -0.13944472
0.82973349 -11.139107 2.9929833
0.56345117 -7.7281442 -2.0762465
0.58039296 -7.9797029 0.13965416
0.58271998 -8.0310812 -1.8589954
0.61756438 -8.5319386 0.44830981
0.58423066 -8.0714188 -1.5730294
0.9869349 -13.66807 1.1989144
0.57733959 -8.0150671 -1.272751
0.574812 -8.0190496 -0.98714179
1.1047235 -15.449483 2.4532056
0.57239509 -8.0049067 -0.70212668
1.3385943 -18.766188 3.6570454
0.56999987 -8.010726 -0.42088583
0.795277 -11.20435 2.5932357
0.56817907 -8.0246859 -0.14042206
0.78627586 -11.132575 2.9903955
0.53607094 -7.7242827 -2.0746937
0.55419099 -8.0056181 0.14007302
0.55253565 -8.0019617 -1.8517971
0.5857209 -8.5041552 0.44673976
0.55632317 -8.0773258 -1.5737926
0.93129635 -13.556145 1.1888043
0.55178881 -8.0525055 -1.2783825
0.98543775 -14.417834 1.7744178
0.54735762 -8.0289288 -0.98811674
1.0515915 -15.465071 2.4550829
0.5439083 -7.9989042 -0.70142943
1.2752049 -18.802086 3.6631515
0.53879923 -7.9648414 -0.41837367
0.76180232 -11.290663 2.6125815
0.53774619 -7.9907064 -0.13979377
0.74818838 -11.146817 2.9935012
0.50872356 -7.7203231 -2.0731406
0.52729267 -8.023468 0.14035226
0.52612853 -8.0271769 -1.857196
0.54600054 -8.3526869 0.43867999
0.52338618 -8.0067329 -1.5596728
0.88500911 -13.575219 1.1901989
0.52239507 -8.0346708 -1.2752539
0.9383148 -14.470711 1.7805113
0.51984125 -8.0387144 -0.98909163
1.0001442 -15.508073 2.4613402
0.51611161 -8.0027418 -0.70160371
1.2563145 -19.533287 3.8047316
0.51176035 -7.9786325 -0.41900173
0.72574431 -11.345762 2.6247289
0.50883245 -7.9765701 -0.13951454
0.71356517 -11.21684 3.0116186
0.47491467 -7.6121502 -2.0436354
0.49754468 -7.9973168 0.13986358
0.49762326 -8.021184 -1.8553963
0.51708734 -8.3585291 0.43888938
0.49894944 -8.0653362 -1.5707397
0.68795353 -11.152122 0.97753882
0.49276975 -8.0108147 -1.2711866
1.0253736 -16.716806 2.0564234
0.48789856 -7.9770746 -0.98129201
0.94540501 -15.501611 2.4597759
0.4873254 -7.9905744 -0.70038354
1.1945601 -19.643375 3.8253388
0.48584053 -8.0122681 -0.42067644
0.78339881 -12.956897 2.9967978
0.48267043 -8.0062428 -0.1400032
0.67278492 -11.192264 3.0043716
0.45367849 -7.704402 -2.0679643
0.46845263 -7.9790435 0.13951454
0.45834717 -7.8302755 -1.810856
0.48488182 -8.3084421 0.43616793
0.46987787 -8.0513496 -1.5676868
0.92932391 -15.971875 1.3997213
0.46560434 -8.0262899 -1.2733767
0.96838969 -16.744064 2.0593483
0.46473622 -8.0599833 -0.99128538
0.87360287 -15.197165 2.4109683
0.45874384 -7.9802923 -0.69933766
1.1280036 -19.682705 3.8322082
0.4554778 -7.9720407 -0.41847834
0.72985429 -12.813634 2.9630554
0.4519994 -7.9599633 -0.13916549
0.4274222 -7.7175121 -2.0710702
0.44037798 -7.9766364 0.13944472
0.42801309 -7.7773457 -1.7982588
0.45532972 -8.3001127 0.43564454
0.43951198 -8.0117741 -1.5596728
0.87150049 -15.937222 1.3964093
0.43629414 -8.0041971 -1.2696222
0.90993559 -16.747343 2.0593483
0.43649119 -8.0595741 -0.99104154
0.82416952 -15.267186 2.4216058
0.4310993 -7.9858246 -0.69968635
1.4751198 -27.414492 5.3365459
0.42839497 -7.9875426 -0.41921103
0.68241841 -12.76551 2.9513578
0.42655271 -8.0054245 -0.13993341
0.60354513 -11.364523 3.0494061
0.39927998 -7.6958055 -2.0648584
0.41253045 -7.9781246 0.13944472
0.40036172 -7.7690616 -1.7960092
0.50226289 -9.7796726 0.51320642
0.41446394 -8.0701199 -1.5707397
0.81148225 -15.854607 1.3889139
0.4100621 -8.0392094 -1.2749411
1.0158412 -19.983929 2.4568863
0.40453878 -7.9857125 -0.98177958
0.7700749 -15.254189 2.4191029
0.40312022 -7.9852901 -0.69951195
1.3796163 -27.423397 5.3373098
0.39991137 -7.9770207 -0.41858301
0.39840588 -8.0028687 -0.13986358
0.56837165 -11.457246 3.073735
0.3718538 -7.685575 -2.0617526
0.38506499 -7.9875059 0.13958435
0.37754083 -7.8599505 -1.8167046
0.47041354 -9.8292446 0.51571852
0.38310027 -8.0048428 -1.5577648
0.52715045 -11.055163 0.96830028
0.38143581 -8.0287523 -1.2730639
0.94673228 -20.001234 2.4585924
0.38058913 -8.0703564 -0.99201655
0.71849149 -15.292301 2.4247346
0.37571117 -7.9965992 -0.70038354
0.62036675 -13.253162 2.5789745
0.37141243 -7.9644027 -0.41785032
0.59364343 -12.777748 2.9531574
0.3691746 -7.9762449 -0.13937493
0.70509273 -15.291746 4.1017642
0.34571666 -7.7022653 -2.0658937
0.35736042 -7.9927969 0.13965416
0.3507956 -7.8767953 -1.8203038
0.60613203 -13.663794 0.71679336
0.35741773 -8.0571251 -1.5676868
0.69558936 -15.742449 1.3786296
0.35227859 -8.0043802 -1.2689966
0.87630236 -19.990534 2.4568863
0.34947082 -8.0042076 -0.98372942
0.64090699 -14.738185 2.3365054
0.34753662 -7.9918914 -0.69986063
1.1264565 -26.008369 5.0602546
0.34558871 -8.0115452 -0.42025778
0.49483576 -11.518124 2.6616209
0.3420147 -7.9934688 -0.13965416
0.5254637 -12.33141 3.3071899
0.30317146 -7.3251057 -1.9644365
0.32896292 -7.9820075 0.13944472
0.32849196 -8.0045328 -1.8495475
0.56512088 -13.829464 0.72537643
0.32929167 -8.0583239 -1.5676868
0.63836527 -15.68904 1.3737488
0.32577509 -8.0410891 -1.2746283
0.80635881 -19.989502 2.4563985
0.32328215 -8.049015 -0.98909163
0.59364015 -14.844943 2.3530874
0.31931892 -7.9850917 -0.69916338
1.0369093 -26.043533 5.066361
0.31556499 -7.960814 -0.41753629
0.45293736 -11.47694 2.6517229
0.31363794 -7.9826241 -0.13944472
0.28447512 -7.5075836 -2.0130947
0.3009485 -7.9791107 0.13937493
0.30091518 -8.0153685 -1.8517971
0.37558645 -10.051182 0.5271278
0.29888704 -7.9986062 -1.5558566
0.58411622 -15.705111 1.374969
0.29675427 -8.0165157 -1.270561
0.736063 -19.978312 2.4546924
0.29547462 -8.0580292 -0.99006665
0.54224992 -14.85877 2.3549647
0.29267886 -8.0200071 -0.70212668
0.94856167 -26.117622 5.0800986
0.28791872 -7.9658599 -0.41774565
0.41301242 -11.482347 2.6526229
0.28548607 -7.975677 -0.13930511
0.4121305 -11.570251 3.1022053
0.25255647 -7.3424902 -1.9685777
0.27295735 -7.9761157 0.13930511
0.27147546 -7.9735227 -1.8418993
0.33833632 -9.9885559 0.52377832
0.27249426 -8.0447292 -1.564634
0.53371787 -15.838477 1.3864735
0.26876938 -8.0175028 -1.270561
0.66638917 -19.982742 2.4549363
0.26444891 -7.9717159 -0.9793421
0.84622532 -25.644211 4.0638547
0.26395896 -7.9990745 -0.7002092
0.85107887 -25.92848 5.0427003
0.26089278 -7.9907708 -0.41900173
0.37387744 -11.512934 2.6593714
0.25815928 -7.9926143 -0.13958435
0.23408595 -7.5750384 -2.0306942
0.24572782 -7.9970074 0.13965416
0.24447393 -8.0016909 -1.8481979
0.30618671 -10.021565 0.52545309
0.24453118 -8.0495558 -1.5653971
0.40841541 -13.522159 1.183575
0.24090074 -8.0223398 -1.2711866
0.67381448 -22.570372 2.7725279
0.23856492 -8.0380697 -0.98738551
0.44690004 -15.057593 2.3859386
0.23597734 -7.9979558 -0.70003492
0.38206559 -13.026482 2.5331805
0.23218308 -7.9636822 -0.41753629
0.33549505 -11.576502 2.6737683
0.23084404 -7.9654422 -0.13909568
0.37825447 -13.131145 3.5199392
0.20563027 -7.5024261 -2.011024
0.21822095 -7.9617977 0.13902587
0.29805291 -11.014846 0.57747501
0.21300079 -7.9227953 -1.540592
0.35716841 -13.372135 1.1703273
0.21339943 -7.9895253 -1.2658678
0.48917797 -18.43502 2.2643328
0.21196043 -8.040801 -0.98762923
0.20748772 -7.9768219 -0.69811749
0.34693301 -13.337766 2.5934761
0.20608345 -7.9763885 -0.41816431
0.29845348 -11.63015 2.6859155
0.20344447 -7.9821916 -0.13937493
0.72251844 -28.543627 7.6506915
0.18089038 -7.5088611 -2.0125771
0.19109781 -7.9904981 0.13951454
0.188299 -7.99019 -1.5535669
0.31375575 -13.413082 1.1738135
0.18660966 -8.0376177 -1.2733767
0.42747653 -18.55172 2.2784696
0.18271227 -7.9898925 -0.98129201
0.34405297 -15.161065 2.401895
0.18103418 -7.9774661 -0.69811749
0.28004169 -12.436028 2.4179318
0.178149 -7.9730659 -0.41795498
0.25871837 -11.670086 2.6949136
0.1755809 -7.9828534 -0.13937493
0.37852868 -17.347763 4.6494255
0.15622981 -7.5847731 -2.0327649
0.16238871 -7.9511313 0.13881645
0.15816002 -7.8108988 -1.8036577
0.22475651 -11.196377 0.58689547
0.1601318 -7.9770589 -1.5508956
0.2672486 -13.430031 1.175208
0.15757881 -7.9888449 -1.2655549
0.44548199 -22.786491 2.7983642
0.15608907 -8.0559778 -0.98933536
0.49833515 -25.953644 4.1114111
0.15391302 -8.0158978 -0.70142943
0.49350467 -25.93775 5.0427003
0.14971513 -7.9416885 -0.41628024
0.21863532 -11.70599 2.703012
0.14764027 -7.9794192 -0.13930511
0.31776059 -17.337391 4.6463199
0.13233098 -7.7359343 -2.0731406
0.13503814 -7.9756422 0.1392353
0.13046926 -7.7860732 -1.7978089
0.16947925 -10.220567 0.53571087
0.13326199 -8.0364599 -1.5623442
0.12978756 -7.9952722 -1.2664937
0.36103043 -22.482243 2.7608283
0.12658106 -7.969141 -0.97861093
0.41338649 -26.314699 4.1683536
0.12533751 -7.9785352 -0.69811749
0.20663273 -13.301407 2.5858438
0.12230002 -7.9621329 -0.41732696
0.17827514 -11.739806 2.7106602
0.11972575 -7.9758863 -0.1392353
0.25488937 -17.179998 4.6038733
0.10487852 -7.7035103 -2.0643408
0.10719787 -7.9760647 0.1392353
0.10365166 -7.8137608 -1.8041074
0.1467163 -11.207658 0.58741885
0.10515707 -8.0329485 -1.5615808
0.17443809 -13.505282 1.1816576
0.10217985 -8.0193787 -1.2702481
0.29088148 -23.146334 2.842237
0.099033155 -7.9913678 -0.98129201
0.31192273 -25.529839 4.0438313
0.097729653 -7.9988475 -0.69986063
0.16263731 -13.504248 2.6251502
0.094220631 -7.9385457 -0.41607088
0.13763736 -11.769587 2.7174089
0.091608301 -7.9522619 -0.13881645
0.12693556 -11.188565 2.9981599
0.077479854 -7.653604 -2.0508821
0.079075873 -7.9483962 0.13874663
0.076795645 -7.856945 -1.8140053
0.12629759 -13.400217 1.1724191
0.074021682 -8.0019093 -1.2674322
0.19815935 -21.833132 2.680882
0.071525976 -8.0353355 -0.98665434
0.23404367 -26.818668 4.2478218
0.069685936 -7.9851933 -0.69864047
0.11600102 -13.563628 2.6365988
0.066878192 -7.9827642 -0.41837367
0.11204266 -13.658261 3.1533639
0.063976422 -7.9685297 -0.13909568
0.088821113 -11.308711 3.0302534
0.051249981 -7.7272367 -2.0705523
0.051460169 -7.9686203 0.13909568
0.049405836 -7.8630118 -1.8153551
0.062465932 -10.225776 0.53592026
0.048486315 -7.9372892 -1.5428816
0.079853602 -13.456362 1.1772997
0.045896679 -7.9685383 -1.2621135
0.12136659 -21.730467 2.6682076
0.042897727 -7.9283428 -0.97349238
0.14030276 -26.795618 4.2440677
0.041665714 -7.9574947 -0.69620007
0.038836826 -7.9469991 -0.41648957
0.073309854 -15.556621 3.5915685
0.036215853 -7.9807024 -0.13930511
0.072981432 -16.725811 4.4817104
0.023317449 -7.4221377 -1.9887657
0.023466904 -7.908761 0.13804853
0.021762371 -7.7929816 -1.7991585
0.021030553 -8.0329485 0.4209905
0.032540489 -13.317092 1.165098
0.017937358 -7.9054384 -1.2521017
0.040358804 -19.269251 2.3659718
0.019032421 -15.578217 3.5965176
0.0082307523 -7.8587995 -0.13717592
0.014618462 -16.751081 4.48844
-0.0025334817 -7.2598982 -1.945284
-0.0054215142 -7.7657275 -1.7928599
-0.0069201873 -7.9311132 0.41565222
-0.0068383394 -7.8373084 -1.523419
-0.013928715 -13.301186 1.1637034
-0.009655687 -7.9034767 -1.2517889
-0.026782753 -19.183914 2.3554909
-0.012406814 -7.8986726 -0.96983629
-0.037685275 -21.59281 3.4199708
-0.01373862 -7.8719187 -0.68870467
-0.016497286 -7.8771729 -0.41282606
-0.027916502 -12.304314 2.8406818
-0.019349368 -7.9187713 -0.13822307
-0.03744632 -14.303381 3.8325925
-0.028432647 -7.4047327 -1.9841069
-0.031658933 -7.8867359 0.13766459
-0.032544546 -7.7695589 -1.7937597
-0.034701921 -7.9530096 0.4168036
-0.034205329 -7.8392 -1.5238007
-0.082145847 -18.102665 1.5837941
-0.037849192 -8.0317926 -1.2721251
-0.10510954 -21.508219 2.6409087
-0.040159322 -7.9343128 -0.97422361
-0.11458938 -21.884901 3.4662752
-0.041696753 -7.9634719 -0.69672298
-0.044361975 -7.9429755 -0.41628024
-0.07124836 -12.370399 2.8559787
-0.087103188 -14.258732 3.8206871
-0.052848879 -7.2094769 -1.9318254
-0.05921644 -7.7109375 -1.7802627
-0.062399425 -7.9448519 0.41638491
-0.062030893 -7.8979297 -1.5352492
-0.14668174 -18.269623 1.5984362
-0.065739542 -8.013835 -1.2693094
-0.17955272 -21.432289 2.6316469
-0.068058945 -7.9579444 -0.97714853
-0.069755219 -7.9931622 -0.69933766
-0.072269343 -7.9627442 -0.41732696
-0.11356376 -12.276538 2.8343832
-0.074915037 -7.9484367 -0.13874663
-0.13570535 -14.13664 3.7880757
-0.082570739 -7.6303678 -2.0446706
-0.087619431 -7.9683051 0.13909568
-0.086916104 -7.7808342 -1.7964592
-0.15980582 -14.085762 0.73825109
-0.088776536 -7.8250289 -1.5211295
-0.11236351 -9.7540922 0.85342902
-0.093273036 -7.9760261 -1.2633649
-0.25851384 -21.780884 2.6745448
-0.097314648 -7.9649787 -0.69689733
-0.099863507 -7.9464664 -0.41648957
-0.15706059 -12.32673 2.8460808
-0.10307229 -7.9801192 -0.13930511
-0.18661879 -14.255844 3.8201692
-0.10917866 -7.6281013 -2.044153
-0.11560655 -7.9799476 0.13930511
-0.11379028 -7.7609982 -1.7919601
-0.20802392 -14.021214 0.73490155
-0.1160606 -7.8227081 -1.5207478
-0.27891698 -18.580923 1.6258032
-0.12159412 -8.0072546 -1.2683709
-0.33143002 -21.577393 2.6496835
-0.12398326 -7.9810939 -0.98007339
-0.12518078 -7.9685745 -0.6972459
-0.25873092 -16.28903 3.1666663
-0.12766466 -7.9500632 -0.41669893
-0.26050258 -16.04771 3.7053936
-0.13086113 -7.9757118 -0.1392353
-0.23535529 -14.193295 3.8036048
-0.13783334 -7.7416353 -2.0746937
-0.14252762 -7.9275112 0.13839759
-0.14066851 -7.7488627 -1.7892607
-0.18049447 -9.9427147 0.5211615
-0.14401311 -7.8575883 -1.527617
-0.179204 -9.6853409 0.84750247
-0.14899081 -7.9771557 -1.2636777
-0.40595943 -21.534426 2.6445649
-0.15255941 -8.018321 -0.98470432
-0.15345378 -7.9919934 -0.69933766
-0.15568827 -7.9635477 -0.41743162
-0.26063803 -13.213786 3.0512362
-0.1571514 -7.967237 -0.13909568
-0.33684534 -16.927399 4.5365806
-0.16103171 -7.5614853 -2.0265532
-0.16992272 -7.9789758 0.13930511
-0.16581947 -7.7230263 -1.783412
-0.21770585 -10.057838 0.52723247
-0.17109883 -7.8413343 -1.5245639
-0.21274731 -9.6727047 0.84645659
-0.17635474 -8.0180902 -1.2702481
-0.47631285 -21.485331 2.6387153
-0.17790699 -7.9622035 -0.97787964
-0.18067136 -7.9615316 -0.69672298
-0.27209941 -11.990434 2.3313043
-0.18195881 -7.9569969 -0.4171176
-0.38238761 -16.594965 3.8322663
-0.18514717 -7.9746361 -0.1392353
-0.30566615 -13.067334 3.5023394
-0.186105 -7.5609093 -2.0265532
-0.19678168 -7.9383526 0.13860701
-0.19418739 -7.7788963 -1.7964592
-0.25376683 -10.094953 0.52922124
-0.20070167 -7.9839973 -1.5524222
-0.20348662 -7.9838557 -1.2649293
-0.55365342 -21.574821 2.6499274
-0.20621116 -7.9813781 -0.98031712
-0.20908822 -7.9847527 -0.69881475
-0.20973209 -7.9563136 -0.4171176
-0.44186375 -16.65197 3.8457632
-0.21202189 -7.9379601 -0.13860701
-0.35158965 -13.077774 3.5054452
-0.21441585 -7.581418 -2.0322473
-0.22460283 -7.9416146 0.13867682
-0.221617 -7.7879105 -1.7987086
-0.28265873 -9.8724003 0.51760262
-0.22968061 -7.9733953 -1.550514
-0.58258826 -20.102741 1.7595001
-0.23205686 -7.9593616 -1.2611748
-0.63127232 -21.652126 2.6596768
-0.23372211 -7.9687042 -0.97885466
-0.65125799 -22.073133 3.4975624
-0.23725376 -7.9939322 -0.69968635
-0.35842276 -12.005843 2.334739
-0.2391329 -7.9634767 -0.41753629
-0.49953818 -16.539211 3.8201187
-0.24021144 -7.9531612 -0.13888624
-0.39805904 -13.103501 3.5126922
-0.24296583 -7.6462736 -2.0498469
-0.25485837 -7.9767146 0.13930511
-0.2502214 -7.7889938 -1.7991585
-0.45359913 -14.043394 0.73636699
-0.2583991 -8.0000162 -1.5558566
-0.30419737 -9.3672619 0.81996119
-0.26119173 -7.9999638 -1.267745
-0.71121353 -21.667524 2.6618705
-0.26279557 -7.9638262 -0.97836721
-0.26403451 -7.9592028 -0.69672298
-0.4272866 -12.812929 2.4919655
-0.26572394 -7.9266634 -0.41565222
-0.5492633 -16.299757 3.7652307
-0.27003673 -7.9722133 -0.1392353
-0.44647619 -13.113538 3.5157981
-0.26890507 -7.6241417 -2.044153
-0.28142595 -7.9398046 0.13867682
-0.27394122 -7.6906977 -1.7766634
-0.50068665 -13.987833 0.73354083
-0.28435567 -7.9441295 -1.5451714
-0.33037531 -9.1849527 0.8040989
-0.28826016 -7.9753141 -1.2639905
-0.78496772 -21.613331 2.6555333
-0.29196858 -8.0005512 -0.98299813
-0.47216794 -12.876728 2.0408442
-0.29364017 -8.008009 -0.7010808
-0.29531276 -7.9775805 -0.41837367
-0.4776668 -12.843062 2.9671044
-0.29711682 -7.9512386 -0.13888624
-0.49101812 -13.079081 3.5069981
-0.29626521 -7.6424608 -2.0493293
-0.31007329 -7.9627519 0.13909568
-0.30146989 -7.7072201 -1.7807125
-0.38212138 -9.7691135 0.5123691
-0.31270096 -7.9587822 -1.5482242
-0.36267069 -9.1897163 0.80462182
-0.31586203 -7.968338 -1.263052
-0.5173521 -12.994045 1.5967323
-0.31783187 -7.9479122 -0.97666097
-0.62331778 -15.587091 2.4707263
-0.32039145 -7.9770727 -0.69846606
-0.32170284 -7.9405799 -0.41648957
-0.51964128 -12.77122 2.9509079
-0.32331923 -7.9462142 -0.13881645
-0.53627914 -13.123707 3.5194216
-0.32294077 -7.6413798 -2.0493293
-0.33765942 -7.9896502 0.13958435
-0.32719186 -7.710072 -1.7816124
-0.42820784 -10.049078 0.5271278
-0.3418234 -7.9890261 -1.5543302
-0.39072752 -9.0948381 0.79642916
-0.34313244 -7.9869833 -1.2661808
-0.5630061 -13.051756 1.6040444
-0.344787 -7.9606981 -0.97836721
-0.34771445 -7.963964 -0.6974203
-0.56451273 -12.929456 2.515626
-0.34873208 -7.9554324 -0.41732696
-0.56618822 -12.864822 2.9729531
-0.35140896 -7.9530277 -0.13895606
-0.55109447 -12.423112 3.3320365
-0.34845498 -7.6441269 -2.0503645
-0.36188933 -7.9085183 0.13818815
-0.35437056 -7.7147226 -1.7829621
-0.46070871 -9.9916582 0.52419698
-0.36677712 -7.9545088 -1.5478426
-0.42401731 -9.1611614 0.80235577
-0.36917683 -7.9462719 -1.2599235
-0.9976843 -21.393911 2.6296968
-0.3737798 -7.9852242 -0.98153585
-0.61271054 -13.040879 2.0677509
-0.37458885 -7.9727173 -0.69829178
-0.60316652 -12.790131 2.4889126
-0.3764998 -7.9541669 -0.41732696
-0.61044592 -12.849141 2.9698038
-0.37840539 -7.9357734 -0.13867682
-0.59805787 -12.496368 3.3522243
-0.37560865 -7.6525111 -2.0529528
-0.39224792 -7.963131 0.13916549
-0.37927753 -7.672565 -1.7735142
-0.52823859 -10.648274 0.55873871
-0.39658332 -7.9943576 -1.5558566
-0.64312601 -12.918594 1.1316301
-0.39878514 -7.9824195 -1.2658678
-0.6446653 -12.859161 1.5808893
-0.40025499 -7.9561143 -0.97812337
-0.40090999 -7.9415135 -0.6956771
-0.64840508 -12.799712 2.4912024
-0.40345177 -7.9368463 -0.41648957
-0.65777469 -12.895588 2.9810514
-0.40814957 -7.9743462 -0.13937493
-0.65534729 -12.76045 3.4236584
-0.39511555 -7.5141816 -2.0162005
-0.42046371 -7.9697013 0.13930511
-0.40471858 -7.645896 -1.7676654
-0.48914316 -9.2103624 0.48337492
-0.42136407 -7.9341097 -1.5444082
-0.48785684 -9.1559887 0.80218142
-0.42675132 -7.9829521 -1.2661808
-0.69337738 -12.928192 1.5896639
-0.42759725 -7.9467402 -0.97714853
-0.69638938 -12.900182 2.0461631
-0.43023881 -7.9699078 -0.69829178
-0.76601994 -14.144153 2.7533739
-0.4320212 -7.9513445 -0.41732696
-0.70087439 -12.858188 2.9729531
-0.43357995 -7.9289451 -0.13860701
-0.69512403 -12.671281 3.4003646
-0.42610335 -7.5976248 -2.0389764
-0.44805616 -7.9641914 0.1392353
-0.43612692 -7.7280998 -1.7870111
-0.44904497 -7.9323964 0.41638491
-0.52659172 -9.2735806 0.81264013
-0.45349127 -7.9616909 -1.263052
-1.2330976 -21.582458 2.6543145
-0.45487985 -7.9372711 -0.97617352
-0.73767596 -12.832592 2.0358384
-0.45851496 -7.9763141 -0.69898903
-0.74870884 -12.984994 2.5282195
-0.45850563 -7.9278541 -0.41617554
-0.74530399 -12.84788 2.9711535
-0.46102142 -7.9233904 -0.1385372
-0.73687512 -12.62635 3.3889768
-0.45135677 -7.5748782 -2.0332825
-0.47680822 -7.9785485 0.13951454
-0.46659833 -7.7848883 -1.8005083
-0.54348272 -9.0412502 0.47468719
-0.47792041 -7.950572 -1.5482242
-0.56219685 -9.3253841 0.81734651
-0.48283008 -7.9856935 -1.2671193
-0.82506627 -13.606637 1.6737536
-0.483668 -7.9534683 -0.97836721
-0.74482626 -12.212793 1.9379103
-0.48344311 -7.9269366 -0.69480556
-0.78408438 -12.819654 2.4965451
-0.48642004 -7.9301925 -0.41638491
-0.78823143 -12.81408 2.9639552
-0.49040133 -7.949676 -0.13902587
-0.78523928 -12.693114 3.4076116
-0.47268757 -7.49228 -2.0115416
-0.50288731 -7.9488955 0.13902587
-0.49327552 -7.7754321 -1.7987086
-0.50567132 -7.9488544 -1.5482242
-0.70344591 -11.027379 0.96673149
-0.50830573 -7.9465032 -1.2611748
-1.3697643 -21.355412 2.6275034
-0.51244736 -7.9675794 -0.98031712
-0.78961247 -12.24363 1.9432292
-0.51277655 -7.9510479 -0.69707161
-0.51629585 -7.9623289 -0.41816431
-0.83295804 -12.811251 2.9639552
-0.51684624 -7.9279609 -0.13867682
-0.83344704 -12.750056 3.4236584
-0.50191778 -7.5368457 -2.0239649
-0.52956545 -7.9311299 0.13874663
-0.51859176 -7.7464414 -1.79241
-0.53538638 -7.9764242 -1.5539485
-0.62675041 -9.3132801 0.81664932
-0.53763807 -7.9683313 -1.2649293
-1.4846262 -21.946651 2.7008686
-0.53864366 -7.9419751 -0.97739226
-0.54093444 -7.9551735 -0.69759458
-0.88170719 -12.93335 2.5198238
-0.54231608 -7.9345737 -0.4168036
-0.87394118 -12.753828 2.9513578
-0.54506534 -7.9340887 -0.13881645
-0.86626714 -12.577468 3.3781064
-0.52660137 -7.5119228 -2.0177534
-0.5611726 -7.9850869 0.13972397
-0.54918975 -7.7951264 -1.8041074
-0.63686526 -9.0171318 0.47374511
-0.56322634 -7.9745064 -1.5539485
-0.66122627 -9.3388596 0.81908965
-0.56628793 -7.978229 -1.2668065
-1.5561564 -21.87005 2.6920938
-0.56664574 -7.9440064 -0.97787964
-1.0077885 -14.093885 2.2379518
-0.56869918 -7.9532366 -0.69759458
-0.99155748 -13.832936 2.6957495
-0.57072562 -7.9425936 -0.41732696
-0.57131714 -7.9121923 -0.1384674
-0.91058409 -12.580148 3.3796592
-0.54672247 -7.4271936 -1.995495
-0.58462805 -7.9232507 0.13867682
-0.58617002 -7.9253149 -1.8347007
-0.68827224 -9.2837467 0.48787585
-0.58902717 -7.9450817 -1.5486058
-0.69278771 -9.3225861 0.81786948
-0.59281224 -7.9584737 -1.2639905
-1.6496307 -22.094116 2.7203677
-0.59629816 -7.9677148 -0.98104829
-0.98191541 -13.089602 2.0790143
-0.59705496 -7.9591498 -0.69829178
-1.0411611 -13.847011 2.6991842
-0.60054767 -7.9684358 -0.4187924
-0.59923363 -7.9141378 -0.1385372
-0.94498783 -12.451682 3.3460128
-0.57769477 -7.4907284 -2.0130947
-0.61505497 -7.9570494 0.13930511
-0.61368161 -7.921278 -1.8342509
-0.72098267 -9.2852697 0.48808515
-0.84435683 -10.849627 0.95208931
-0.62151176 -7.9681721 -1.2658678
-1.0689074 -13.673285 1.6839907
-0.62395227 -7.9636059 -0.98080456
-1.0984257 -13.98804 2.2223082
-0.62171376 -7.9172916 -0.69480556
-1.0905684 -13.856993 2.7018557
-0.62568939 -7.9324427 -0.41701293
-1.0851568 -13.726973 3.1790082
-0.62811923 -7.9279456 -0.13881645
-0.97850871 -12.323131 3.3123662
-0.61067075 -7.5733924 -2.0358706
-0.64250463 -7.9508672 0.1392353
-0.64101303 -7.9152026 -1.8333511
-0.74175841 -9.1393652 0.48054877
-0.63638026 -7.8409781 -1.5291433
-0.86300462 -10.610299 0.9313463
-0.64948195 -7.9679236 -1.2661808
-1.847797 -22.620214 2.7866647
-0.65028912 -7.9435735 -0.97861093
-1.1407845 -13.905371 2.2097936
-0.65227807 -7.9508166 -0.69794315
-1.2208128 -14.849038 2.8960991
-0.65485114 -7.9481249 -0.41795498
-1.081753 -13.101619 3.0350397
-0.65545952 -7.9217191 -0.13874663
-1.0387584 -12.527568 3.3682714
-0.63548338 -7.5519643 -2.0306942
-0.66790229 -7.9206796 0.13874663
-0.65944892 -7.8041744 -1.8081565
-0.67086858 -7.9228282 -1.545553
-0.86112297 -10.148628 0.89108032
-0.95435542 -11.200994 1.3802923
-0.67767495 -7.9372988 -0.97812337
-1.1802255 -13.795021 2.1928985
-0.68240643 -7.9762826 -0.70038354
-1.2699556 -14.813389 2.8899932
-0.67848784 -7.8980317 -0.41544285
-0.68242031 -7.9114137 -0.13860701
-1.088469 -12.593153 3.3869061
-0.66099662 -7.5400772 -2.0281062
-0.69834548 -7.9501724 0.13930511
-0.67216456 -7.6368208 -1.769915
-0.69869304 -7.9223938 -1.5459346
-0.89478952 -10.125713 0.88933718
-0.69707829 -7.8726821 -1.2517889
-0.9939751 -11.203527 1.3810235
-0.70748663 -7.958612 -0.98104829
-1.2283707 -13.790817 2.1928985
-0.70723909 -7.9401155 -0.6974203
-1.2919861 -14.476434 2.8251181
-0.70783311 -7.9155087 -0.41648957
-1.241538 -13.856548 3.2118511
-0.71253556 -7.9368668 -0.13909568
-1.1376148 -12.647 3.4024353
-0.66959471 -7.3434134 -1.9758247
-0.72609371 -7.9476862 0.13930511
-0.69153416 -7.5548615 -1.7514689
-0.84763765 -9.2424755 0.48641044
-0.72526753 -7.9081759 -1.5436448
-1.0231062 -11.134384 0.97823608
-0.72890025 -7.9174099 -1.2592976
-1.2932606 -14.020742 1.7288387
-0.73343658 -7.9363279 -0.97861093
-1.2901618 -13.933969 2.2163637
-0.7375229 -7.9653735 -0.69986063
-1.3628217 -14.690779 2.8678594
-0.73804605 -7.9408312 -0.41795498
-1.2651471 -13.586301 3.1502147
-0.73726326 -7.9024744 -0.1385372
-1.1839105 -12.666034 3.4086471
-0.69539827 -7.3565392 -1.9799658
-0.74980509 -7.9173636 0.13881645
-0.73756742 -7.7736902 -1.8027576
-0.87374645 -9.1918945 0.48389828
-0.75483239 -7.9409075 -1.550514
-0.88360399 -9.2784195 0.81542915
-0.75927925 -7.9582119 -1.2661808
-1.340315 -14.022305 1.7295698
-0.76069677 -7.9437318 -0.97982955
-0.76298088 -7.9529672 -0.69898903
-1.374529 -14.301192 2.7926805
-0.76246077 -7.9184599 -0.41690826
-1.3470533 -13.96416 3.2388453
-0.76538861 -7.9198899 -0.13888624
-1.2218108 -12.619734 3.3972588
-0.72503126 -7.3944416 -1.9908361
-0.77978325 -7.9385791 0.1392353
-0.75496554 -7.6721601 -1.7798127
-0.9093529 -9.2245665 0.48578238
-0.78331649 -7.9460402 -1.5520406
-0.94535762 -9.5726891 0.8415758
-0.78783303 -7.9633756 -1.2674322
-1.393364 -14.059024 1.7346883
-0.78881252 -7.9449797 -0.98031712
-3.9787803 -40.003513 6.3671966
-0.78797781 -7.9224992 -0.6965487
-1.4228824 -14.280679 2.7896278
-0.7908904 -7.9236994 -0.41732696
-1.4045161 -14.046631 3.2590909
-0.79183394 -7.905232 -0.13867682
-1.4373229 -14.324227 3.857439
-0.76196545 -7.5014176 -2.0203414
-0.80303609 -7.8920417 0.1384674
-0.7945866 -7.7954936 -1.8090565
-0.94215494 -9.2272968 0.48609638
-1.946587 -19.031633 1.6737388
-0.81260478 -7.9311008 -1.2627392
-3.8335793 -37.35181 4.6103177
-0.81572896 -7.9342785 -0.9793421
-4.0382533 -39.21125 6.2433004
-0.81930101 -7.9553747 -0.69968635
-0.81731278 -7.9089699 -0.41669893
-1.4451106 -13.96023 3.2401948
-0.82231122 -7.9302659 -0.13916549
-1.4769369 -14.219205 3.8305221
-0.7849158 -7.4679723 -2.0120592
-0.83644128 -7.9448738 0.13944472
-0.8095299 -7.6763926 -1.7820623
-0.98107374 -9.2875099 0.48944589
-0.83670872 -7.9208531 -1.5482242
-2.0201364 -19.092087 1.6796654
-0.84403133 -7.9635744 -1.2683709
-3.9672921 -37.369785 4.6142178
-0.84635872 -7.9590178 -0.98275441
-1.598693 -15.008951 2.3906317
-0.84347719 -7.918786 -0.69672298
-1.5731585 -14.744776 2.8823609
-0.84449005 -7.9020972 -0.41648957
-1.5015087 -14.026794 3.2568414
-0.84870815 -7.9154177 -0.13895606
-1.5036626 -14.000753 3.7730644
-0.80346745 -7.3960466 -1.9934243
-0.86633229 -7.9617858 0.13979377
-0.8487789 -7.7878184 -1.8086064
-1.0191216 -9.3356514 0.49216738
-0.84794688 -7.7676072 -1.5188397
-2.0869827 -19.086901 1.6798397
-0.87118036 -7.954689 -1.2674322
-4.1609144 -37.9319 4.6853895
-0.87045044 -7.922471 -0.97861093
-1.6545339 -15.034696 2.3956378
-0.87416607 -7.9435186 -0.69916338
-1.6540862 -15.006541 2.9346426
-0.87513703 -7.9268942 -0.41795498
-1.649627 -14.918267 3.4651458
-0.87457216 -7.8965068 -0.13867682
-1.5574243 -14.039581 3.7849698
-0.80473089 -7.1743383 -1.9344137
-0.88742149 -7.899097 0.13874663
-0.83782512 -7.4459176 -1.7298737
-1.0508085 -9.3240986 0.49174872
-0.89440399 -7.9362798 -1.5524222
-2.1672282 -19.20027 1.6904728
-0.89738798 -7.9378595 -1.2652421
-4.497436 -39.719994 4.9081664
-0.89877093 -7.9253011 -0.9793421
-0.90031409 -7.9265618 -0.69794315
-0.90461075 -7.9396667 -0.4187924
-1.6884335 -14.796247 3.4381518
-0.90326631 -7.9033394 -0.13885134
-1.6323467 -14.260538 3.8460512
-0.82976931 -7.1714854 -1.9344137
-0.92189491 -7.955544 0.13979377
-0.88425428 -7.619101 -1.7708147
-1.0879616 -9.3600521 0.49384215
-0.92278147 -7.9389591 -1.5535669
-1.1251817 -9.6655588 0.85133731
-0.92646456 -7.9464512 -1.2671193
-4.6309891 -39.660679 4.9028044
-0.93034887 -7.9556336 -0.9834857
-0.92681986 -7.9134765 -0.69707161
-1.714439 -14.616349 2.8606086
-0.92905676 -7.90869 -0.41732696
-1.7546467 -14.914129 3.4669456
-0.93155086 -7.906096 -0.13895606
-1.6608331 -14.074411 3.7973933
-0.8495357 -7.1244254 -1.922508
-0.94823593 -7.9403639 0.13958435
-0.92519337 -7.7359343 -1.7987086
-1.1156386 -9.3145514 0.491644
-0.9488529 -7.9220448 -1.5508956
-1.1665063 -9.7248755 0.8569153
-0.95254725 -7.92944 -1.2649293
-4.7684546 -39.636387 4.9018288
-0.95431453 -7.920804 -0.97958583
-4.8677335 -40.342869 6.4360275
-0.95849401 -7.9438195 -0.70003492
-1.7581486 -14.549855 2.8487785
-0.95809841 -7.917295 -0.41795498
-1.7762159 -14.656418 3.4084582
-0.95914179 -7.9027963 -0.13895606
-1.7071567 -14.045515 3.7911816
-0.87039727 -7.08882 -1.9137081
-0.97301883 -7.9131885 0.13916549
-0.96576595 -7.8429036 -1.8243531
-1.157436 -9.3859253 0.49562153
-1.2043538 -9.7523813 0.8597042
-0.98167431 -7.9378295 -1.2668065
-4.8155332 -38.882706 4.8106709
-0.98391247 -7.9331856 -0.98153585
-1.8647747 -15.01405 2.3962634
-0.98326975 -7.9166989 -0.69794315
-1.8128039 -14.574801 2.8548844
-0.98276597 -7.8901191 -0.41669893
-1.8225417 -14.611453 3.3994603
-0.98672211 -7.8994002 -0.13895606
-1.7926201 -14.33084 3.8698626
-0.89901072 -7.1164041 -1.9219903
-1.0061568 -7.9533896 0.13993341
-0.966932 -7.6326227 -1.7762135
-1.1942129 -9.4135303 0.49729633
-1.003642 -7.9113317 -1.5501324
-3.8045523 -29.947992 2.6411676
-1.0118705 -7.953949 -1.2699351
-3.9613326 -31.095285 3.8488779
-1.0148633 -7.9553003 -0.98470432
-1.9482137 -15.250421 2.4350593
-1.0114043 -7.917171 -0.69829178
-1.791424 -14.003643 2.7442153
-1.0143614 -7.9183378 -0.41837367
-1.0132712 -7.8879743 -0.13881645
-1.8416476 -14.316832 3.8677919
-0.92658329 -7.1342964 -1.9276843
-1.0251439 -7.8824067 0.13874663
-1.0265362 -7.8823481 -1.8351506
-1.228615 -9.4211884 0.49792436
-1.0345522 -7.9330888 -1.5550934
-3.9188714 -30.009602 2.6477914
-1.0360422 -7.9229469 -1.2655549
-3.8430471 -29.349173 3.6343877
-1.0366918 -7.9064407 -0.97909838
-1.0403304 -7.9234695 -0.69916338
-3.8722684 -29.452541 5.774262
-1.0461676 -7.9464312 -0.42004842
-3.5540645 -26.959463 6.2779341
-1.0444634 -7.9121442 -0.13930511
-1.8938904 -14.327553 3.8724508
-0.97115469 -7.2784643 -1.9675424
-1.0558313 -7.9025655 0.13916549
-1.0481004 -7.8342919 -1.824803
-1.057565 -7.8945479 0.41743162
-1.060413 -7.9158077 -1.5524222
-4.0665135 -30.315643 2.6760299
-1.0660591 -7.936903 -1.2683709
-3.9449432 -29.331644 3.6339004
-1.0743512 -7.9775324 -0.98836046
-1.0669171 -7.9118915 -0.69846606
-2.0247004 -14.994723 2.9411299
-1.0682791 -7.9011664 -0.41785032
-3.7987432 -28.059221 6.5370774
-1.0715384 -7.9044862 -0.1392353
-1.9431103 -14.315111 3.8708978
-1.0109748 -7.3802991 -1.9960126
-1.0823224 -7.8909073 0.13902587
-1.0749117 -7.8267245 -1.8239032
-1.2935398 -9.4064445 0.49761033
-1.0794785 -7.8498197 -1.5402104
-1.3115914 -9.5253963 0.84122723
-1.0945673 -7.9390039 -1.2693094
-4.042963 -29.286232 3.6300006
-1.095939 -7.9285059 -0.98275441
-1.0958943 -7.9179869 -0.69933766
-3.7899663 -27.347883 5.366694
-1.1027168 -7.9468474 -0.42046711
-2.0510445 -14.762161 3.4408512
-1.1002251 -7.9086204 -0.13937493
-1.0292027 -7.3231592 -1.9815186
-1.1098603 -7.8870811 0.13902587
-1.1054872 -7.8460803 -1.8293018
-1.1257657 -7.9799237 0.42235121
-1.1079699 -7.8537798 -1.5417367
-1.35208 -9.572053 0.84575933
-2.3749871 -16.771467 2.0798223
-1.1227733 -7.918736 -0.9820233
-2.0951481 -14.758217 2.3609092
-1.1263263 -7.9338398 -0.7010808
-3.8887215 -27.357811 5.3712735
-1.1310117 -7.9469042 -0.42067644
-2.0101898 -14.106683 3.2896843
-1.1272601 -7.900773 -0.13930511
-1.0396047 -7.2143569 -1.9530486
-1.1459516 -7.942534 0.14007302
-1.1161515 -7.7264504 -1.8023077
-1.2102228 -8.3673296 0.44307625
-1.1387507 -7.8731804 -1.5463161
-4.3569059 -30.086044 2.6596446
-1.1544997 -7.9624486 -1.2743154
-4.2610068 -29.351591 3.6417
-1.1558323 -7.9520931 -0.98665434
-1.1505718 -7.9062004 -0.69898903
-4.0651531 -27.899694 5.4804163
-1.155861 -7.9231453 -0.41962975
-2.0397043 -13.964601 3.2581911
-1.1519386 -7.8770032 -0.13895606
-1.0721189 -7.2603731 -1.9665072
-1.170159 -7.9147482 0.13965416
-1.1482517 -7.7572069 -1.8104061
-1.1741287 -7.9224777 0.41973442
-1.1607579 -7.8322582 -1.5390654
-1.6633418 -11.209979 0.99148369
-1.1753204 -7.9114757 -1.2668065
-2.4584308 -16.528677 2.0517924
-1.1762748 -7.8989244 -0.98056084
-2.4431093 -16.386358 2.624032
-1.1822751 -7.9297247 -0.70142943
-2.0779235 -13.920337 2.7358193
-1.1882354 -7.9506669 -0.42130449
-2.1207342 -14.173252 3.3085802
-1.1823894 -7.8927107 -0.13930511
-2.2129967 -14.754655 3.9977193
-1.1020772 -7.2871494 -1.9747895
-1.1929908 -7.8789806 0.13909568
-1.1700642 -7.7184701 -1.8023077
-1.2191576 -8.0328608 0.42580539
-1.194571 -7.8708625 -1.547461
-1.4282973 -9.3997869 0.83181441
-1.2029296 -7.9073248 -1.2668065
-5.9540219 -39.092216 4.8552747
-1.2146118 -7.965416 -0.98933536
-2.4913507 -16.319149 2.614646
-1.2069414 -7.9058542 -0.69968635
-5.6996431 -37.290874 7.3327899
-1.212355 -7.9227791 -0.42004842
-2.3419461 -15.286849 3.5704231
-1.2105404 -7.892488 -0.13937493
-2.2618463 -14.729654 3.9930604
-1.140216 -7.3653493 -1.9970479
-1.2259984 -7.9103389 0.13972397
-1.1898286 -7.6681223 -1.7915101
-1.2560813 -8.0857897 0.42884085
-1.2196274 -7.8511248 -1.5444082
-1.444259 -9.2864637 0.82222724
-1.2356905 -7.9362578 -1.2721251
-2.5407426 -16.29928 2.0254686
-1.2402656 -7.9473991 -0.98762923
-2.5373228 -16.240091 2.6033826
-1.2348384 -7.9035616 -0.69986063
-5.8176432 -37.193165 7.3175254
-1.2375317 -7.9027133 -0.41921103
-5.923039 -37.780605 8.8288784
-1.2387024 -7.8921652 -0.13944472
-2.2760658 -14.485023 3.9288731
-1.1562485 -7.3002663 -1.9804834
-1.2504708 -7.8862605 0.13937493
-1.1997845 -7.5580673 -1.7667656
-1.2927622 -8.134613 0.431667
-1.2605835 -7.9321313 -1.5611992
-1.4895028 -9.3620396 0.82937407
-1.26121 -7.918241 -1.2699351
-4.9432945 -31.000601 3.8544841
-1.2586129 -7.884213 -0.98031712
-1.2680783 -7.9346161 -0.70299816
-5.9461918 -37.164875 7.315999
-1.2670052 -7.9101782 -0.41983908
-2.2616334 -14.104086 3.2977824
-1.2687787 -7.9035897 -0.13972397
-6.246603 -38.868523 10.548429
-1.1845032 -7.3133488 -1.9851422
-1.2831135 -7.9134302 0.13993341
-1.2214764 -7.5249796 -1.760017
-1.3326827 -8.2010221 0.43543521
-1.72788 -10.621267 0.94145626
-1.28916 -7.9157405 -1.2702481
-2.6206095 -16.073467 1.9996324
-1.2976372 -7.9503016 -0.98909163
-2.5977573 -15.898361 2.5514464
-1.2957677 -7.9301414 -0.70299816
-2.4378359 -14.903281 2.9354057
-1.2907354 -7.8820553 -0.41858301
-2.2849996 -13.938415 3.2608905
-1.2911791 -7.8675389 -0.13916549
-6.3822379 -38.846481 10.548429
-1.2232773 -7.3892174 -2.0068829
-1.3094201 -7.9010115 0.13979377
-1.2404004 -7.4764533 -1.7496693
-1.3608519 -8.2024679 0.4357492
-1.8541548 -11.151728 0.98904335
-1.317432 -7.9150901 -1.2708738
-4.875093 -29.257874 3.6419437
-1.3233421 -7.9420385 -0.98860419
-2.6537147 -15.909142 2.554575
-1.3224571 -7.9196749 -0.70247525
-2.3904681 -14.300211 2.818249
-1.3261535 -7.924778 -0.42109516
-6.260304 -37.410088 8.7568941
-1.3192434 -7.8750477 -0.13937493
-6.3014235 -37.575264 10.208858
-1.2323253 -7.2936878 -1.9820364
-1.3296112 -7.8611355 0.13916549
-1.3016231 -7.6874952 -1.8000585
-1.3703735 -8.0935411 0.43020159
-1.3294005 -7.8432403 -1.5463161
-1.9034575 -11.218197 0.99549288
-1.3453265 -7.9204149 -1.2724382
-4.9720902 -29.241545 3.6419437
-1.3503374 -7.9415202 -0.98909163
-2.6819267 -15.756152 2.5314229
-1.3457005 -7.8975687 -0.70090652
-6.2790599 -36.811382 7.2587566
-1.3504072 -7.9085255 -0.42046711
-6.3941588 -37.446754 8.7703915
-1.3480465 -7.8863988 -0.13965416
-6.497025 -37.969273 10.321704
-1.2315657 -7.1448741 -1.9426959
-1.3645132 -7.907917 0.14007302
-1.3975434 -8.0909204 0.43030626
-1.3413537 -7.7575378 -1.5302882
-1.957299 -11.30802 1.0040342
-1.3769794 -7.947051 -1.277444
-1.3807353 -7.9604697 -0.99201655
-2.8524358 -16.42836 2.6409268
-1.3763182 -7.9185824 -0.70317256
-6.3674402 -36.596935 7.2205944
-1.3725132 -7.8803911 -0.41921103
-2.6469109 -15.197446 3.561425
-1.3728178 -7.8740048 -0.13951454
-6.5192733 -37.353756 10.1602
-1.2492321 -7.1065016 -1.9333783
-1.3914219 -7.9072895 0.14014283
-1.374215 -7.8015218 -1.8288521
-1.4243674 -8.0862408 0.43030626
-1.3776399 -7.812983 -1.5421184
-2.0027514 -11.346595 1.0080433
-1.3981701 -7.9132633 -1.272751
-2.6358547 -14.903043 1.858264
-1.3919137 -7.8698378 -0.98129201
-2.8104734 -15.874177 2.5533235
-1.4011781 -7.906127 -0.70247525
-6.5367785 -36.846252 7.2740207
-1.4042259 -7.9072609 -0.42088583
-6.4965382 -36.582306 8.5778332
-1.4024205 -7.8890967 -0.13986358
-6.6227975 -37.217815 10.129143
-1.3055594 -7.2632704 -1.9773775
-1.4182321 -7.8822069 0.13979377
-1.3765264 -7.6427565 -1.7928599
-1.4316862 -7.9490151 0.42329326
-1.422956 -7.8926477 -1.5589095
-1.4359161 -7.9565854 0.70735598
-1.4331096 -7.9331069 -1.2768183
-2.6937649 -14.896717 1.8587514
-1.4355147 -7.9306021 -0.9895792
-6.6009555 -36.467442 5.8697348
-1.4322356 -7.9046092 -0.70282388
-1.4338646 -7.8978801 -0.42067644
-2.7129455 -14.92838 3.5029378
-1.4266239 -7.8502073 -0.1392702
-6.7684202 -37.207314 10.133284
-1.3392668 -7.3042727 -1.9898008
-1.4508544 -7.9128642 0.14042206
-1.3934205 -7.5921488 -1.7820623
-1.4771074 -8.0402241 0.42842221
-1.4583092 -7.9301133 -1.5673052
-1.4557471 -7.9084167 0.70352113
-1.4565483 -7.9127698 -1.2743154
-2.7042997 -14.676863 1.8324275
-1.4632459 -7.9336057 -0.99055409
-2.8600564 -15.491834 2.4951301
-1.4601812 -7.9015207 -0.70299816
-2.6140089 -14.145262 2.7961152
-1.4607731 -7.8970098 -0.42088583
-2.8688738 -15.494153 3.6379085
-1.4580263 -7.8668084 -0.13965416
-6.9130583 -37.263237 10.155024
-1.3836989 -7.4080353 -2.0193064
-1.471117 -7.8684397 0.13972397
-1.4231392 -7.6044784 -1.7861114
-1.5070028 -8.0448351 0.42894551
-1.4907436 -7.9580379 -1.5737926
-1.4801278 -7.893755 0.70264959
-1.4870745 -7.9231687 -1.2768183
-2.7492845 -14.634166 1.828284
-1.4894644 -7.9206467 -0.9895792
-2.7277567 -14.4917 2.3355668
-1.4903363 -7.9100809 -0.70421833
-2.6466486 -14.047303 2.7785606
-1.4920313 -7.9114885 -0.42193252
-6.918757 -36.651573 8.6111269
-1.4899331 -7.8852491 -0.14007302
-7.0122156 -37.075634 10.110508
-1.3829944 -7.2567911 -1.9794481
-1.4993229 -7.8671846 0.13979377
-1.421192 -7.4501548 -1.751019
-1.6047498 -8.4044228 0.44841453
-1.512162 -7.9120255 -1.5657787
-1.5229003 -7.9606819 0.70909911
-1.51499 -7.9118447 -1.2758796
-1.5208393 -7.9348946 -0.99201655
-2.89817 -15.106771 2.4363105
-1.5201923 -7.9165707 -0.70526421
-2.7388778 -14.249583 2.8205388
-1.513472 -7.8667417 -0.41983908
-2.8565958 -14.83409 3.4876411
-1.5182054 -7.8839283 -0.14014283
-7.1452436 -37.069901 10.115685
-1.4134724 -7.27847 -1.9866952
-1.5342526 -7.8930445 0.14035226
-1.47268 -7.5692325 -1.7802627
-1.6317874 -8.3870077 0.44778651
-1.5300128 -7.8565955 -1.5558566
-2.4167435 -12.398405 1.1051347
-1.5433551 -7.9103856 -1.2765055
-5.7603731 -29.497101 3.6902039
-1.5483888 -7.921474 -0.99104154
-1.5485823 -7.9151268 -0.7056129
-5.7798128 -29.514492 5.8460064
-1.5478373 -7.8966904 -0.42172319
-1.5457155 -7.878581 -0.14014283
-7.2522678 -36.930992 10.084625
-1.4302478 -7.2299037 -1.9747895
-1.5573131 -7.8722186 0.14007302
-1.4985297 -7.56813 -1.7811624
-1.6622186 -8.3871384 0.44810051
-1.5421492 -7.7741776 -1.540592
-2.4646623 -12.413344 1.1072265
-1.5726553 -7.9207244 -1.2790084
-2.9074111 -14.629885 1.8314526
-1.575424 -7.9201903 -0.99152911
-1.5695826 -7.8764553 -0.70264959
-2.8296697 -14.199805 2.8144329
-1.5732342 -7.8875976 -0.42151386
-7.5898499 -38.018028 8.9503527
-1.5716403 -7.865293 -0.1400032
-7.4675164 -37.337364 10.202647
-1.4439234 -7.173986 -1.9608132
-1.5855731 -7.8706565 0.14014283
-1.5041394 -7.4596972 -1.7568678
-1.6993876 -8.4204397 0.45019394
-1.5508311 -7.6843448 -1.5238007
-5.9852333 -29.630074 2.6446538
-1.6014696 -7.9209948 -1.2799469
-6.0625982 -29.959187 3.7530887
-1.607789 -7.9379902 -0.99445397
-7.3388968 -36.201172 5.850337
-1.6041988 -7.906075 -0.70578718
-2.8987396 -14.286042 2.8335137
-1.5983716 -7.8703132 -0.42088583
-2.9843507 -14.681669 3.4588473
-1.5962951 -7.8460426 -0.13975887
-7.6918559 -37.772961 10.328951
-1.4826269 -7.2292042 -1.9773775
-1.6122327 -7.861155 0.14007302
-1.5188051 -7.3990426 -1.7438205
-1.7802194 -8.664876 0.46359196
-1.5999434 -7.7805285 -1.5440264
-6.3918152 -31.055939 2.7739928
-1.6352726 -7.9382896 -1.2837014
-7.8849506 -38.27681 4.7984838
-1.6254678 -7.8837242 -0.98836046
-3.1271739 -15.153826 2.4507027
-1.6317856 -7.9004273 -0.70578718
-6.2109828 -30.044508 5.9635448
-1.6361101 -7.9074302 -0.4231886
-7.9035912 -38.165016 8.9980421
-1.6329995 -7.8854604 -0.14056168
-7.7366238 -37.325935 10.214035
-1.4968013 -7.1710348 -1.9628838
-1.645124 -7.8747683 0.14042206
-1.5622665 -7.4716334 -1.7622666
-1.6800562 -8.0349693 0.43020159
-1.6528306 -7.8978806 -1.56845
-6.5116158 -31.088039 2.7788737
-1.6581091 -7.9093323 -1.2799469
-1.6674067 -7.9398813 -0.99616015
-1.6568946 -7.8829846 -0.7047413
-3.1738729 -15.087209 2.9968462
-1.6546502 -7.858674 -0.42088583
-7.9893522 -37.912186 8.9449539
-1.6555679 -7.8562312 -0.14014283
-7.9163022 -37.533096 10.278222
-1.5194151 -7.1544275 -1.959778
-1.6728908 -7.8770938 0.14056168
-1.5914919 -7.4873791 -1.7672155
-1.8714213 -8.7967987 0.47133768
-1.6783442 -7.882462 -1.5665419
-6.6217594 -31.072916 2.7795711
-1.6839169 -7.9018588 -1.2796341
-7.9573641 -37.308361 4.6839266
-1.6899965 -7.9168353 -0.9939664
-7.7522531 -36.284607 5.8766179
-1.6914842 -7.910275 -0.70770466
-1.6865517 -7.880487 -0.42235121
-7.8342123 -36.574486 8.6354208
-1.6829805 -7.8504047 -0.14014283
-7.9451432 -37.02924 10.147778
-1.5512837 -7.1871171 -1.9701307
-1.7037548 -7.8868427 0.14084093
-1.6007328 -7.4036841 -1.7487694
-1.8894444 -8.7316494 0.46819749
-2.1495128 -9.9251137 0.88846558
-1.7215315 -7.942266 -1.287143
-8.0547161 -37.12904 4.6649156
-1.7129892 -7.8895493 -0.99128538
-7.8847313 -36.284348 5.8809981
-1.7160132 -7.8968344 -0.70700741
-8.0520868 -37.023354 7.3648462
-1.7034307 -7.8257623 -0.41973442
-7.9336281 -36.417442 8.6048279
-1.7137812 -7.8601122 -0.14042206
-7.9722033 -36.533199 10.019403
-1.5817466 -7.2061882 -1.9768599
-1.7261261 -7.85741 0.14042206
-1.6198707 -7.367599 -1.7415711
-1.9121864 -8.6898909 0.46631342
-1.7361789 -7.890029 -1.5703582
-1.9784564 -8.9835835 0.8047961
-1.7386152 -7.8879814 -1.2793212
-8.083354 -36.643215 4.6073928
-1.7529286 -7.9397359 -0.99835372
-1.7448586 -7.8966317 -0.70753026
-8.1638985 -36.916424 7.3491998
-1.7277154 -7.806118 -0.41900173
-8.0370998 -36.282978 8.5796337
-1.7360142 -7.8306541 -0.1400032
-8.1021872 -36.516464 10.02251
-1.6026828 -7.1817684 -1.9716836
-1.7570294 -7.86695 0.14070129
-1.6502558 -7.3828197 -1.74652
-1.9446882 -8.6929073 0.46683675
-1.7684247 -7.9049964 -1.574556
-1.964095 -8.7724762 0.78649336
-1.7691624 -7.8953576 -1.2815113
-3.4459906 -15.366079 1.9335792
-1.7684598 -7.8793359 -0.99152911
-1.7733517 -7.8882399 -0.70735598
-8.4012213 -37.370396 7.4453673
-1.7584617 -7.8156276 -0.41983908
-8.127738 -36.095009 8.5418415
-1.7721297 -7.8635626 -0.14070129
-8.6010933 -38.135021 10.474924
-1.6187315 -7.1306319 -1.9592602
-1.78271 -7.8529692 0.14056168
-1.6578828 -7.2972012 -1.7276241
-1.9936186 -8.7678652 0.47123301
-1.7969503 -7.8965464 -1.5741742
-1.967477 -8.6389465 0.77516311
-1.8011605 -7.9023018 -1.2837014
-8.4280815 -36.976852 4.6566281
-1.8056668 -7.9156919 -0.99689132
-1.8053141 -7.9014254 -0.70909911
-8.5083771 -37.209213 7.4194174
-1.7995681 -7.8573284 -0.14070129
-8.9896698 -39.219513 10.781366
-1.6388347 -7.1042318 -1.9535662
-1.8186769 -7.8775573 0.14112017
-1.6872497 -7.3024678 -1.7303236
-2.052289 -8.8753071 0.47740865
-1.8267145 -7.8997903 -1.5760823
-1.978305 -8.5485601 0.76766777
-1.8256149 -7.8824954 -1.2815113
-3.5603399 -15.360366 1.9360166
-1.8328729 -7.9012852 -0.99591631
-8.4674692 -36.473282 5.9304314
-1.8418958 -7.9338918 -0.71258533
-8.5955524 -36.995705 7.382782
-1.7994157 -7.7386475 -0.41638491
-8.5359926 -36.681252 8.694808
-1.6645043 -7.1022296 -1.9546015
-1.8415974 -7.8516917 0.14077111
-1.831187 -7.8011823 -1.8499974
-2.0366693 -8.6697674 0.46673208
-1.8542799 -7.8933654 -1.5760823
-2.0040293 -8.5241461 0.76609892
-1.8612618 -7.9106865 -1.287143
-2.3372529 -9.9259567 1.2520857
-1.8577099 -7.8832474 -0.99445397
-3.2615085 -13.829496 2.2504666
-1.8558581 -7.8692374 -0.70735598
-8.6795464 -36.774395 7.3446202
-1.8186127 -7.6992755 -0.4146055
-8.6263218 -36.491932 8.6570158
-1.8654153 -7.8851151 -0.1414343
-8.7226419 -36.84193 10.144672
-1.6977867 -7.1320829 -1.9644365
-1.8587978 -7.8024201 0.1400032
-1.8425883 -7.7283969 -1.8342509
-2.0124857 -8.4279547 0.7580806
-1.8824364 -7.8772445 -1.2827629
-2.4374509 -10.19189 1.2866967
-1.888459 -7.8963499 -0.99689132
-8.7532387 -36.572334 5.9560866
-1.8856372 -7.8723989 -0.70822757
-8.6751394 -36.190216 7.2339511
-1.8328968 -7.6404419 -0.41177934
-8.7545614 -36.493443 8.6642151
-1.8724138 -7.7991638 -0.1400032
-8.9846687 -37.395103 10.30514
-1.6923969 -7.0062323 -1.9313078
-1.8846617 -7.7962132 0.1400032
-1.8856195 -7.7942195 -1.8513472
-2.1049247 -8.7007189 0.46913958
-1.9075025 -7.878653 -1.5757008
-2.0469906 -8.4483442 0.76052105
-1.9164616 -7.9035935 -1.2880815
-2.4702995 -10.179893 1.2862092
-1.8991858 -7.8263831 -0.98884791
-9.0068579 -37.088268 6.0449414
-1.9206721 -7.9028883 -0.71153951
-8.7153006 -35.833134 7.1683125
-1.8615301 -7.6479063 -0.41251206
-8.9050264 -36.585392 8.6930084
-1.8703431 -7.6782818 -0.13794382
-9.1836634 -37.672913 10.390032
-1.7459701 -7.1244192 -1.9654719
-1.9119338 -7.7957478 0.14010793
-1.9142441 -7.7992797 -1.8540466
-2.1257551 -8.6545267 0.46704614
-1.9307742 -7.8547883 -1.5722662
-2.0597765 -8.3795967 0.75494307
-1.9417168 -7.8933578 -1.2874558
-2.5059404 -10.179355 1.2871841
-1.9131968 -7.7657375 -0.9820233
-9.0852013 -36.849464 6.0111518
-1.9425193 -7.8729224 -0.70944774
-8.8233824 -35.733879 7.1545744
-1.8747997 -7.5870709 -0.40958121
-9.0897131 -36.784889 8.7478962
-1.9110554 -7.7280016 -0.13895606
-1.7225995 -6.919261 -1.9106023
-1.9424275 -7.7964487 0.14024754
-1.9376302 -7.7714109 -1.8490976
-2.1564939 -8.6428003 0.46683675
-1.9619285 -7.8571815 -1.5741742
-2.1059213 -8.4338474 0.76052105
-1.9677602 -7.8746901 -1.2855786
-2.5393817 -10.154696 1.2852342
-1.9349002 -7.7317133 -0.97861093
-9.2317133 -36.861904 6.0186605
-1.9781433 -7.892807 -0.71188807
-8.961937 -35.731766 7.1606798
-1.9103748 -7.6111431 -0.41125599
-9.2244759 -36.751324 8.7478962
-1.9218297 -7.651125 -0.13769948
-1.7583668 -6.9541049 -1.9219903
-1.9832536 -7.8377419 0.14112017
-1.9895412 -7.8568244 -1.871143
-2.1974363 -8.6778154 0.46913958
-1.9941663 -7.8693175 -1.5779905
-2.1177182 -8.3507538 0.75372285
-2.0019543 -7.8884864 -1.2890202
-3.0564239 -12.034701 1.5245856
-1.9623659 -7.7268362 -0.97885466
-9.340867 -36.752872 6.0061455
-9.5660295 -37.583832 7.5384827
-1.9418612 -7.6237831 -0.4123027
-9.4979715 -37.289211 8.8837671
-1.9312372 -7.5765495 -0.13647781
-17.725466 -69.489098 19.215761
-1.8241186 -7.1147847 -1.9680601
-1.9709674 -7.6819763 0.13843249
-2.2271936 -8.6743498 0.46934891
-2.0226932 -7.8721685 -1.5798986
-2.1195986 -8.2433443 0.74465865
-2.0276105 -7.8798904 -1.2887073
-3.0794842 -11.959138 1.5162985
-1.9835223 -7.7029843 -0.97666097
-9.4557934 -36.69492 6.0017653
-2.0059509 -7.7788372 -0.70282388
-9.7004223 -37.589924 7.5461144
-1.9861084 -7.6907868 -0.41628024
-9.6420364 -37.336758 8.9026623
-1.9563518 -7.5701032 -0.13647781
-1.851104 -7.1217837 -1.9716836
-2.0059948 -7.7121687 0.13909568
-1.9453909 -7.4738197 -1.7829621
-2.2594686 -8.6804466 0.4700816
-2.0542307 -7.8863153 -1.5840963
-2.1398876 -8.2092791 0.74221832
-2.0557239 -7.8807697 -1.2899587
-2.0431502 -7.8269744 -0.99323523
-9.547471 -36.548683 5.9829931
-2.0443323 -7.820333 -0.70718169
-9.8279953 -37.568947 7.5484042
-2.0247524 -7.7343946 -0.41900173
-9.773694 -37.334743 8.9098616
-1.9951274 -7.6158037 -0.13742025
-1.9140843 -7.2650547 -2.0130947
-2.0371664 -7.7267447 0.13947964
-1.9845816 -7.5219707 -1.7960092
