# .PCD v0.7 - Point Cloud Data file format
VERSION 0.7
FIELDS x y z
SIZE 4 4 4
TYPE F F F
COUNT 1 1 1
WIDTH 1507
HEIGHT 1
VIEWPOINT 0 0 0 1 0 0 0
POINTS 1507
DATA ascii
4.1215749 -9.7523842 -0.92629117
7.9198632 -18.74894 3.956234
4.1142516 -9.7445431 -0.55434251
9.3921385 -22.255972 5.5769868
4.093328 -9.7044344 -0.18384364
4.925447 -11.682915 3.3972588
3.15189 -7.5017133 -2.1802919
4.0703349 -9.6924152 0.18349461
3.6964645 -8.8064442 -2.2049701
8.1332674 -19.386148 1.1017767
4.0733495 -9.7090816 -2.0466175
8.7526398 -20.872677 1.9801785
4.0706549 -9.7121639 -1.6679045
4.0573678 -9.6899471 -1.2898653
5.7807198 -13.812482 2.3715467
4.0675082 -9.7189255 -0.92175907
7.9081612 -18.905067 3.9833288
4.0555587 -9.6998787 -0.55099303
4.0732999 -9.7518778 -0.18447194
4.7648101 -11.413017 3.3139193
3.1360736 -7.5376406 -2.1875386
4.0349426 -9.7028713 0.18342479
3.6402712 -8.758111 -2.1896734
8.0915995 -19.477133 1.1053355
4.0145779 -9.6634121 -2.034024
8.510107 -20.494608 1.9414812
4.0140128 -9.6715784 -1.6585183
5.9777288 -14.41017 1.9155425
4.0067935 -9.6637096 -1.284503
5.5607977 -13.418329 2.3005254
4.0183024 -9.6962538 -0.91827285
7.8503852 -18.952507 3.9875267
4.0002828 -9.6623058 -0.54806215
9.2261019 -22.29579 5.5706882
4.0132499 -9.7032089 -0.18328518
4.6976342 -11.363523 3.2947667
3.0957618 -7.5146036 -2.1777036
3.9964812 -9.705801 0.18321536
3.6393435 -8.8428478 -2.2076695
9.3699398 -22.778299 1.2908142
3.9606559 -9.6283445 -2.0237205
5.9580231 -14.491132 1.3707855
3.9742212 -9.6709146 -1.6560154
5.9100461 -14.388715 1.9099365
3.9790657 -9.6923275 -1.2864529
5.5124269 -13.434003 2.2998998
3.9829197 -9.7065334 -0.91792428
7.8661299 -19.179602 4.0295048
3.9528947 -9.6429472 -0.5461781
5.9557252 -14.536011 3.6266611
3.9490428 -9.643137 -0.18188898
5.9151802 -14.451428 4.1840687
3.0636759 -7.511054 -2.1735625
3.9414382 -9.6678457 0.18223803
3.5878637 -8.8049679 -2.1950724
5.8919897 -14.466737 0.81863916
3.9255421 -9.6384735 -2.0229571
5.8705964 -14.421419 1.3622442
3.9270384 -9.6517935 -1.6503837
3.9123206 -9.6252422 -1.2757283
5.4573207 -13.433032 2.2964582
3.9160171 -9.6391592 -0.91025454
5.8868322 -14.497521 3.0414956
3.9117 -9.6381798 -0.54513139
5.8705211 -14.471836 3.6055152
3.9078426 -9.6383314 -0.18153994
5.852366 -14.44155 4.1752687
3.0569685 -7.5700679 -2.1875386
3.8882082 -9.6333313 0.1813305
3.5337772 -8.7596064 -2.1806755
5.8309965 -14.461284 0.81717366
3.8757205 -9.6120605 -2.0145614
5.8112845 -14.419647 1.3601525
3.8844669 -9.6434555 -1.6466295
2.935863 -7.2921534 0.96520531
3.8742518 -9.6277914 -1.2742659
5.4199791 -13.475825 2.3005254
3.8808591 -9.6490736 -0.90990597
5.8083653 -14.448761 3.026994
3.8616509 -9.6110039 -0.54282862
5.8119802 -14.472348 3.6005666
3.8726861 -9.6482019 -0.18147013
4.6021166 -11.47126 3.3118486
3.0226378 -7.5609598 -2.1818447
3.8412008 -9.6134205 0.18070221
3.503902 -8.7736988 -2.1811254
5.7701168 -14.45558 0.81570828
3.8305001 -9.5963564 -2.0084558
5.764605 -14.449099 1.3610241
3.8302941 -9.6055794 -1.637869
3.8332746 -9.6228151 -1.2718287
5.2428403 -13.167986 2.2448349
3.8383095 -9.6403484 -0.9078142
5.7607994 -14.476244 3.0285206
3.8103623 -9.5798836 -0.54031646
5.7650261 -14.501602 3.6028161
3.8138764 -9.5984764 -0.18028337
5.7720809 -14.534122 4.1902804
3.0019143 -7.5858355 -2.1859856
3.7958536 -9.5970173 0.18014374
3.4739711 -8.7876883 -2.1815755
5.7174206 -14.470061 0.81539428
3.7796645 -9.5658484 -1.9992968
2.9368365 -7.4365554 0.69951195
3.7807863 -9.5784683 -1.630986
2.8244164 -7.1592045 0.94497496
3.7763603 -9.5770416 -1.2640289
5.2192984 -13.243179 2.2545338
3.7871029 -9.6092005 -0.90363067
5.7152672 -14.509052 3.0311918
3.7681186 -9.5708256 -0.53906041
5.7272167 -14.554277 3.6109142
3.7979155 -9.6563931 -0.18112107
5.7439289 -14.611718 4.2068453
2.9648471 -7.5692868 -2.1782212
3.7564995 -9.5953121 0.17986451
3.447535 -8.8106499 -2.1842747
5.6792417 -14.52155 0.81717366
3.739099 -9.5606985 -1.9954805
5.6802754 -14.531671 1.3650333
3.7530782 -9.6063251 -1.6334889
2.8073523 -7.1893606 0.9476561
3.7429068 -9.5901651 -1.2640289
5.1321197 -13.156419 2.2367003
3.7361603 -9.5778141 -0.89944726
5.6759987 -14.558181 3.0372977
3.7259848 -9.5615892 -0.53780431
5.6919351 -14.614132 3.6208122
3.7351692 -9.5950527 -0.17972489
6.113183 -15.711905 4.5174279
2.9377096 -7.5777879 -2.1777036
3.7128668 -9.582263 0.17937584
3.4132402 -8.8135452 -2.1820252
5.6544733 -14.608339 0.82094187
3.6816089 -9.5114412 -1.9825056
3.6896012 -9.5419855 -1.6203485
2.7414513 -7.0935736 0.93376297
3.6979632 -9.5735435 -1.2601291
2.9105463 -7.538938 1.2799469
3.6912231 -9.561058 -0.89665824
3.6825252 -9.5484476 -0.53633893
3.6858363 -9.5669813 -0.17895699
6.0583024 -15.733149 4.5174279
2.9181588 -7.6060328 -2.1828799
3.6622128 -9.5503521 0.17853811
3.3957064 -8.8599787 -2.1905735
7.7682009 -20.268566 1.1375746
3.6223998 -9.4564018 -1.9683858
2.8702002 -7.4966731 0.70230097
3.6506243 -9.5400476 -1.6178455
2.6805067 -7.0085402 0.9213323
3.6489289 -9.5456009 -1.2547668
2.8784766 -7.530097 1.2768183
3.6564052 -9.5701628 -0.89630961
7.9918933 -20.928699 4.3546429
3.6463234 -9.5537796 -0.53592026
8.2318563 -21.579699 5.3322396
3.639837 -9.5417833 -0.17825888
8.0982838 -21.240671 6.0910473
2.8881636 -7.6071434 -2.1802919
3.6191661 -9.5325336 0.17797965
3.3587012 -8.8511486 -2.1856244
11.374703 -29.991409 1.6810311
3.580323 -9.4451237 -1.9634248
2.8616614 -7.553225 0.70665878
3.617568 -9.5484066 -1.6172197
2.7008352 -7.1324911 0.9364441
3.6074183 -9.5316572 -1.2513546
2.8724415 -7.5936794 1.2858914
3.6032467 -9.5306854 -0.89142895
7.8655152 -20.804501 4.3233504
3.5920315 -9.5060329 -0.53257072
7.486196 -19.822105 4.8917856
3.593796 -9.5207558 -0.17763059
8.0240898 -21.268808 6.0910473
2.8629212 -7.6166792 -2.1802919
3.577431 -9.522644 0.17756079
3.3270993 -8.8609953 -2.1851747
10.819427 -28.830444 1.6138318
3.5524304 -9.466135 -1.9653327
2.8386977 -7.5682683 0.70718169
3.5675738 -9.5165834 -1.6097109
2.6292572 -7.0173283 0.92011362
3.5602 -9.5070114 -1.2464797
2.8175282 -7.5278082 1.2730639
3.5786066 -9.5612402 -0.89317203
7.7006741 -20.585432 4.2722135
3.5476344 -9.4885807 -0.53089595
5.4469242 -14.576218 3.5924685
3.5647395 -9.5444813 -0.17784002
7.9579058 -21.318409 6.097259
2.8356435 -7.624814 -2.179774
3.5358069 -9.5125809 0.17714193
3.3226163 -8.9437981 -2.2027209
10.686746 -28.781906 1.6090168
3.5104828 -9.4545507 -1.9603716
7.9279842 -21.363346 1.9936004
3.5247154 -9.5030499 -1.6053306
2.6337266 -7.1046386 0.93035066
3.5200963 -9.5007658 -1.2440423
2.7720265 -7.4857292 1.2643036
3.5161505 -9.4952011 -0.88585097
7.6941881 -20.78894 4.3088489
3.5186501 -9.512146 -0.531524
5.4000664 -14.606109 3.5951676
3.5258548 -9.5418606 -0.17756079
7.4002242 -20.037638 5.7235246
2.7623162 -7.5077548 -2.1435394
3.4860172 -9.4798212 0.17630421
3.2967541 -8.9699745 -2.20632
7.3205442 -19.928854 1.1126626
3.4733958 -9.4556904 -1.958082
7.3115888 -19.915203 1.8560687
3.4779124 -9.4782057 -1.5990733
2.5945566 -7.0746512 0.92523217
3.4677835 -9.4608078 -1.2372177
2.7513154 -7.5101986 1.2668065
3.4651651 -9.4587774 -0.88131887
7.307693 -19.958416 4.1313963
3.4593425 -9.4530973 -0.52754653
5.5592351 -15.199542 3.7364371
3.4527066 -9.445178 -0.1755363
7.2884684 -19.949032 5.6909132
2.736753 -7.5191665 -2.144057
3.4406004 -9.458107 0.17567593
3.2314632 -8.8880234 -2.1833749
7.2488909 -19.948654 1.1123486
3.4296412 -9.4382334 -1.9519762
7.2365828 -19.925625 1.8546741
3.4299788 -9.4494371 -1.5921901
2.5698462 -7.0836649 0.92523217
3.4306762 -9.4616575 -1.2357552
2.7331593 -7.5420437 1.270561
3.4443452 -9.5045328 -0.88445646
7.2359772 -19.978266 4.1302519
3.4304025 -9.4763823 -0.52817452
5.4942107 -15.185869 3.728339
3.4305966 -9.4872608 -0.17609477
7.2168183 -19.968901 5.6893601
2.7379746 -7.6050143 -2.1657977
3.4075642 -9.4700603 0.17567593
3.16085 -8.7892237 -2.1563809
7.1954288 -20.018946 1.1148607
3.3867149 -9.4224358 -1.9462519
7.1919098 -20.020138 1.8611236
3.3822877 -9.4204512 -1.5853071
1.8954177 -5.2820754 0.6890493
3.3828859 -9.4324675 -1.2303931
2.7308118 -7.6184797 1.2818241
3.3856013 -9.4452267 -0.87783265
1.9254633 -5.3746552 1.1097453
3.3784525 -9.4356489 -0.5252437
5.6847649 -15.885664 3.8952522
3.3772547 -9.4426918 -0.17504764
5.1195412 -14.321949 4.0753646
2.7036338 -7.5926871 -2.1595864
3.3624187 -9.4479847 0.17504764
3.154968 -8.8699732 -2.1734772
9.6135073 -27.042664 1.5041355
3.3505139 -9.4249496 -1.9443438
9.824831 -27.652393 2.5674338
3.3467393 -9.4247541 -1.5840555
2.6033232 -7.335279 0.9556995
3.3433034 -9.4255095 -1.2279556
3.359268 -9.4757662 -0.87957567
7.2130346 -20.357687 4.1981797
3.345495 -9.4473848 -0.5252437
5.728755 -16.186485 3.9640877
3.338939 -9.4393406 -0.1747684
2.0218828 -5.7191362 1.6253836
2.6925149 -7.6458097 -2.1720095
3.3214507 -9.4370289 0.17462878
3.1511462 -8.9581413 -2.192373
10.27422 -29.224054 1.6234616
3.2993631 -9.3847284 -1.9336585
7.3399386 -20.889423 1.9371235
3.30073 -9.3991041 -1.5777982
2.6046567 -7.4211173 0.96569276
3.2998683 -9.4071522 -1.2240558
1.8266478 -5.2102561 0.87446874
3.3037589 -9.4235077 -0.87364912
1.8645239 -5.3212647 1.096007
3.3058958 -9.440155 -0.52419698
5.8569813 -16.734272 4.0932093
3.299365 -9.4320631 -0.17441934
2.0012698 -5.7243352 1.624866
2.6531038 -7.6186733 -2.1616566
3.3003213 -9.4825602 0.17525707
3.1236982 -8.9801302 -2.1950724
10.539414 -30.316185 1.6820779
3.2511106 -9.3516836 -1.9244996
2.4384558 -7.0180616 0.65000749
3.2601254 -9.388175 -1.5740438
1.8699411 -5.3879004 0.70026129
3.251399 -9.373601 -1.218206
1.8414484 -5.3117867 0.89042509
3.2577934 -9.3973331 -0.8701629
3.2493956 -9.3836946 -0.52042878
5.751368 -16.61834 4.0599165
3.2415819 -9.3717079 -0.17309296
1.9825381 -5.7349377 1.6259012
2.6378138 -7.6607676 -2.1709743
3.2424741 -9.4221697 0.17393069
3.0885293 -8.9799223 -2.192373
10.167336 -29.578386 1.6391623
3.2210011 -9.3704014 -1.9260262
3.2260516 -9.3957605 -1.573418
1.8446797 -5.3756189 0.69782394
3.2147949 -9.3736277 -1.2167436
1.8299404 -5.338738 0.89386666
3.2314298 -9.427496 -0.87190604
3.219208 -9.4025383 -0.5208475
2.2700109 -6.6339378 1.6187478
3.2179089 -9.4094563 -0.17358163
2.6042089 -7.6498117 -2.1652801
3.1966822 -9.3955688 0.17323259
3.0490088 -8.9666643 -2.1865242
9.3365393 -27.473036 1.5206738
3.176271 -9.3462696 -1.9187754
2.3759451 -6.995297 0.64634699
3.1691055 -9.3358831 -1.561529
1.8329194 -5.4027033 0.70050502
3.1718564 -9.3547134 -1.2128438
1.7878368 -5.2758708 0.88229048
3.1754827 -9.3707857 -0.86563081
1.8080677 -5.3386383 1.0956253
3.1645968 -9.3493958 -0.51728868
2.2480898 -6.6455126 1.6196476
3.1658289 -9.363801 -0.1725345
1.9362682 -5.7303367 1.6207249
2.5750246 -7.6515326 -2.1632097
3.1574919 -9.3877153 0.17288354
2.9872663 -8.8867407 -2.164479
9.0523071 -26.945053 1.4896908
3.1367481 -9.3368282 -1.9145776
2.3337562 -6.9506621 0.64146626
3.135242 -9.3431444 -1.5609033
2.3303652 -6.9486017 0.89988333
3.1328735 -9.3469057 -1.2104064
3.1465511 -9.3931484 -0.86667669
1.780696 -5.3188534 1.0902827
3.1408141 -9.3869028 -0.51875407
2.2588692 -6.7549677 1.6443923
3.1369276 -9.3861742 -0.17274393
1.8874892 -5.6509404 1.596396
2.5361049 -7.6238122 -2.1528571
3.1083004 -9.3493423 0.17197601
2.9568422 -8.8989639 -2.1649289
8.8977737 -26.794521 1.4796423
3.0917637 -9.3104563 -1.9069452
2.308852 -6.9568758 0.64129192
3.0901704 -9.3165331 -1.5546459
1.8039019 -5.4417477 0.70391744
3.0939848 -9.3389406 -1.2079691
1.7621369 -5.3219776 0.88792211
3.0911973 -9.3359842 -0.86040151
1.7652032 -5.3343563 1.0921907
3.0904686 -9.3447132 -0.51582325
2.2267148 -6.736907 1.6380936
3.0803099 -9.324913 -0.17141753
1.881076 -5.6978531 1.607784
2.5179255 -7.6583114 -2.1601038
3.0781429 -9.3677359 0.17211564
2.9324486 -8.9295969 -2.169878
7.7478843 -23.606974 1.3021187
3.0555718 -9.3100004 -1.9046555
2.2833118 -6.9611068 0.64094335
3.046555 -9.2934742 -1.5490142
1.7916933 -5.4687619 0.70659852
3.0514843 -9.319499 -1.2040691
1.7343342 -5.2999353 0.88322914
3.0585904 -9.3467178 -0.86040151
1.7404687 -5.3218255 1.0883746
3.0516253 -9.3364601 -0.51477653
2.1922936 -6.7112951 1.6299953
3.0353289 -9.2975893 -0.17071944
1.8557819 -5.6878552 1.6031252
2.5055039 -7.7111492 -2.1725271
3.0207202 -9.3023462 0.17071944
2.9012616 -8.9397783 -2.169878
7.7061014 -23.759264 1.3090271
3.0048842 -9.2645855 -1.8932071
2.2491693 -6.9387097 0.63815433
3.0092273 -9.2890186 -1.5465113
3.0177124 -9.3263168 -1.2035817
1.7304097 -5.3510656 0.89073795
3.0161359 -9.3270054 -0.85761249
1.6645261 -5.1503973 1.0521209
3.0091956 -9.3166456 -0.51310176
1.740829 -5.3929296 1.3083154
3.0114517 -9.3347712 -0.17120811
1.8234682 -5.6556873 1.5922549
2.4726667 -7.7014537 -2.1673508
2.995563 -9.3356819 0.1711383
2.848614 -8.8830471 -2.1536813
7.6377511 -23.831665 1.3115392
2.988106 -9.3236265 -1.9031291
2.2249346 -6.9465184 0.63815433
2.9743736 -9.2919407 -1.5452598
2.2264669 -6.9596639 0.89720219
2.9706299 -9.2914143 -1.197732
1.7081136 -5.3457837 0.8888607
2.9714327 -9.2995195 -0.85412621
1.682968 -5.2702589 1.0753995
2.9560096 -9.2624006 -0.50954288
1.7279158 -5.4175386 1.3128144
2.9582005 -9.280448 -0.17002134
2.154371 -6.7627611 1.9018024
2.4475207 -7.7155623 -2.1689036
2.9375758 -9.2660217 0.1696723
2.8105266 -8.8706436 -2.1482825
7.5557184 -23.86199 1.3117485
2.9247229 -9.2366734 -1.8832849
2.4453268 -7.7273579 0.70909911
2.9288173 -9.2608309 -1.5383767
2.211133 -6.9957848 0.90085822
2.9298077 -9.2752266 -1.1943196
1.6882542 -5.3479462 0.88823503
2.9437525 -9.3250351 -0.85552078
1.6356173 -5.1843596 1.0567002
2.9308665 -9.2955208 -0.51079899
1.7130933 -5.4365478 1.3159637
2.9317937 -9.3097906 -0.17037039
2.1261125 -6.7554975 1.8976613
2.4199955 -7.7222152 -2.168386
2.8956509 -9.2456865 0.16911381
2.8063231 -8.96595 -2.168978
8.2332134 -26.320501 1.4453099
2.884258 -9.2205944 -1.8779422
2.425472 -7.7586675 0.71119088
2.8988278 -9.2785406 -1.5396281
7.3250914 -23.460457 3.0177288
2.8867707 -9.2512875 -1.1899325
2.3405809 -7.5055132 1.2452185
2.8910153 -9.2705841 -0.84959412
1.6420453 -5.2687597 1.0727283
2.881772 -9.2523022 -0.50786817
1.699319 -5.4592409 1.3200128
2.8755188 -9.2435913 -0.16897419
2.1071064 -6.7776365 1.9018024
2.4141629 -7.7988973 -2.1875386
2.8657234 -9.2633791 0.16925345
2.749681 -8.8937731 -2.1491826
7.3500352 -23.788214 1.3048402
2.8462589 -9.2118483 -1.8741261
2.3924956 -7.7480483 0.70944774
2.8442883 -9.216877 -1.5277392
2.1593151 -7.0015664 0.89963961
2.8497822 -9.2461309 -1.1879824
1.6066834 -5.2161255 0.86445701
2.8562922 -9.2730036 -0.84889692
1.5705042 -5.1018333 1.0376194
2.8576787 -9.2890301 -0.50933355
1.6859796 -5.4837661 1.3245119
2.8514571 -9.2803326 -0.16946286
2.0403373 -6.644598 1.862462
2.3857939 -7.8035817 -2.1865032
2.8251896 -9.2465525 0.16876477
2.719758 -8.9070435 -2.1500821
7.2669535 -23.813725 1.3048402
2.8106477 -9.2104607 -1.8718363
4.0648289 -13.328731 1.2191346
2.8224649 -9.2607594 -1.5333707
1.5738171 -5.1670699 0.66321301
2.8117092 -9.2370329 -1.1855451
1.5988134 -5.2557197 0.87008858
2.8018699 -9.2104836 -0.84227312
1.58752 -5.2218657 1.0608981
2.8066576 -9.2377958 -0.50598407
1.6622972 -5.4747005 1.3209126
2.7958205 -9.2136879 -0.16806667
2.0277834 -6.6868043 1.872297
2.3401144 -7.7508316 -2.1694212
2.792897 -9.2563572 0.16876477
2.6841478 -8.9015579 -2.1464829
7.1987681 -23.888664 1.3075616
2.7682846 -9.1863794 -1.8649671
4.0251737 -13.36573 1.2212263
2.7650714 -9.1873283 -1.5196046
1.5403333 -5.1212063 0.65663213
2.7691636 -9.2125711 -1.1811578
1.5571578 -5.1837025 0.857261
2.7731426 -9.231657 -0.84331894
1.5382354 -5.1239557 1.0399091
2.7663593 -9.2207556 -0.50451869
1.6207907 -5.4058037 1.3029165
2.7590497 -9.2080669 -0.16778743
1.975058 -6.5957575 1.8448622
2.3014545 -7.7200756 -2.158551
2.746866 -9.2200556 0.16792706
2.650836 -8.9034014 -2.1446834
3.1976869 -10.746976 0.58762819
2.725003 -9.1583519 -1.8573349
6.5622997 -22.069057 2.0143435
2.7341113 -9.2007103 -1.5202303
2.0638382 -6.9495797 0.89013374
2.7234325 -9.1765079 -1.175308
1.5160245 -5.1114588 0.84443337
2.7307043 -9.2068968 -0.84018135
1.5526994 -5.2384686 1.062043
2.7341557 -9.2303553 -0.50451869
1.5897416 -5.3703194 1.2930186
2.7268906 -9.2176418 -0.16778743
1.9662633 -6.6507783 1.8583208
2.2777648 -7.7391815 -2.1616566
2.7191792 -9.244935 0.16820629
2.6241381 -8.927557 -2.1482825
3.1398883 -10.689085 0.58385998
2.6852713 -9.1414375 -1.8519921
6.4919581 -22.114771 2.0164354
2.6897442 -9.168498 -1.5133473
2.0652571 -7.0443673 0.90134573
2.6947334 -9.1973886 -1.1767704
1.5048333 -5.1394691 0.8481878
2.6940696 -9.2010765 -0.83878684
1.5410209 -5.2664666 1.0666224
2.6828609 -9.1746645 -0.50095981
1.5578671 -5.3309441 1.282221
2.6868498 -9.2002306 -0.16729876
1.9289643 -6.6093845 1.8448622
2.2388713 -7.6962156 -2.1476805
2.6700249 -9.1843042 0.16694972
2.6265242 -9.040554 -2.1734772
7.0022459 -24.117592 1.3161447
2.6521609 -9.1347456 -1.8489393
8.6309996 -29.746853 2.7098463
2.6576262 -9.1655197 -1.51147
2.0304096 -7.0069675 0.89573973
2.6459479 -9.137166 -1.1679959
1.4798943 -5.113811 0.84318191
2.654074 -9.1712179 -0.83530062
2.21716 -7.6664619 1.5512772
2.6595695 -9.2022362 -0.50200653
1.5432751 -5.3433003 1.2840205
2.6546056 -9.1970997 -0.16708934
1.9263943 -6.6785226 1.862462
2.2189236 -7.7281227 -2.1544099
2.6346412 -9.1820364 0.1667403
2.5809851 -9.0009632 -2.1617796
7.9424562 -27.7169 1.5110439
2.6132264 -9.1194124 -1.8439783
8.1947174 -28.616066 2.6042135
2.6180081 -9.1481524 -1.5070899
2.0032079 -7.0044694 0.89452106
2.623857 -9.1807032 -1.1723832
1.4652896 -5.1303425 0.8450591
2.6176665 -9.1651001 -0.83390617
1.4699562 -5.150085 1.0410539
2.6033263 -9.126955 -0.497401
1.5224771 -5.3411589 1.282221
2.6016686 -9.1332283 -0.16576295
1.958078 -6.8784413 1.9162962
2.1914067 -7.7339625 -2.1538923
2.5905888 -9.1488476 0.16597238
2.5728967 -9.0924234 -2.1815755
3.1239164 -11.047044 0.60165417
2.5851183 -9.1417027 -1.8466495
7.5919695 -26.86524 2.4424527
2.5763955 -9.1230173 -1.5014582
1.9744328 -6.9961352 0.89257115
2.5713172 -9.1172056 -1.1631211
1.4538023 -5.1582413 0.84881347
2.5721745 -9.1324415 -0.83007127
1.4604864 -5.1854205 1.0471598
2.5725334 -9.1398315 -0.49761033
1.5085725 -5.3633242 1.2862701
2.5827599 -9.1884565 -0.16660067
2.1666846 -7.7549667 -2.1575158
2.5500269 -9.1270199 0.16541392
2.5359013 -9.0825777 -2.1770763
6.7471619 -24.1819 1.315726
2.5320847 -9.0811453 -1.8325297
8.3213043 -29.863922 2.7122867
2.5355229 -9.1057558 -1.4970781
2.5426705 -9.137599 -1.1645836
1.4400223 -5.1785102 0.85131645
2.5445473 -9.1567221 -0.83146584
1.4125785 -5.0866966 1.0261708
2.5283365 -9.1107082 -0.49551687
1.4956748 -5.3932295 1.2921189
2.5186052 -9.0817976 -0.16450639
1.5163475 -5.4714808 1.5213385
2.1416554 -7.7699323 -2.1595864
2.5208066 -9.1517277 0.16569315
2.5082841 -9.1124802 -2.1820252
2.9250717 -10.6339 0.57799834
2.5008917 -9.0918217 -1.8329114
2.4995353 -9.0993137 -1.4945751
6.3073735 -22.977076 2.9255955
2.4965584 -9.1009121 -1.1587338
1.4205102 -5.181848 0.85100359
2.4978209 -9.1117468 -0.82658505
1.400001 -5.1105313 1.029987
2.4922996 -9.1040678 -0.49467951
2.4281473 -8.8758097 2.1244378
2.490576 -9.1102571 -0.16485542
1.4967924 -5.4788656 1.521856
2.1292183 -7.8314219 -2.1745977
2.4825542 -9.1373148 0.16527429
2.4662485 -9.0835667 -2.1730273
6.6398411 -24.472439 1.3289148
2.4557726 -9.0512333 -1.8229893
2.4543271 -9.0584106 -1.4864405
1.2933629 -4.7768378 0.60764056
2.4730704 -9.1402311 -1.1626337
1.3848836 -5.1219401 0.84036607
2.4670405 -9.1242571 -0.82693368
1.3954678 -5.1646647 1.0399091
2.4532163 -9.0857172 -0.49321413
5.5842104 -20.696011 4.9489236
2.4493892 -9.0841417 -0.16422716
1.7953055 -6.6629429 1.8490034
2.0828559 -7.7679 -2.1549275
2.4382222 -9.0995674 0.16443658
2.4209156 -9.0412951 -2.1608799
6.2662582 -23.40234 1.2696704
2.4343133 -9.097681 -1.8306217
2.8790119 -10.767164 0.97509843
2.4226909 -9.0669222 -1.4864405
1.2771933 -4.7832417 0.60788435
2.4237502 -9.0835943 -1.1543465
1.362289 -5.1055098 0.83692449
2.4182351 -9.0692835 -0.82118142
1.3592339 -5.1012096 1.0261708
2.4317651 -9.1328259 -0.49530756
2.0544486 -7.7211857 1.8445988
2.4336483 -9.1463232 -0.16520448
3.5880992 -13.494545 3.7414882
2.0601735 -7.7919331 -2.1595864
2.4080341 -9.1076031 0.16443658
2.382956 -9.0191269 -2.1536813
6.234499 -23.613319 1.2799283
2.3855126 -9.0415802 -1.8176465
2.8068702 -10.646143 0.96324527
2.3845537 -9.0443439 -1.4814346
1.2830713 -4.8699932 0.61836511
2.3976576 -9.1069403 -1.1562965
2.3951755 -9.1104259 -0.82414466
2.0032325 -7.6196089 1.531433
2.3771057 -9.0481167 -0.49028325
1.4845117 -5.6546021 1.3497064
2.3824253 -9.0812616 -0.1638781
1.3305591 -5.0753984 1.4059051
2.049926 -7.8585382 -2.1761506
2.3671474 -9.0811224 0.16380829
2.3465466 -9.0085335 -2.1491826
6.1309071 -23.553757 1.2755321
2.3545282 -9.0456409 -1.8168833
6.9885602 -26.867941 2.4288561
2.3559496 -9.0640841 -1.4833118
3.1808805 -12.246626 1.5535904
2.3469028 -9.0422401 -1.1470344
1.2189958 -4.6999679 0.76903194
2.3468628 -9.0550861 -0.8183924
1.9795772 -7.637959 1.5337228
2.3565238 -9.098896 -0.49258608
1.9852448 -7.670846 1.8293018
2.3447015 -9.0662899 -0.16345924
1.307518 -5.0594378 1.4002111
1.9663028 -7.6526971 -2.1171398
2.3364301 -9.0932035 0.1638781
2.2957022 -8.9411678 -2.1311862
5.5711493 -21.71393 1.1748377
2.3077064 -9.0009613 -1.8061981
6.2571092 -24.422903 2.2057374
2.3129139 -9.0343857 -1.4770544
1.2588878 -4.9172935 0.62323987
2.3222132 -9.077302 -1.1504467
1.7784331 -6.9567723 1.1372787
2.3295419 -9.1192045 -0.82344747
2.3093364 -9.0532846 -0.48965529
1.9643363 -7.7063966 1.8360505
2.3051381 -9.0434151 -0.16290076
1.293187 -5.0770755 1.4038346
1.9466912 -7.6876054 -2.1249044
2.2913129 -9.0551786 0.16304037
2.2853682 -9.0383186 -2.1523318
5.4944644 -21.745821 1.1754657
2.273387 -8.9975414 -1.8039083
6.1893744 -24.514141 2.2120128
2.2871635 -9.0653877 -1.4808089
1.225328 -4.8602786 0.61544025
2.2734091 -9.0241537 -1.142647
1.7558167 -6.9747376 1.139156
2.2728908 -9.0287428 -0.81455755
2.282589 -9.0806599 -0.49070197
2.2758713 -9.0673199 -0.16317999
1.2675201 -5.0536733 1.3960699
1.9455671 -7.7974458 -2.1533747
2.25195 -9.0320778 0.1624819
2.2344894 -8.9687109 -2.1338856
5.7948761 -23.276587 1.2571098
2.2414913 -9.0035172 -1.8035268
6.1153126 -24.582001 2.2161963
2.23263 -8.9812994 -1.4657912
1.1925625 -4.8009505 0.60739684
2.2409396 -9.0281811 -1.1421596
1.1726934 -4.7280178 0.77153486
2.2514319 -9.0772314 -0.81821811
1.8395847 -7.4223065 1.4864022
2.2355142 -9.0265331 -0.48735246
4.7038913 -19.007544 4.5206165
2.2326853 -9.0286198 -0.16234228
1.248482 -5.0524411 1.3945172
1.8998922 -7.7291493 -2.1326692
2.2204092 -9.0398827 0.1624819
2.2008457 -8.9669952 -2.1316364
5.2591963 -21.427755 1.1563108
2.2020993 -8.9788713 -1.7970392
5.7847629 -23.60467 2.1262515
2.2087841 -9.0197363 -1.4707971
1.1753248 -4.8031559 0.60715312
2.2043829 -9.0085688 -1.1387473
2.2022367 -9.013423 -0.81176853
2.206831 -9.0459251 -0.48798048
2.2103114 -9.0670586 -0.16290076
1.2166325 -4.9946132 1.377435
1.8969963 -7.8292823 -2.158551
2.186655 -9.0316496 0.16220267
2.1926346 -9.0632668 -2.1527817
5.2101822 -21.536316 1.1612303
2.1640093 -8.9517756 -1.79017
5.7055187 -23.61985 2.1259029
2.1677375 -8.9809256 -1.4632881
1.1593909 -4.8070264 0.60715312
2.1679819 -8.9888115 -1.1353348
1.1533439 -4.7856212 0.77966946
2.1830633 -9.0652275 -0.81577778
1.8781275 -7.8049574 1.560436
2.1590788 -8.9793997 -0.48400295
2.1578081 -8.9810095 -0.16122533
1.2176512 -5.0718813 1.3976228
1.8862779 -7.8994164 -2.1761506
2.1529796 -9.0232897 0.16192344
2.1295762 -8.9321089 -2.1199389
5.296052 -22.230495 1.1976562
2.1277475 -8.9382668 -1.7859724
5.6197777 -23.607628 2.1231139
2.1406872 -8.9995956 -1.4651654
1.1535422 -4.853333 0.61251533
2.1384254 -9.0040503 -1.1363099
1.1215801 -4.726192 0.76934481
2.1357777 -9.0068798 -0.80985117
2.1240404 -8.9713335 -0.48316559
1.3410709 -5.6642966 1.3438576
2.125525 -8.9845943 -0.16115552
1.2017171 -5.083621 1.3996935
1.8634977 -7.9326072 -2.1833978
2.1162372 -9.0155458 0.16164419
2.0741301 -8.8430929 -2.0969937
2.5776455 -10.998482 0.59202439
2.0730379 -8.8523397 -1.7672729
7.1722803 -30.627254 2.7520297
2.0941842 -8.9496784 -1.4557793
1.1384578 -4.8691263 0.61397779
2.0891526 -8.9422379 -1.1275353
1.1213146 -4.8033705 0.78123385
2.1127081 -9.057333 -0.81368601
1.932303 -8.2904634 1.6546957
2.0902386 -8.9751682 -0.48295626
1.2707953 -5.4566035 1.2934686
2.0735438 -8.9105234 -0.15968952
1.1314489 -4.8659558 1.3386122
1.836151 -7.9469123 -2.185468
2.0714836 -8.9725819 0.16073667
2.0360098 -8.8259506 -2.091145
4.9902954 -21.64982 1.1643704
2.0416837 -8.8576078 -1.7668914
7.0707088 -30.699932 2.7562132
2.0347879 -8.8417912 -1.4370072
1.126387 -4.898416 0.61714637
2.0336926 -8.8511658 -1.1151046
1.0948622 -4.7689424 0.77497649
2.0320389 -8.8510475 -0.79451174
2.0223064 -8.8227739 -0.47437313
1.2451316 -5.4365306 1.2876198
1.1265255 -4.9265676 1.3541414
1.7976916 -7.9061794 -2.1725271
2.0117979 -8.8549585 0.15850276
2.0133846 -8.8691111 -2.0996931
4.824563 -21.26976 1.1430173
2.0163977 -8.8895712 -1.7718524
2.4459472 -10.792024 0.968126
2.0017302 -8.8392067 -1.4354428
1.103148 -4.8752122 0.61373407
2.0054111 -8.8698282 -1.116567
1.0782087 -4.7727351 0.77497649
2.0011303 -8.8580856 -0.79451174
1.8778358 -8.3190718 1.6577487
1.2235769 -5.4294372 1.2849205
1.7481515 -7.8143721 -2.1456099
1.9807149 -8.8684769 -2.0978935
2.4222789 -10.845541 0.58239454
1.9862112 -8.9003887 -1.7726158
6.2214088 -27.901606 2.5010211
2.0013635 -8.983036 -1.4576566
1.0921627 -4.9061604 0.61714637
2.0048866 -9.0062532 -1.1328975
1.0696669 -4.8090644 0.78029525
1.9840297 -8.9272556 -0.80008972
1.1525121 -5.1900687 1.0334216
1.2026104 -5.4201474 1.2817712
1.9593463 -8.8380384 -0.1580141
1.1067526 -4.9963641 1.3712233
1.7068552 -7.7503219 -2.1264575
1.947947 -8.8597708 -2.0942943
4.6979747 -21.367613 1.1465763
1.9634252 -8.9376059 -1.7787216
1.8833363 -8.5801821 0.76853937
1.9580219 -8.9278784 -1.4476447
1.0746124 -4.9039378 0.6164152
1.9516391 -8.9062033 -1.1194919
1.0689234 -4.8820534 0.7915585
1.9671894 -8.9921761 -0.80531907
1.131521 -5.1766005 1.029987
1.9449849 -8.905571 -0.47772264
1.1796401 -5.4012589 1.2763723
1.9428183 -8.9030991 -0.15906124
1.0852392 -4.9773564 1.3650117
1.6913763 -7.8031397 -2.1393983
1.9339088 -8.9295921 0.15948009
1.9033065 -8.7957096 -2.0776479
4.6748538 -21.622044 1.1593462
1.9177057 -8.8772402 -1.765365
1.865811 -8.6370153 0.77307147
1.9234036 -8.9111509 -1.4438903
1.0734096 -4.9773316 0.62518978
1.9305738 -8.9595346 -1.1253415
1.0385712 -4.8239579 0.78154671
1.9139996 -8.8977013 -0.79625487
1.9231135 -8.955267 -0.48002547
1.9209569 -8.9528408 -0.15982912
1.0751474 -5.0151153 1.3743292
1.6422468 -7.7129221 -2.1129987
1.8911817 -8.889677 0.15864237
1.8601161 -8.7511597 -2.0655005
4.5266981 -21.314722 1.1419708
1.8847494 -8.8822889 -1.7649832
1.857716 -8.7548876 0.78300714
1.8841745 -8.8872232 -1.4388845
1.0543368 -4.9773488 0.62470233
1.8816931 -8.8908081 -1.1158358
1.0286485 -4.8644524 0.7874912
1.8904368 -8.9475431 -0.80008972
1.7598773 -8.3367958 1.6562221
1.875439 -8.891901 -0.47625723
1.0500692 -4.9786272 1.1746944
1.869988 -8.8737259 -0.15829334
1.0472062 -4.9736519 1.3619058
1.6317588 -7.8039823 -2.1362925
1.8643115 -8.9239531 0.15913104
1.8336045 -8.784626 -2.071799
4.5610809 -21.870804 1.1708602
1.8441718 -8.8506966 -1.7573509
1.8296793 -8.7811432 0.78475034
1.8451475 -8.8631248 -1.4338784
1.7301801 -8.318162 1.0432017
1.853941 -8.920969 -1.1187607
1.0192459 -4.9088068 0.79406142
1.8398222 -8.8685732 -0.79241997
1.7305058 -8.3489571 1.6573671
1.8420258 -8.894804 -0.4760479
1.0223303 -4.9366446 1.1638968
1.8471754 -8.927516 -0.15913104
1.0188017 -4.9282689 1.3484472
1.5794489 -7.6944737 -2.1047165
1.8227525 -8.8876305 0.15836313
1.7990477 -8.7798328 -2.0690999
2.2160091 -10.824329 0.57904506
1.8117198 -8.8573961 -1.7573509
1.7795154 -8.6999512 0.77690631
1.8102769 -8.8582163 -1.4320012
1.6992836 -8.3225021 1.0429579
1.805359 -8.8499031 -1.1090111
3.356034 -16.466002 2.6615763
1.8184364 -8.9299221 -0.79730076
1.8022518 -8.8662653 -0.4741638
1.018593 -5.0110168 1.1805431
1.7977262 -8.8519201 -0.15766504
0.99919528 -4.924397 1.3463767
1.5705682 -7.7751436 -2.1254222
1.8035258 -8.9364367 0.15913104
1.7649076 -8.7529659 -2.0614514
4.3912024 -21.797571 1.1653125
1.7668207 -8.7703543 -1.7390332
1.7466719 -8.678154 0.77446592
1.7793232 -8.8483667 -1.4294983
1.6746938 -8.3355837 1.0439328
1.7853602 -8.8944559 -1.1138859
2.180589 -10.873267 1.7564464
1.7778299 -8.864953 -0.79102546
4.0213108 -20.069992 3.9787495
1.7759356 -8.8715744 -0.4741638
1.5749714 -7.874805 1.8540466
1.7683415 -8.8496799 -0.15752542
0.99204022 -4.9691896 1.3577647
1.5486816 -7.807107 -2.1326692
1.757547 -8.8681402 0.15780467
1.726017 -8.7170181 -2.0515537
3.2461045 -16.409048 0.87662733
1.7422924 -8.8072824 -1.7451392
1.7016877 -8.6099234 0.76784205
1.7461294 -8.8428965 -1.4276211
1.647508 -8.3511171 1.0451516
1.7381802 -8.8188343 -1.1036489
2.145292 -10.89438 1.7586365
1.7437947 -8.8554649 -0.78963101
3.9588079 -20.122433 3.9863815
1.7418765 -8.8620405 -0.47332644
1.5677507 -7.9835138 1.8783413
1.7289687 -8.8126287 -0.15675752
0.97134459 -4.9555607 1.353106
1.5432074 -7.9243431 -2.1632097
1.717416 -8.8271112 0.15696694
1.6833063 -8.6598625 -2.0367069
3.1785257 -16.367342 0.87380123
1.7182753 -8.8480015 -1.7520082
1.6784546 -8.6510172 0.7709797
1.7084849 -8.8140306 -1.4219894
1.6191016 -8.3607149 1.0456392
1.7149283 -8.8638268 -1.1085237
2.0960035 -10.843617 1.7492503
1.7090912 -8.8419361 -0.78788787
3.8892877 -20.139984 3.9871452
1.7086612 -8.8563004 -0.47269842
1.5111045 -7.8396835 1.843249
1.7004659 -8.8303919 -0.15696694
0.94856524 -4.9304652 1.3453414
1.4959531 -7.8272152 -2.135257
1.6835935 -8.817338 0.15668771
1.6494167 -8.6465435 -2.0322077
3.119504 -16.368528 0.87327784
1.674148 -8.7845182 -1.73827
1.6512268 -8.6724825 0.77237415
1.6769704 -8.8160601 -1.4213637
1.5884258 -8.3585148 1.0446641
1.6724977 -8.8093014 -1.1009678
2.0205927 -10.652908 1.7173377
1.6789602 -8.8517637 -0.78823656
3.9962413 -21.088966 4.1722298
1.6725353 -8.8347378 -0.47123301
1.5467436 -8.1780844 1.921532
1.6636922 -8.8048353 -0.15640847
0.92812419 -4.9166613 1.3406827
1.4853562 -7.9216318 -2.1595864
1.6557492 -8.8388863 0.15696694
1.6314124 -8.7173748 -2.0475044
3.0027483 -16.045042 0.85548359
1.6434737 -8.790308 -1.73827
1.6132625 -8.637064 0.76871365
1.6440117 -8.8102074 -1.4194865
1.5625134 -8.3815718 1.0468577
1.6509163 -8.8557796 -1.1060863
1.9765744 -10.612943 1.7098289
1.6436778 -8.8340654 -0.78614479
2.8853517 -15.522605 3.0689721
1.6391343 -8.8267765 -0.47050032
1.4121649 -7.6045408 1.7856615
1.6366721 -8.8221006 -0.15661789
0.91392702 -4.931109 1.3437886
1.4555813 -7.9075146 -2.1544099
1.6191956 -8.8049936 0.15626885
2.9433904 -16.021515 0.85370415
1.603328 -8.7358484 -1.7264398
1.5792218 -8.6129704 0.76609892
1.614076 -8.8117256 -1.4188608
1.5339955 -8.382802 1.0463703
1.6101056 -8.7987204 -1.0982866
1.9378171 -10.600007 1.7067002
1.6100783 -8.8159485 -0.78405303
2.8592336 -15.671144 3.0964484
1.606989 -8.8164434 -0.4696629
0.8844403 -4.8523159 1.1387023
1.6009597 -8.7920685 -0.15598962
0.90898001 -4.9968343 1.3608706
1.4314122 -7.9237041 -2.1575158
1.5985124 -8.8575439 0.15710656
1.5742532 -8.7318392 -2.0484045
2.9122269 -16.169291 0.86103129
1.5738684 -8.7471895 -1.7275848
1.5520636 -8.6260033 0.76679623
1.5820504 -8.8014765 -1.4163579
1.5047849 -8.3800268 1.0453953
1.5779803 -8.7964716 -1.0973117
1.7603793 -9.8231134 1.580614
1.5743792 -8.7940578 -0.78161269
2.8128088 -15.727412 3.1056075
1.5712869 -8.7944736 -0.46819749
0.86201364 -4.8246794 1.1315038
1.5699092 -8.7956333 -0.15595472
0.88542801 -4.9657431 1.3515531
1.4053878 -7.9460182 -2.1621742
1.5500323 -8.7727604 0.15550095
1.5354639 -8.6991682 -2.0394061
3.9384937 -22.336302 1.1886544
1.5411162 -8.7490311 -1.7268214
1.5643322 -8.8808298 0.78893375
1.5408797 -8.7566328 -1.4082233
1.4716555 -8.3717995 1.0436891
1.5436689 -8.7904644 -1.0958493
2.8896406 -16.472 2.6487486
1.536634 -8.7683687 -0.77882373
2.8810873 -16.457005 3.2475693
1.5335367 -8.7686958 -0.46652275
2.7364149 -15.646701 3.6671519
1.5331869 -8.7757206 -0.15550095
0.86921448 -4.9803739 1.354659
1.3752661 -7.945405 -2.1606214
1.5212761 -8.7980871 0.15584999
1.5005842 -8.6874552 -2.0353572
4.0325174 -23.3701 1.2428744
1.5085639 -8.7427492 -1.7245318
1.5405713 -8.9375544 0.79346585
1.5127969 -8.7855816 -1.4119775
1.4241357 -8.2793207 1.0315022
1.5060607 -8.76476 -1.0919493
1.8183248 -10.5931 1.7023201
1.5053438 -8.7697515 -0.77847505
2.8209715 -16.451483 3.2445164
1.5022444 -8.7700586 -0.46631342
0.8325395 -4.8654437 1.1396021
1.4993284 -8.7714252 -0.15532643
0.87209028 -5.107305 1.3883054
1.3520436 -7.9768233 -2.1678684
1.4838778 -8.7639112 0.15515189
1.4721998 -8.7041693 -2.0380566
3.4424961 -20.37487 1.0829357
1.474767 -8.7286034 -1.7207156
1.5120164 -8.9585943 0.79486042
1.4722679 -8.7323732 -1.4025916
1.3859962 -8.2294302 1.0246775
1.4761165 -8.77388 -1.0924369
1.7711874 -10.538992 1.6926211
1.4780245 -8.7946014 -0.78021818
2.7667756 -16.480591 3.2483325
1.4669979 -8.7476711 -0.46484798
1.3542081 -8.0837564 1.8922883
1.4756306 -8.8180237 -0.15605941
1.3200794 -7.9567189 -2.161139
1.4545856 -8.7769289 0.15529151
1.4370342 -8.6804161 -2.0313082
3.3657773 -20.331001 1.0800049
1.4404445 -8.7104559 -1.7161362
1.4927516 -9.0365505 0.80130988
1.4437066 -8.7491531 -1.4044688
1.3640404 -8.2753496 1.0297961
1.4431386 -8.7552233 -1.089512
1.7285264 -10.498028 1.6851122
1.439556 -8.7525244 -0.77603471
1.218709 -7.4178548 1.4612154
1.4390414 -8.768507 -0.4656854
2.7018108 -16.462936 3.8516121
1.4308536 -8.7281466 -0.15438399
0.8270039 -5.05021 1.3712233
1.2986451 -7.9915614 -2.1694212
1.4222678 -8.7619648 0.15494247
1.3991954 -8.6293488 -2.0182607
3.3117638 -20.424856 1.0844011
1.4121801 -8.7190599 -1.7168994
1.4688225 -9.0788202 0.80462182
1.4096427 -8.7226906 -1.3994628
1.3530409 -8.3817339 1.0424705
1.4147296 -8.7638788 -1.0899994
1.36792 -8.4833097 1.36098
1.4111568 -8.7611837 -0.77638328
1.1962864 -7.4354234 1.4638867
1.4036185 -8.7337914 -0.46359196
2.9344666 -18.259249 4.2695713
1.4088748 -8.7762804 -0.15515189
0.82493377 -5.1444831 1.3960699
1.26212 -7.9328651 -2.1523392
1.3888102 -8.7389851 0.1544538
1.3788216 -8.6859064 -2.0304081
3.2410727 -20.440235 1.0846105
1.3768018 -8.6829758 -1.7088854
1.4396428 -9.0895452 0.80514479
1.3794765 -8.7195129 -1.3982115
1.329887 -8.4155855 1.0461266
1.3816541 -8.7530775 -1.0880497
1.3438358 -8.5231552 1.3666116
1.3752691 -8.722518 -0.7725485
1.1707075 -7.4335313 1.4627419
1.3765104 -8.7502356 -0.46421999
0.80857801 -5.145843 1.2025883
1.3670689 -8.7100277 -0.15389533
1.2539926 -7.9986892 2.1694212
1.2409534 -7.979218 -2.1637273
1.363209 -8.7753954 0.15501226
1.3398274 -8.6348219 -2.0173612
3.3569143 -21.659328 1.1486697
1.3473871 -8.6935492 -1.7100304
1.3454077 -8.7008495 -1.394457
1.2753532 -8.2573442 1.0258962
1.3480648 -8.7382288 -1.0856122
1.3050519 -8.4692249 1.3572257
1.3466347 -8.7390804 -0.77359438
0.85714561 -5.5689626 1.0952437
1.3377635 -8.7016869 -0.4613938
0.78587884 -5.1178155 1.1953899
1.3384767 -8.7266054 -0.15410475
0.76237667 -4.976346 1.3489649
1.2113516 -7.9720421 -2.1606214
1.3247671 -8.7286978 0.15410475
1.3155204 -8.6779804 -2.0263591
3.098294 -20.462364 1.0846105
1.3123288 -8.667141 -1.7039244
1.3755547 -9.0954332 0.8047961
1.3132584 -8.6937733 -1.3925798
1.1005167 -7.2940478 0.90573299
1.3145962 -8.7232523 -1.0831748
1.3533982 -8.9913712 1.4401358
1.3104482 -8.7163725 -0.77115399
0.84295475 -5.6068668 1.1021129
1.31005 -8.7240801 -0.46233588
1.3050439 -8.7114477 -0.15375571
0.74471587 -4.9770665 1.3484472
1.1815581 -7.9726067 -2.1595864
1.2978078 -8.7570047 0.1545236
1.2778001 -8.6323986 -2.0146616
3.0911143 -20.907728 1.1076384
1.2785466 -8.6582966 -1.7012531
1.3454067 -9.1220961 0.80671352
1.2802334 -8.6907101 -1.3913282
1.2124685 -8.2306967 1.0215088
1.2783599 -8.688508 -1.0783
1.3085043 -8.9041853 1.425431
1.2800142 -8.7208939 -0.77115399
0.82581657 -5.6332283 1.1066922
1.2745934 -8.7051077 -0.46107981
1.2728909 -8.7040787 -0.15354627
0.75051242 -5.1382961 1.3914113
1.1495739 -7.9480023 -2.1518216
1.2542666 -8.6825371 0.15312742
1.2478229 -8.6485968 -2.0173612
3.007056 -20.867519 1.1049168
1.2480356 -8.6607647 -1.7008715
1.2882966 -8.9512224 0.7911998
1.2476407 -8.6794844 -1.3888253
1.2319425 -8.5809155 1.0644069
1.2465062 -8.6931362 -1.0783
1.1602045 -8.1013298 1.2962161
1.2478709 -8.7134752 -0.7701081
0.8042013 -5.6224723 1.104021
1.2419404 -8.6936865 -0.46024245
1.3154355 -9.2196608 2.1500821
1.2381593 -8.6888885 -0.15319723
0.70037144 -4.9210658 1.331883
1.1202028 -7.9404898 -2.1487157
1.2239521 -8.686862 0.15312742
1.2138242 -8.6258841 -2.0110624
3.3711565 -23.987022 1.269461
1.2134241 -8.6339607 -1.6947654
1.2642443 -9.0069637 0.7957319
1.2115769 -8.642705 -1.3822551
1.1849177 -8.4632778 1.0492952
1.2167033 -8.7013645 -1.0787874
1.1297327 -8.0896797 1.2937132
1.211385 -8.6743679 -0.76627332
0.77019739 -5.5221901 1.0837952
1.2110338 -8.6940126 -0.46003309
0.79749674 -5.7325511 1.3362092
1.2045203 -8.6693897 -0.15277837
1.0882684 -7.9137301 -2.1404335
1.1925323 -8.6831579 0.15298781
1.178676 -8.5933847 -2.0025144
2.980566 -21.730444 1.149507
1.1838124 -8.6420345 -1.6955289
1.2349557 -9.0271149 0.79712647
1.1822028 -8.6527538 -1.3831936
1.1634203 -8.5263672 1.0566072
1.1817658 -8.672122 -1.074644
1.1119683 -8.1599293 1.3043507
1.1862029 -8.716053 -0.76958525
0.75171041 -5.5306811 1.0849401
1.1750381 -8.6566267 -0.45783499
1.2494687 -9.2170334 2.1473827
1.1789881 -8.6971149 -0.15319723
2.5155571 -18.581045 5.0241957
1.0642284 -7.9442873 -2.1476805
1.1616079 -8.6712084 0.15270855
1.1501725 -8.5972462 -2.0025144
2.891469 -21.641731 1.1442734
1.1505216 -8.6227627 -1.6909494
1.2134386 -9.1064177 0.80375022
1.1495898 -8.6272554 -1.3785007
1.1550401 -8.6797276 1.0751314
1.1556163 -8.6956711 -1.0770813
1.0930949 -8.2362156 1.3159269
1.1473937 -8.6569366 -0.76400727
0.72691607 -5.4844875 1.0753995
1.1471111 -8.6664162 -0.45814902
1.2229825 -9.252037 2.1545811
1.140771 -8.6417027 -0.15215008
0.75419241 -5.7209425 1.5461851
1.034626 -7.9228697 -2.1409512
1.1313324 -8.675211 0.15270855
1.1199037 -8.5992765 -2.0020645
3.0951283 -23.798641 1.2577379
1.1188836 -8.6031685 -1.68637
1.1834903 -9.1123667 0.8039245
1.1225168 -8.6547232 -1.3822551
1.1316195 -8.7368593 1.0817124
1.117108 -8.6366529 -1.0692817
1.0625658 -8.2262669 1.3137368
1.1197006 -8.6685982 -0.76470447
0.70826942 -5.4908862 1.0761628
1.1132811 -8.6426344 -0.45668361
1.1126368 -8.661499 -0.15242931
0.73151469 -5.7024627 1.540491
1.0052603 -7.9130177 -2.1373277
1.0970175 -8.6473656 0.15215008
1.0874304 -8.5838013 -1.9975653
3.027076 -23.928186 1.2640181
1.0898315 -8.6148129 -1.6878965
2.9346256 -23.229931 2.0485086
1.0883433 -8.6272316 -1.3772492
1.1063251 -8.7821159 1.0868309
1.0909166 -8.6720142 -1.0731815
1.0313829 -8.2103262 1.310608
1.0859587 -8.6447763 -0.76226407
0.68372291 -5.450469 1.0677671
1.0843458 -8.6563768 -0.45720693
0.70000023 -5.5960431 1.3020166
1.0794222 -8.6415186 -0.15201046
0.71016937 -5.6934791 1.5373851
0.97644842 -7.9068918 -2.1347394
1.070251 -8.6789274 0.15263875
1.0593668 -8.6030178 -2.0011647
2.970835 -24.160629 1.2757415
1.0552019 -8.5815411 -1.6806457
2.8428333 -23.153021 2.0408387
1.0555784 -8.6094103 -1.3738077
1.0763868 -8.7918367 1.0875622
1.053413 -8.6166563 -1.0658693
0.99888718 -8.1825027 1.3056022
1.057466 -8.6623592 -0.7634843
0.66326749 -5.4411297 1.0654775
1.0502625 -8.6283875 -0.45553222
1.0506954 -8.6571445 -0.15221989
0.60336602 -4.9786592 1.3437886
0.94815189 -7.9044986 -2.1331868
1.0337671 -8.6309881 0.15173122
1.0240074 -8.5621586 -1.9908168
1.1225727 -9.4002171 0.49614492
1.0273352 -8.6027164 -1.6840802
2.7799275 -23.31316 2.0540864
1.0264524 -8.6208878 -1.375059
1.0452219 -8.7915974 1.0870746
1.0268397 -8.6498489 -1.0695254
0.94706631 -7.9897766 1.2743154
1.0267529 -8.6620407 -0.76313567
1.090552 -9.2140274 1.8035268
1.0187316 -8.6201 -0.45490417
0.65817499 -5.57757 1.2966179
1.0143869 -8.6091251 -0.15131237
0.92256445 -7.9250298 -2.1378453
1.0040954 -8.6385155 0.15180102
0.99231625 -8.5501957 -1.9872177
1.0789471 -9.3108311 0.49122533
0.99549174 -8.5906496 -1.6810273
1.0714883 -9.2606096 0.81560344
0.99272722 -8.5930223 -1.3700532
1.019305 -8.8366051 1.0921932
0.99482167 -8.6376047 -1.0675756
0.84718156 -7.367013 1.1745101
0.99150383 -8.6220264 -0.75930083
0.63198423 -5.5041404 1.076926
0.98681456 -8.607729 -0.45406681
0.55980557 -4.8905826 1.1364527
0.9841029 -8.6106262 -0.15127745
0.56552732 -4.9558783 1.3365415
0.89684623 -7.9454789 -2.1425042
0.97259045 -8.6300468 0.15159161
0.96224636 -8.551671 -1.9867678
1.0368512 -9.2291946 0.48672444
0.96111482 -8.5550518 -1.673395
1.0307177 -9.1890545 0.80897957
0.96492428 -8.616066 -1.3731819
0.99176174 -8.8697014 1.0958493
0.9624632 -8.6212969 -1.0651382
0.82583696 -7.4091892 1.1807675
0.96095961 -8.6214743 -0.7589522
0.6127665 -5.5063128 1.076926
0.95565999 -8.6011953 -0.45354342
0.54359078 -4.9002547 1.1382524
0.95557982 -8.6279221 -0.15152179
0.54504025 -4.9290204 1.3287771
0.86658585 -7.9255161 -2.1362925
0.94115877 -8.6214609 0.15138218
0.93048894 -8.5375414 -1.9827186
1.0041966 -9.2287874 0.4865151
0.93252021 -8.5700655 -1.6756847
0.87469441 -8.0516911 0.70857614
0.93122143 -8.5859957 -1.3678632
0.95737517 -8.8415318 1.0919493
0.93193626 -8.620656 -1.0646507
0.79721326 -7.3864956 1.1767002
0.92786586 -8.597044 -0.75651181
0.5895465 -5.4713316 1.0696753
0.92584276 -8.6064653 -0.45364809
0.52689844 -4.9059973 1.1391522
0.91906202 -8.5715561 -0.15047465
0.52536327 -4.9078422 1.3225653
0.83932173 -7.9323349 -2.1373277
0.91105729 -8.6246939 0.15138218
0.90129566 -8.5465517 -1.9840684
0.97093129 -9.2223043 0.48599172
0.89972246 -8.5459328 -1.6703421
0.81263572 -7.7317157 0.68016338
0.89877212 -8.5656195 -1.3641087
0.91761464 -8.7599249 1.0814687
0.89502537 -8.5587044 -1.0566072
0.75460529 -7.2281284 1.151045
0.89991951 -8.6200476 -0.758255
0.58245218 -5.5885639 1.0921907
0.8906284 -8.5599804 -0.4510313
0.50976992 -4.9078069 1.1391522
0.89037234 -8.5866461 -0.15068409
0.50942236 -4.9211755 1.3256712
0.81123513 -7.9313731 -2.1362925
0.87729049 -8.5920134 0.15075389
0.86651671 -8.5011787 -1.9728208
0.9381156 -9.203618 0.48484036
0.8698858 -8.5490217 -1.6703421
0.78584409 -7.7364869 0.68033773
0.86747181 -8.5549469 -1.3619186
0.87643439 -8.6584005 1.0685505
0.86973542 -8.6072016 -1.0622133
0.7536695 -7.4585733 1.1873378
0.86622596 -8.5874538 -0.75511736
0.55861276 -5.5475888 1.0837952
0.86094373 -8.5650263 -0.45113602
0.85949802 -8.5656748 -0.15026523
0.48770908 -4.8690157 1.3111774
0.7820245 -7.918776 -2.1321514
0.85311675 -8.6386557 0.15152179
0.84042472 -8.5253382 -1.9777697
0.90578735 -9.2048483 0.48473567
0.83754367 -8.5266066 -1.6653811
0.7621389 -7.772892 0.68330097
0.83948302 -8.5617085 -1.3625443
0.77269185 -7.8947058 0.97397989
0.83848554 -8.5823793 -1.0588009
0.72206914 -7.4041433 1.1782646
0.83894712 -8.618187 -0.75755769
0.54306686 -5.5787206 1.0895194
0.83099067 -8.5519295 -0.45029861
0.48519394 -5.002326 1.1602976
0.83036351 -8.5765848 -0.15040484
0.47386959 -4.9033775 1.3199772
0.75209159 -7.882863 -2.1217985
0.81461638 -8.5539913 0.14998598
0.80844647 -8.50494 -1.9723709
0.82780802 -8.7247887 0.45930037
0.80685276 -8.5039282 -1.6604201
0.7288456 -7.6960359 0.67632854
0.8092199 -8.5606527 -1.3619186
0.81281739 -8.6147575 1.0624571
0.80889529 -8.5892067 -1.0592884
0.69954687 -7.4420195 1.1838962
0.80662531 -8.5972586 -0.75546592
0.52395684 -5.5844917 1.0902827
0.80224979 -8.5667095 -0.45092663
0.79967844 -8.5714674 -0.15026523
0.45155561 -4.8492193 1.3049657
0.72107714 -7.8624821 -2.115587
0.78694367 -8.580678 0.15040484
0.77839923 -8.503829 -1.9714712
0.82533216 -9.0339289 0.47541988
0.77514392 -8.5009632 -1.6592751
0.70045263 -7.6966715 0.67615426
0.77319312 -8.512413 -1.353784
0.80429041 -8.8547764 1.0917057
0.77890724 -8.5919781 -1.0592884
0.67427695 -7.4522853 1.1851476
0.76980084 -8.5246181 -0.74884212
0.5082432 -5.6391683 1.1005863
0.77192032 -8.5815277 -0.45155466
0.4523485 -5.0386658 1.1679459
0.76760763 -8.5503063 -0.14984636
0.44428089 -4.958518 1.3339534
0.69243938 -7.851481 -2.1119635
0.75128061 -8.535697 0.14956713
0.74569106 -8.4891529 -1.9674219
0.81249267 -9.2496414 0.48661977
0.74512315 -8.4997063 -1.6585119
0.67323446 -7.6951003 0.67580563
0.74450517 -8.5268669 -1.3556613
0.80681187 -9.2591181 1.1411846
0.74311125 -8.5453339 -1.0531949
0.64945722 -7.4683695 1.1873378
0.74382925 -8.5709219 -0.75267702
0.48635402 -5.6154809 1.0956253
0.73783261 -8.5364151 -0.44904256
0.4362646 -5.0576873 1.1719949
0.73981881 -8.5768414 -0.15026523
0.42696959 -4.9600387 1.3339534
0.66454005 -7.8480744 -2.1104105
0.72330928 -8.5421267 0.14963694
0.71622288 -8.4760447 -1.9638227
0.78422785 -9.3001862 0.4891319
0.71594369 -8.5081234 -1.6596566
0.64536893 -7.6854911 0.67475975
0.71391052 -8.5017309 -1.351281
0.7169199 -8.5734673 -1.0563636
0.62420583 -7.4804339 1.1889021
0.70927817 -8.5178728 -0.7477963
0.4770157 -5.7285833 1.1173775
0.71018201 -8.5467758 -0.44946122
0.41514286 -5.0066705 1.1598476
0.70591879 -8.5315418 -0.1494275
0.41171962 -4.9865279 1.3406827
0.6377278 -7.8406076 -2.1078224
0.69639772 -8.5804758 0.15026523
0.68616045 -8.4726658 -1.9624729
0.68740922 -8.5065374 -1.6588935
0.61651623 -7.6458836 0.67109919
0.68359566 -8.496295 -1.3500296
0.68149632 -8.4887342 1.0456392
0.68223399 -8.5165558 -1.0490514
0.6009233 -7.5180106 1.1945337
0.68270868 -8.5600176 -0.75128251
0.44671458 -5.6010489 1.0921907
0.67590827 -8.4934559 -0.44653043
0.3951956 -4.9770069 1.1526492
0.67739606 -8.549901 -0.14970674
0.39492032 -4.9956379 1.3427533
0.6079393 -7.8294096 -2.1041989
0.66334671 -8.5429802 0.14956713
0.65627992 -8.4711237 -1.9615731
1.7748837 -22.961899 1.2069719
0.65366018 -8.4757233 -1.6524061
0.58955836 -7.6619973 0.67231935
0.65305525 -8.5066214 -1.351281
0.60627604 -7.8972812 0.97251743
0.65371513 -8.5347195 -1.0510013
0.57467663 -7.520062 1.1945337
0.64994639 -8.5246029 -0.74797058
0.43749979 -5.7514257 1.1211938
0.64900553 -8.5516386 -0.44946122
0.37930533 -5.0095129 1.1598476
0.64452845 -8.5123339 -0.14900865
0.38038957 -5.0355134 1.353106
0.5813207 -7.8411169 -2.1067872
0.63055551 -8.5254116 0.14921807
0.62393647 -8.4559803 -1.9575242
1.7063339 -23.125311 1.2152411
0.62421328 -8.4799118 -1.6527877
0.56339383 -7.6719575 0.67301667
0.62220383 -8.4930897 -1.3487781
0.56618541 -7.747004 0.95374954
0.62098479 -8.5172596 -1.0485638
0.43580815 -5.9774275 0.94924444
0.61903042 -8.5109215 -0.74657607
0.42594531 -5.8704038 1.1440908
0.61684346 -8.5219793 -0.44778651
0.36350119 -5.0341306 1.1652465
0.61337155 -8.4945879 -0.1486596
0.36433724 -5.0580063 1.3588001
0.55081505 -7.7987766 -2.0948815
0.59833574 -8.4716034 0.14824075
0.59575474 -8.4560595 -1.9570743
1.6580844 -23.593351 1.239525
0.59515893 -8.489872 -1.654314
0.59320921 -8.483283 -1.3469009
0.5315147 -7.620121 0.93790656
0.59149772 -8.5014486 -1.0463703
0.59055513 -8.53092 -0.74814492
0.40986535 -5.9207492 1.1536313
0.585554 -8.4801426 -0.44548368
0.35001886 -5.0819678 1.1760441
0.58453727 -8.508647 -0.14886904
0.34271705 -5.0014267 1.3432709
0.52598774 -7.81598 -2.0990226
0.57010055 -8.4935913 0.14858977
0.5590744 -8.3511457 -1.9323295
1.5118477 -22.642441 1.1892824
0.56464761 -8.4565401 -1.6474451
1.6624291 -24.96314 2.1888292
0.56542599 -8.5128956 -1.351281
0.49822015 -7.5209122 0.9254759
0.56299615 -8.5212889 -1.0485638
0.3974449 -6.0315728 0.95737904
0.55754691 -8.4612598 -0.74186963
0.39331594 -5.9848318 1.165843
0.55464172 -8.4622049 -0.444437
0.33037049 -5.0539894 1.1692957
0.5526222 -8.4767122 -0.14827564
0.49747249 -7.7984891 -2.0938461
0.53993988 -8.4875488 0.14845017
0.53399247 -8.4172268 -1.9471762
1.4320471 -22.635622 1.1886544
0.53487813 -8.4545393 -1.6466817
1.5762813 -24.984699 2.1902237
0.53248179 -8.4635582 -1.3431464
0.46947894 -7.4829807 0.92060113
0.53151226 -8.4954662 -1.0451516
0.37491217 -6.0092645 0.95362461
0.52875233 -8.4750853 -0.74291551
0.37022889 -5.9508982 1.1589739
0.52472949 -8.4581089 -0.44412294
0.31200466 -5.0434418 1.1665962
0.52462894 -8.5045366 -0.14872941
0.30850443 -5.0152669 1.3463767
0.4688524 -7.7770381 -2.0876343
0.50959039 -8.4774046 0.14824075
0.50402439 -8.4093132 -1.944927
