# .PCD v0.7 - Point Cloud Data file format
VERSION 0.7
FIELDS x y z
SIZE 4 4 4
TYPE F F F
COUNT 1 1 1
WIDTH 1532
HEIGHT 1
VIEWPOINT 0 0 0 1 0 0 0
POINTS 1532
DATA ascii
8.2184505 4.7029419 -2.1860743
9.6591473 5.5251374 -2.1630108
11.524933 6.5870419 -2.1024795
14.316148 8.175724 -2.02425
18.426044 10.518558 -1.8562429
26.139469 14.909691 -1.5770918
50.530659 28.798809 -1.0152065
7.0716848 4.0172777 -2.1792564
8.2314281 4.6723037 -2.1851747
9.6766701 5.4904156 -2.1626294
11.546137 6.5458007 -2.1021667
14.348051 8.1276608 -2.0247374
18.266735 10.343246 -1.8365457
27.001419 15.27666 -1.625869
50.543831 28.573055 -1.0134612
7.0822997 3.9906697 -2.1782212
8.2527819 4.6464081 -2.1865242
9.7043314 5.4614162 -2.1645374
11.584413 6.5141678 -2.1049824
14.376332 8.0775309 -2.0247374
18.365269 10.314538 -1.842821
26.918713 15.106093 -1.6177046
7.0911274 3.9630978 -2.1766684
45.366768 25.344244 0.90707141
8.2706518 4.6185241 -2.186974
9.7164783 5.4236827 -2.1630108
11.62261 6.482348 -2.1077983
14.413114 8.0321264 -2.0259562
18.540409 10.32793 -1.8567659
27.128347 15.099451 -1.627125
7.1015387 3.9364457 -2.175633
8.2952452 4.5943484 -2.1892235
9.7525291 5.39924 -2.1668272
11.636519 6.436965 -2.1062338
14.454964 7.9894447 -2.0279062
18.57634 10.263162 -1.8567659
27.096964 14.958325 -1.6221008
7.1121769 3.9131861 -2.1751153
8.3096371 4.5682669 -2.1892235
9.7763243 5.3723583 -2.1683536
11.656683 6.4003782 -2.1062338
14.490434 7.9497256 -2.0293684
18.592802 10.191921 -1.8550228
27.255919 14.934552 -1.6287998
7.1247754 3.8861692 -2.1745977
8.3169785 4.5345664 -2.186974
9.7924995 5.3346143 -2.1675904
11.683537 6.3594913 -2.1068597
14.521581 7.9009962 -2.029856
18.974857 10.315371 -1.8895364
27.426304 14.897478 -1.6357081
7.138298 3.8612733 -2.1745977
45.975746 24.858992 0.91230708
8.3301134 4.5022016 -2.1860743
45.986389 24.844006 2.7392642
9.8041534 5.2966638 -2.1660638
11.721306 6.3271227 -2.1096754
14.543454 7.843946 -2.0288811
19.166828 10.333236 -1.9050503
27.305822 14.70882 -1.6254503
46.111431 24.818073 -0.91405237
7.1483278 3.8345079 -2.1735625
8.3406277 4.4703331 -2.1847248
9.8191233 5.2605519 -2.1653006
11.743322 6.2861657 -2.1096754
14.58825 7.8024979 -2.0313184
19.208054 10.26908 -1.905573
26.215431 14.003627 -1.5576229
7.146318 3.8013682 -2.1689036
45.413673 24.146873 0.89778668
8.359621 4.4430223 -2.1856244
9.8443575 5.2299361 -2.1668272
11.773915 6.2497687 -2.1112397
14.620662 7.7543144 -2.0320497
19.242025 10.201032 -1.9053988
27.854374 14.754357 -1.6519322
7.1492925 3.7709901 -2.1657977
45.656219 24.081985 0.90099794
8.3656902 4.4107299 -2.1833749
9.8729773 5.2010283 -2.169117
11.796327 6.2116084 -2.1115527
14.662103 7.7141089 -2.0342433
19.303967 10.147711 -1.9080135
27.83596 14.626611 -1.6479547
7.1737404 3.7535284 -2.1694212
8.3654928 4.3733773 -2.1793258
9.8901711 5.1682572 -2.169117
11.823192 6.1731329 -2.1124914
14.681897 7.6592112 -2.0332682
19.362244 10.092233 -1.9102795
19.292652 10.05169 -1.1400865
19.27536 10.034116 -0.37931061
7.178875 3.7227657 -2.1668332
8.3755178 4.3414569 -2.1779761
9.9107895 5.1328783 -2.1694984
11.849245 6.1315756 -2.113117
14.719128 7.6133842 -2.0347307
19.250441 9.9486656 -1.8958117
19.295649 9.9634953 -1.1380978
19.281834 9.9521008 -0.37875214
7.1952615 3.6994522 -2.1678684
8.3948421 4.3125091 -2.1788759
9.9269018 5.0973525 -2.169117
11.889911 6.1000924 -2.1165586
14.750464 7.5611992 -2.0352182
19.285055 9.881403 -1.8958117
19.308971 9.8851624 -1.1368417
19.282635 9.8674212 -0.37808895
7.20469 3.6725569 -2.1668332
8.4073591 4.2837634 -2.178426
9.9568796 5.0689068 -2.1717882
11.895988 6.0534658 -2.1140556
14.780767 7.5149379 -2.0359495
19.296335 9.8022995 -1.8935457
19.332747 9.8165512 -1.1363184
19.291994 9.7873898 -0.37760028
7.2047601 3.6425452 -2.1632097
8.4170418 4.2517562 -2.1770763
9.9666224 5.0323229 -2.1702616
11.925863 6.016355 -2.1156199
14.828184 7.4740167 -2.0388744
19.30018 9.7196522 -1.8905823
19.329432 9.7301435 -1.1341202
19.3046 9.7092104 -0.37718141
7.2232418 3.618711 -2.1647625
8.4178934 4.2153668 -2.1734772
9.9902668 4.9983974 -2.1714065
11.953137 5.9752512 -2.1165586
14.866608 7.4284315 -2.0405805
19.294777 9.6326389 -1.8867475
19.32922 9.641407 -1.1320268
19.313324 9.6292686 -0.37669274
7.2341008 3.5926142 -2.1642449
8.4245577 4.1801562 -2.1712275
10.01469 4.9669814 -2.1729329
11.981001 5.9370017 -2.11781
14.89374 7.3738823 -2.0405805
19.288996 9.5457916 -1.8829125
19.31979 9.5526257 -1.1295147
19.314421 9.5415936 -0.37602955
7.2327318 3.5605166 -2.1601038
8.4356022 4.1490016 -2.1703279
10.019635 4.9259272 -2.1702616
12.010518 5.8994951 -2.1193743
14.930075 7.327105 -2.042043
19.290003 9.4626026 -1.879775
19.349424 9.4833841 -1.1293054
19.308098 9.4547625 -0.37526163
7.2399073 3.5327039 -2.158551
8.4517841 4.1203861 -2.1707778
10.040297 4.8926439 -2.1710248
12.022158 5.8532138 -2.11781
14.962703 7.2784142 -2.0430176
19.279915 9.3742962 -1.8755915
19.360853 9.4053068 -1.1280493
19.317596 9.3759604 -0.37480789
7.2434998 3.5032029 -2.1559627
20.558348 9.938302 0.39857808
8.4538317 4.0849257 -2.1676283
10.073227 4.8652492 -2.1744595
12.053187 5.8163667 -2.1196871
14.995171 7.2295933 -2.0439928
19.445751 9.3627987 -1.1310848
19.460135 9.3613462 -0.37693709
7.2765884 3.4879193 -2.1621742
20.582094 9.8612881 0.39836863
8.4504652 4.0469718 -2.1631293
10.093689 4.8317552 -2.1752226
12.071637 5.7734022 -2.1193743
15.017271 7.1789665 -2.0437491
19.290951 9.2137175 -1.8703622
19.683805 9.3929148 -1.1430173
19.722094 9.4069595 -0.38140488
7.2811356 3.4604547 -2.1601038
20.59481 9.7835474 0.39798468
8.4673605 4.0205965 -2.1640291
10.113202 4.799942 -2.1759858
12.099641 5.7375674 -2.1209388
15.035612 7.1265802 -2.0430176
19.090914 9.0405416 -1.8480502
19.891773 9.4113035 -1.1532753
19.926725 9.4235725 -0.38475576
7.2960668 3.4379354 -2.161139
8.4700661 3.9875209 -2.1613297
10.126344 4.7629375 -2.1752226
12.127539 5.7016168 -2.122503
15.078367 7.0824885 -2.0454552
19.079063 8.953536 -1.8438668
20.101727 9.4248962 -1.1635331
20.122461 9.430335 -0.38789719
7.3016148 3.4079041 -2.1590683
8.4899225 3.9589179 -2.1626794
10.149071 4.7282801 -2.1763675
12.142981 5.6546297 -2.1215644
15.115023 7.0322037 -2.0469177
19.108141 8.8818636 -1.8435181
20.320904 9.4369574 -1.1742096
20.338272 9.4407082 -0.39138767
7.3052902 3.3770649 -2.1564806
8.493762 3.9228699 -2.1599801
10.174427 4.6969357 -2.1782756
12.161833 5.6092558 -2.1212516
15.13948 6.9793959 -2.0469177
19.037687 8.7684383 -1.8337568
29.676001 13.65573 -1.712014
7.3059111 3.3479939 -2.1533747
8.4890041 3.8865712 -2.1554811
10.186376 4.6615386 -2.1775124
12.194737 5.5754676 -2.1237545
15.173375 6.9340987 -2.0483801
19.048532 8.6969872 -1.8320136
29.361334 13.393119 -1.6912889
7.3222494 3.3261423 -2.1549275
8.5036221 3.8592026 -2.155931
10.205355 4.6293526 -2.1782756
12.218559 5.5374408 -2.1246932
15.196284 6.8837466 -2.0483801
19.166214 8.6740198 -1.8405551
29.431061 13.307205 -1.6927544
7.3209062 3.2962954 -2.151304
8.5181494 3.8317835 -2.1563809
10.213485 4.5922718 -2.1767492
12.240458 5.4985132 -2.1253188
15.233517 6.8398175 -2.0503302
19.098524 8.5671988 -1.8313165
29.642708 13.284673 -1.7023841
7.3176303 3.2610824 -2.1466453
8.5292397 3.7974603 -2.1554811
10.231044 4.553019 -2.1767492
12.266896 5.4538779 -2.1262577
15.264475 6.7802339 -2.0508175
19.16588 8.5091591 -1.8346283
29.923538 13.272799 -1.7155728
7.3360381 3.2386379 -2.1487157
8.5263929 3.7605927 -2.1514318
10.250468 4.5188589 -2.1775124
12.291278 5.4134216 -2.1271961
15.295318 6.7301025 -2.0517924
19.273882 8.4767094 -1.8421237
30.039173 13.198788 -1.7195504
7.3614597 3.2192011 -2.1528571
8.5287552 3.7261238 -2.1487324
10.276977 4.487762 -2.1798022
12.302859 5.367322 -2.1259446
15.333275 6.6830201 -2.0537424
19.288744 8.4030085 -1.8407292
30.085062 13.093858 -1.7195504
7.3549228 3.1858115 -2.1476805
8.5428543 3.6985934 -2.1491826
10.285368 4.448751 -2.1782756
12.333284 5.3319783 -2.1281347
15.34806 6.6289907 -2.0527673
19.416744 8.3782473 -1.850142
30.513451 13.160114 -1.7415314
23.72542 10.222692 -0.45093527
7.3672218 3.162164 -2.1481981
8.5610847 3.6710565 -2.150532
10.253148 4.3945074 -2.1683536
12.359086 5.2920012 -2.1293862
15.391186 6.5839596 -2.0554485
19.371143 8.2824755 -1.8431696
30.360836 12.968797 -1.7302269
7.3657708 3.1311359 -2.1445746
8.5678301 3.6403623 -2.1491826
10.241319 4.3471813 -2.1626294
12.378382 5.2517681 -2.129699
15.412935 6.5328803 -2.0554485
19.398104 8.214035 -1.8429954
29.079378 12.307541 -1.6548631
7.3743334 3.1059446 -2.144057
8.5768929 3.6089184 -2.1482825
10.237579 4.3055863 -2.158813
12.402103 5.2108197 -2.1306376
15.46127 6.489799 -2.0588608
19.428492 8.147047 -1.8431696
30.054214 12.596618 -1.707827
7.3803186 3.076664 -2.1425042
8.5750484 3.5729589 -2.1446834
10.236981 4.2612424 -2.1553786
12.422941 5.16609 -2.1309505
15.498496 6.4418807 -2.0608108
19.497293 8.095994 -1.8470045
30.052221 12.466475 -1.7051057
7.3856554 3.0486732 -2.1409512
8.5844831 3.5400224 -2.1437836
10.244532 4.2224922 -2.153852
12.444554 5.1241951 -2.1315763
15.523835 6.3857903 -2.0610545
19.4333 7.9899983 -1.8382889
30.102942 12.364538 -1.7055243
7.399828 3.0243368 -2.1419864
8.6015873 3.5137441 -2.1451333
10.241031 4.1792903 -2.1500359
12.477941 5.0896101 -2.1343923
15.555958 6.3387752 -2.0625172
19.494289 7.9356308 -1.8414265
30.047577 12.225512 -1.7000813
7.391911 2.9925306 -2.1368101
8.6029587 3.4793193 -2.1424339
10.263935 4.1489835 -2.1519439
12.502954 5.0489907 -2.1356435
15.592716 6.2903724 -2.0644667
19.497847 7.8578577 -1.8391604
30.523579 12.295164 -1.7245744
7.4064155 2.9668558 -2.1378453
8.6168604 3.44999 -2.1428835
10.275427 4.10988 -2.1511807
12.523212 5.0038543 -2.1359563
15.633014 6.2432714 -2.0669043
19.543665 7.7971277 -1.8409036
30.149134 12.016099 -1.7009187
7.409544 2.9381342 -2.1357749
8.6022711 3.4076214 -2.1361351
10.284235 4.0718164 -2.1500359
12.553458 4.9652042 -2.1381464
15.665025 6.1895752 -2.0681231
19.583729 7.7339959 -1.8421237
30.211338 11.91884 -1.7020702
7.4215541 2.912956 -2.1362925
8.6298523 3.3854795 -2.1401844
10.285591 4.0308757 -2.1473646
12.569855 4.9235449 -2.1381464
15.687312 6.1383123 -2.0683665
19.671846 7.6895208 -1.8478761
30.470215 11.904346 -1.7144215
21.449621 8.3671665 6.1692109
7.4221678 2.884835 -2.1337044
8.6452513 3.3567431 -2.1410842
10.286087 3.9917805 -2.1446934
12.590652 4.881063 -2.1387722
15.717896 6.0871115 -2.0695853
19.750597 7.6409297 -1.8527567
31.081606 12.018347 -1.7464511
21.431835 8.2741661 6.1557522
7.4290862 2.8562238 -2.1326692
8.6550961 3.3258481 -2.1406343
10.302483 3.9547539 -2.1450748
21.287905 8.1674013 1.9948206
12.604766 4.8334708 -2.1381464
21.305885 8.1700344 2.8017764
15.752024 6.0371771 -2.0712914
19.702721 7.5434494 -1.8457843
21.258957 8.1307564 -1.1928413
21.252684 8.1241179 -0.39714694
21.484051 8.2082634 6.1624818
7.4335933 2.8282146 -2.1311162
21.150946 8.0429478 0.39498287
8.6471901 3.286485 -2.1356852
21.055637 8.0024881 1.18049
10.316223 3.9187696 -2.1450748
21.169132 8.0371799 1.98105
12.623411 4.7901406 -2.1384594
21.190908 8.0369864 2.7827649
15.779613 5.9815173 -2.0720227
21.210501 8.0401831 3.5926745
19.730797 7.4753284 -1.8459586
21.215319 8.0335417 4.409596
21.163919 8.0098543 -1.1859329
21.214371 8.0247049 5.2364106
21.15373 8.0017672 -0.39477342
21.214411 8.0204992 6.0770717
7.4434209 2.8022473 -2.1311162
21.177504 7.9727588 0.39498287
8.6562166 3.2571077 -2.1352355
21.191866 7.9697213 1.1865609
10.326165 3.8813512 -2.1443117
21.193331 7.9618297 1.9807014
12.665113 4.7579813 -2.1428397
21.172846 7.9499178 2.7769151
15.812373 5.9340353 -2.0737288
21.186655 7.9466662 3.583914
19.868706 7.4483767 -1.8564173
21.19405 7.9452209 4.3996739
21.272657 7.9704556 -1.1905384
21.229912 7.9502144 5.2337112
21.269554 7.9608274 -0.39641395
21.231424 7.9423318 6.0739655
7.4581027 2.7795742 -2.1326692
21.293278 7.9315882 0.3966234
8.6547489 3.2221143 -2.132086
21.25374 7.9126477 1.1885496
10.32058 3.8402429 -2.1404953
21.255098 7.904696 1.9840133
12.676088 4.7116809 -2.141901
21.245125 7.8925581 2.7827649
15.836713 5.8801808 -2.0742164
21.257334 7.8928604 3.5914228
19.865274 7.3720541 -1.8538026
21.254786 7.8834853 4.4065433
21.373388 7.9232206 -1.1946206
21.272152 7.8814812 5.2373104
21.353664 7.9074326 6.1014004
7.4623213 2.7515199 -2.1311162
8.674531 3.1967635 -2.1343358
10.330235 3.8028395 -2.1397321
12.687937 4.668252 -2.1412752
15.863577 5.8303742 -2.0751913
19.969442 7.3315015 -1.8611236
31.344622 11.501532 -1.7498006
7.4605169 2.7227829 -2.1280103
8.6819725 3.1651309 -2.1334357
10.337255 3.7665429 -2.1385872
12.704154 4.6239371 -2.1412752
15.895026 5.7790384 -2.0766537
20.011768 7.2678766 -1.8626926
31.752546 11.525621 -1.7703161
7.4668126 2.6941073 -2.1269751
8.6856356 3.1321635 -2.1316364
10.356535 3.7306232 -2.1397321
12.7173 4.5760021 -2.1406496
15.930049 5.7288895 -2.0786037
20.00139 7.1851735 -1.8593806
31.493792 11.301239 -1.7535686
7.4779902 2.6686776 -2.1274927
8.6878815 3.0970299 -2.1293867
10.365794 3.6931341 -2.1389689
12.740641 4.5342288 -2.141901
15.950937 5.6704679 -2.0786037
20.097057 7.1364903 -1.8658301
31.905735 11.323495 -1.7742937
7.4877219 2.6412497 -2.1274927
8.698637 3.0666907 -2.1293867
10.366299 3.6505489 -2.1362975
12.764627 4.4901261 -2.1431525
15.97438 5.6160665 -2.0790913
20.003418 7.0246992 -1.8548485
31.762325 11.141698 -1.7640359
7.4905109 2.615804 -2.1259398
8.7087603 3.0378258 -2.1293867
10.3703 3.6153812 -2.1347711
12.787997 4.4532533 -2.1447167
16.011665 5.5695796 -2.0815284
20.142065 7.0023894 -1.8656557
31.755671 11.02742 -1.7617332
7.4886389 2.5858598 -2.122834
8.7082577 3.003593 -2.1266873
10.377287 3.5772424 -2.1336262
12.809068 4.4105139 -2.1456554
16.049778 5.5201221 -2.0839658
20.190882 6.9404526 -1.8679218
31.831745 10.9295 -1.7638267
7.5067625 2.5628226 -2.1254222
8.7186871 2.9731832 -2.1266873
10.406437 3.5466948 -2.1370609
12.807552 4.3600545 -2.1428397
16.083984 5.4691725 -2.0859158
20.305529 6.9007168 -1.8762889
32.319824 10.971106 -1.7887385
7.5065107 2.5335126 -2.122834
8.7087002 2.9358809 -2.1217382
10.407593 3.5065842 -2.1347711
12.787124 4.3033462 -2.1368952
16.095451 5.4104686 -2.0849409
20.397486 6.8526316 -1.8825639
32.611649 10.943372 -1.8027647
7.517139 2.507911 -2.1233516
8.7151985 2.9042296 -2.1208386
10.410453 3.4671385 -2.132863
12.773952 4.2493281 -2.1322021
16.133078 5.3605075 -2.0873783
20.432631 6.785152 -1.8836099
32.638279 10.825687 -1.8021365
7.5276823 2.4822588 -2.1238692
8.7271328 2.8744013 -2.1212883
10.411304 3.4270926 -2.1305733
12.781199 4.2022481 -2.1309505
16.16301 5.3078718 -2.0888407
20.459976 6.715034 -1.8839585
32.801132 10.752747 -1.8090448
7.5216069 2.4511802 -2.1197281
8.7408199 2.8451247 -2.1221881
10.415736 3.3883026 -2.1290469
12.761975 4.1466165 -2.1253188
16.185213 5.2526493 -2.0893283
20.481396 6.6429543 -1.8837842
32.834663 10.636958 -1.8088354
7.5301185 2.4249082 -2.1197281
8.7321463 2.8086309 -2.1176891
10.42937 3.3525219 -2.1294286
12.768848 4.0996308 -2.1240675
16.226133 5.2033978 -2.0922532
20.523432 6.5775056 -1.8855273
32.825935 10.507672 -1.8063233
7.5422187 2.3997777 -2.1207633
8.7307549 2.7745895 -2.1149898
10.44101 3.3160937 -2.1294286
12.771784 4.0514474 -2.1221902
16.25555 5.1503267 -2.0937154
20.751408 6.570776 -1.9043529
32.938587 10.417124 -1.8105103
24.924156 7.8729053 -0.45624083
7.5505495 2.3734374 -2.1207633
8.7348089 2.7423475 -2.1136403
10.445026 3.2772784 -2.127902
12.782078 4.0056615 -2.1215644
16.262064 5.0899911 -2.0922532
20.205658 6.320456 -1.8522338
33.115822 10.346147 -1.8182559
7.5514097 2.3447733 -2.1186929
8.7461882 2.7124195 -2.11409
10.445152 3.2373085 -2.1256123
12.794094 3.9604383 -2.1212516
16.310078 5.042572 -2.0961528
20.772026 6.4181075 -1.902087
25.529377 7.8782525 -1.4001963
7.5503116 2.3155725 -2.1161046
8.7574682 2.6824417 -2.1145399
10.450756 3.1991117 -2.1244676
12.775728 3.9059329 -2.1159329
16.331375 4.9867706 -2.0966403
20.69902 6.3164783 -1.8933713
33.072617 10.079767 -1.8119756
7.5601978 2.2897608 -2.1166222
8.7518559 2.6473441 -2.1109407
10.46186 3.1626096 -2.1244676
12.789285 3.8613162 -2.1159329
16.367691 4.9354601 -2.0990777
20.667528 6.2280955 -1.8884906
33.01963 9.9377747 -1.8071609
7.5551896 2.2594805 -2.1129987
8.7568502 2.617193 -2.1100409
10.465311 3.1238225 -2.122941
12.796338 3.8171926 -2.1149943
16.391577 4.8834262 -2.1000526
20.845736 6.2025013 -1.9027841
33.174923 9.8646622 -1.8138597
7.5644917 2.2349663 -2.1135163
8.7584581 2.5844016 -2.1082413
10.473731 3.0885429 -2.1225593
12.796322 3.7685916 -2.1128042
16.412329 4.8273025 -2.1005402
20.816488 6.1187363 -1.898252
33.373962 9.7971878 -1.8228616
7.5574107 2.2042184 -2.1093752
8.7749081 2.5559945 -2.1100409
10.473136 3.0486791 -2.1202698
12.80181 3.7216985 -2.1115527
16.448147 4.7755146 -2.1029775
20.822414 6.0415888 -1.8968576
33.296692 9.6483803 -1.8167905
7.5706286 2.179426 -2.1109281
8.7837772 2.5253465 -2.1100409
10.481827 3.0115573 -2.1198881
12.807129 3.6748064 -2.1103013
16.462807 4.7175274 -2.1027339
20.98703 6.0100102 -1.9099309
33.318649 9.5288076 -1.8161626
7.56704 2.1498201 -2.1078224
8.7869158 2.493072 -2.1086912
10.496053 2.9760239 -2.1206512
12.804674 3.6257699 -2.1077983
16.528837 4.6740808 -2.1090713
20.954199 5.9215388 -1.9050503
33.378616 9.4200468 -1.817628
18.239872 5.1373024 5.0775118
7.5856595 2.1265199 -2.1109281
8.7749224 2.4566078 -2.1037421
10.493143 2.9356625 -2.11798
12.824862 3.58318 -2.1090496
16.556526 4.6195521 -2.1105335
21.08605 5.8794003 -1.9151603
33.176559 9.2381039 -1.8048579
7.5930357 2.1000297 -2.1109281
8.7890787 2.4275208 -2.105092
10.491972 2.8958795 -2.1156902
12.829674 3.536294 -2.1077983
16.56872 4.5606809 -2.1100459
21.079552 5.798357 -1.9127198
33.123863 9.0989695 -1.8002524
7.5965934 2.0724933 -2.1098928
8.7918577 2.3952916 -2.1037421
10.483074 2.8540831 -2.1118741
12.841939 3.4914916 -2.1077983
16.607531 4.5090547 -2.1129708
21.376556 5.7998714 -1.9378208
33.413746 9.0532722 -1.8142784
7.5683365 2.0364282 -2.1000578
22.208595 5.9757133 0.40144026
8.7978706 2.3656149 -2.1032922
10.491077 2.8169611 -2.1114926
12.830553 3.4427402 -2.1040437
16.633898 4.4570355 -2.1144333
21.387047 5.7226477 -1.9369491
33.397274 8.9300261 -1.8117663
7.5993214 2.0177622 -2.1067872
21.966455 5.8284135 0.3966932
8.8079596 2.3353875 -2.1037421
10.494667 2.7806497 -2.1103475
12.838673 3.3969181 -2.1034181
16.664705 4.4030128 -2.1163833
21.463699 5.6669464 -1.9421785
33.331676 8.7879581 -1.8065327
17.605816 4.6352253 4.8782215
7.5951042 1.9882894 -2.1036813
8.7968025 2.3012362 -2.0992434
10.506207 2.7444975 -2.1107292
12.842221 3.3523316 -2.1021667
16.690741 4.3507261 -2.1178455
21.811136 5.6773043 -1.9718114
33.870934 8.8101006 -1.834166
17.631239 4.5761724 4.8808098
7.613565 1.9633348 -2.1067872
8.8017998 2.2664678 -2.0983434
10.504788 2.7030339 -2.1084394
12.862652 3.3049598 -2.1034181
16.688093 4.2816772 -2.1154084
21.963034 5.6309757 -1.9836646
22.202492 5.6841226 -1.2011102
22.150192 5.6624846 -0.39906672
7.6053939 1.9329376 -2.1026461
8.8096552 2.2357361 -2.0983434
10.500838 2.6629729 -2.1057682
12.858788 3.25617 -2.100915
16.714487 4.2263145 -2.1168706
22.20277 5.6099114 -2.0035362
33.988831 8.5752583 -1.8370969
7.5989771 1.9030908 -2.0990226
22.362856 5.5964265 0.4023827
8.8155155 2.2044959 -2.0978935
10.496738 2.6229675 -2.1030967
12.870077 3.211261 -2.100915
16.621269 4.1410728 -2.1032214
22.276346 5.545867 -2.0084169
34.068947 8.4690981 -1.8398185
7.6074486 1.8770219 -2.0995402
8.8095341 2.1719828 -2.0947442
10.513454 2.5881956 -2.1046233
12.86531 3.1647863 -2.098412
16.627199 4.0840335 -2.1022463
22.498751 5.5178995 -2.0267196
34.430504 8.4378338 -1.8578219
7.6136317 1.8517823 -2.0995402
8.8151684 2.1407561 -2.0942943
10.506718 2.5496109 -2.1015704
12.880119 3.1207855 -2.0990379
16.61434 4.0194368 -2.098834
22.524673 5.4451265 -2.0274169
7.616292 1.8242924 -2.098505
22.211206 5.316052 0.39864787
8.8150043 2.1081653 -2.0924947
10.511734 2.5120044 -2.1008072
12.879407 3.0730588 -2.0971608
16.601234 3.9549725 -2.0954216
22.560986 5.370625 -2.0289855
35.331886 8.3976984 -1.9032495
7.6132116 1.7954798 -2.0959167
8.8204136 2.0769334 -2.0920448
10.497504 2.4699025 -2.0962276
12.893899 3.0289886 -2.0977864
16.611074 3.8960965 -2.0949342
22.870567 5.3600383 -2.0551324
35.399879 8.2834244 -1.9053431
7.6062603 1.7658336 -2.0922933
8.8238134 2.0452538 -2.091145
10.511802 2.4345708 -2.0973725
12.881298 2.9786243 -2.094032
16.620707 3.8371921 -2.0944467
22.896904 5.2819686 -2.0558295
35.078247 8.0791073 -1.886502
7.6180277 1.7405646 -2.0938461
8.8270988 2.0135713 -2.0902452
10.520235 2.3978653 -2.0973725
12.883913 2.9318852 -2.0927804
16.622385 3.7765164 -2.0929844
22.909372 5.2006817 -2.0553067
35.086754 7.9522047 -1.8854553
7.6184025 1.7126925 -2.0922933
8.8147144 1.980015 -2.085746
10.51513 2.3581228 -2.0947013
12.878145 2.8856857 -2.0902774
16.615444 3.7170432 -2.0905468
22.769888 5.0854988 -2.0411875
34.750359 7.7549052 -1.8659865
7.6259265 1.687835 -2.0928109
8.8348904 1.952183 -2.0888956
10.520976 2.3228145 -2.0943196
12.878493 2.8385916 -2.0887132
16.601175 3.6530449 -2.0871346
22.542303 4.9521255 -2.0192242
7.6207347 1.6574116 -2.089705
8.8359404 1.9200881 -2.0875459
10.5275 2.2838237 -2.0939381
12.88302 2.790113 -2.0877745
16.598303 3.5917184 -2.0851846
22.633459 4.889389 -2.0258482
35.132957 7.5767751 -1.8835713
7.6208076 1.6295863 -2.0881522
8.8467283 1.8885052 -2.0884457
10.520048 2.243783 -2.0908849
12.884951 2.7434893 -2.0865231
16.611357 3.5308542 -2.0851846
22.701056 4.8211308 -2.0303802
35.012657 7.4230146 -1.8757207
7.6169968 1.6009859 -2.0855639
8.8376856 1.8559517 -2.0848465
10.529738 2.2074473 -2.0912669
12.874644 2.6966929 -2.0833945
16.615204 3.4741199 -2.0842097
22.768457 4.7524381 -2.0349123
36.116348 7.5319352 -1.9334997
7.6260471 1.576502 -2.0865991
8.8288431 1.8219379 -2.0812473
10.531232 2.1713302 -2.0901217
12.87624 2.6501391 -2.0821428
16.600004 3.4105194 -2.0807974
22.912907 4.7033443 -2.0464168
34.97628 7.1668959 -1.8711153
7.6371837 1.5510277 -2.0881522
8.8351488 1.7911103 -2.0812473
10.53105 2.1329994 -2.0885954
12.879606 2.6039989 -2.0812044
16.600134 3.3501928 -2.0793347
23.038555 4.6453815 -2.0561783
7.6368675 1.5232238 -2.0865991
8.8451691 1.7610219 -2.0821469
10.526879 2.0939255 -2.0863059
12.890553 2.5594182 -2.0815172
16.596149 3.2891436 -2.0773852
23.152351 4.5842996 -2.0648937
7.6288667 1.4939595 -2.0829759
8.8531752 1.7305071 -2.0825968
10.534123 2.0571692 -2.0863059
12.887774 2.5121353 -2.0796399
16.599735 3.229671 -2.0764101
23.213196 4.5121922 -2.068903
37.02972 7.1844425 -1.9768341
7.6378288 1.4680514 -2.0840108
8.8419371 1.6962909 -2.0785477
10.537383 2.0196486 -2.0855424
12.869302 2.4619396 -2.0752599
16.59141 3.1679802 -2.0739727
23.269901 4.4389806 -2.0725634
37.133053 7.0700731 -1.9810208
7.6410084 1.4410216 -2.0834932
8.8360233 1.664793 -2.0758483
10.544369 1.9828513 -2.0855424
12.885161 2.4207051 -2.0765114
16.594017 3.1114833 -2.0729976
23.289173 4.3584533 -2.072912
37.058132 6.9285512 -1.9757873
7.6438456 1.4153249 -2.0829759
8.8456135 1.6346496 -2.0767481
10.535441 1.9450246 -2.0824895
12.885762 2.3742836 -2.0752599
16.593063 3.0513899 -2.0715353
23.307421 4.2819133 -2.0732608
35.636211 6.5340514 -1.8987488
7.6430378 1.3875972 -2.081423
8.8493471 1.603417 -2.0762982
10.532507 1.9064859 -2.0805814
12.89397 2.3292923 -2.0752599
16.580172 2.9892199 -2.0686104
23.377127 4.210434 -2.0781415
36.067677 6.4831033 -1.9205205
14.788257 2.6554997 3.4687452
7.6345205 1.358542 -2.0777996
8.852972 1.5721742 -2.0758483
10.5333 1.8686775 -2.0794365
12.894242 2.2828887 -2.0740085
16.578775 2.9292569 -2.067148
23.434847 4.1364193 -2.0819762
14.947334 2.6356151 2.9502888
36.164833 6.370338 -1.9244981
14.816628 2.6072433 3.4732442
7.641119 1.3322176 -2.0783172
8.8468876 1.5392555 -2.073149
10.535888 1.8312328 -2.0786731
12.878778 2.2338111 -2.0702538
16.584988 2.870687 -2.0666604
23.417732 4.0491538 -2.0791874
14.91388 2.5760818 2.9418933
36.198658 6.2460885 -1.925126
14.852525 2.560138 3.4795427
7.6552444 1.3071607 -2.0809052
8.8464422 1.5073845 -2.071799
10.546088 1.7951008 -2.0794365
12.878706 2.1875217 -2.0690024
16.581207 2.8104503 -2.0649543
23.506371 3.9800298 -2.0858111
14.907295 2.5213835 2.9388402
36.196609 6.1156907 -1.92387
14.857528 2.507632 3.4786432
7.6597605 1.2804326 -2.0809052
8.8535738 1.4768138 -2.0722492
10.544543 1.7569885 -2.0779099
12.884315 2.1422257 -2.0686896
16.567415 2.7486668 -2.0620294
23.355013 3.8705838 -2.0711691
14.912133 2.4686868 2.938077
36.036449 5.9593501 -1.91424
14.831583 2.4500332 3.4705448
7.6622767 1.2533734 -2.0803876
8.8490572 1.4443365 -2.0699997
10.531236 1.7170085 -2.0740941
12.880015 2.0953441 -2.0668125
16.565155 2.6889062 -2.0605671
23.36051 3.7877762 -2.0704718
14.856705 2.4062634 2.9254837
35.997887 5.8239441 -1.9111
14.88814 2.4060149 3.4817924
7.6608829 1.2257017 -2.0788348
8.857893 1.4140507 -2.0708995
10.52941 1.6789978 -2.0725675
12.873595 2.0481954 -2.0646224
16.558756 2.6285803 -2.0586171
23.326363 3.698715 -2.0662882
14.913492 2.3620634 2.9350243
36.20343 5.7275977 -1.9209392
14.92917 2.3592124 3.4894409
7.6651144 1.198958 -2.0788348
8.8531485 1.3816175 -2.0686498
31.397223 4.8942356 1.6653303
10.542966 1.6434498 -2.0740941
12.878716 2.0029387 -2.0643096
16.552137 2.5683241 -2.0566673
23.31551 3.6136005 -2.0641966
14.952687 2.3147998 2.9411299
31.37006 4.8395281 -0.55404413
7.682621 1.1742356 -2.0824583
31.516001 4.8113594 0.55648744
8.8463583 1.3489451 -2.0659504
31.514814 4.7999382 1.6706685
10.546698 1.6063397 -2.0737123
12.885629 1.9579741 -2.0643096
16.533525 2.506361 -2.0532548
23.300402 3.5280213 -2.0617564
31.336996 4.733676 -1.6609341
31.57461 4.7583122 -0.55736005
15.265462 2.2977822 4.136446
7.6924038 1.1482683 -2.0840108
31.5326 4.7013254 0.55648744
8.8471584 1.3174809 -2.0650506
31.513597 4.6872635 1.6697265
10.526996 1.5657623 -2.0687513
12.884569 1.9118198 -2.0630579
16.518608 2.4451482 -2.0503302
23.28104 3.4419975 -2.0589671
31.321716 4.6196041 -1.6592593
31.56531 4.6442752 -0.55690628
15.024918 2.2079711 4.0691533
7.6676912 1.1172297 -2.0762465
31.540905 4.5900822 0.55634785
8.853631 1.2868726 -2.0655005
31.506048 4.5737805 1.6684704
10.528511 1.5284399 -2.0679879
12.885297 1.8659858 -2.0621192
16.527042 2.3874762 -2.0503302
23.269247 3.3573015 -2.0568755
31.345554 4.5113878 -1.659678
31.561535 4.5312285 -0.55655724
14.975164 2.1472881 4.0536242
7.6715446 1.0904557 -2.0762465
31.560692 4.480525 0.55641764
8.8619299 1.2565049 -2.0664005
10.535727 1.4919516 -2.0683696
12.881954 1.8196118 -2.060555
16.523479 2.3281131 -2.0488675
23.217691 3.2671657 -2.0512974
14.730809 2.0702801 2.8915195
31.341331 4.3991737 -1.6586313
14.740345 2.0663738 3.4363523
15.001336 2.1002915 4.0588007
7.6676493 1.0626111 -2.0741758
34.45541 4.7749577 0.60716921
8.8525352 1.2252423 -2.0632513
10.535036 1.4543628 -2.0672247
12.864434 1.7736486 -2.0568006
16.523243 2.2722201 -2.0478926
23.221058 3.1850228 -2.0506003
14.737594 2.0214226 2.8915195
31.391365 4.3000884 -1.6605153
14.750978 2.018013 3.437252
7.6711311 1.0371799 -2.0741758
34.590771 4.6707025 0.60926348
8.8509636 1.19355 -2.0619013
34.548271 4.6527023 1.8269438
10.532018 1.4183732 -2.0656981
12.86859 1.7284662 -2.0564878
16.5114 2.2118895 -2.0454552
23.239391 3.1090517 -2.0512974
14.746507 1.9702296 2.8919013
31.928833 4.2602139 -1.6881487
14.756001 1.9662488 3.4368021
34.627426 4.6079984 -0.60975224
7.6804514 1.0111508 -2.0757289
34.579102 4.5463042 0.60877484
8.8608732 1.1634101 -2.0632513
34.552422 4.5305109 1.8263156
10.533011 1.3810877 -2.064935
12.876503 1.6837947 -2.0568006
16.499336 2.1516688 -2.0430176
23.222443 3.0243149 -2.0488572
14.766923 1.9205112 2.8945727
32.688225 4.2454481 -1.7275054
14.712527 1.9082149 3.4251049
34.619503 4.4840059 -0.60933334
7.6743526 0.98310912 -2.0731406
34.570965 4.4225187 0.608356
8.8629465 1.1322235 -2.0628011
34.568024 4.4098802 1.8263156
10.518293 1.34183 -2.0611188
12.870545 1.6373379 -2.0549233
16.514624 2.0950732 -2.0439928
23.173563 2.9357166 -2.043628
14.757954 1.8669851 2.8915195
33.40826 4.2204566 -1.7647686
14.703632 1.8548919 3.4215057
34.658756 4.3661246 -0.60975224
7.6815715 0.95679021 -2.0741758
8.8765135 1.1024861 -2.0650506
10.519016 1.3046201 -2.0603557
12.870301 1.5916828 -2.0539849
16.513954 2.0364373 -2.0430176
23.140162 2.849467 -2.039793
14.705924 1.808267 2.8800712
34.136444 4.1914315 -1.8024505
14.733228 1.8064113 3.4269044
37.678883 4.613039 -0.66259807
7.6771936 0.92904031 -2.0721054
37.622551 4.5461745 0.66148108
8.8493528 1.0677571 -2.0578523
37.584248 4.5282178 1.9839516
10.531303 1.2688304 -2.0618823
12.860086 1.5448591 -2.0514817
16.497313 1.9759512 -2.0400932
23.146013 2.7681961 -2.0394444
14.760882 1.7627388 2.8896117
34.833092 4.153605 -1.8384577
37.649086 4.476047 -0.66179526
7.6823077 0.90246689 -2.072623
37.614361 4.412014 0.66106224
8.8433495 1.0357249 -2.0556028
37.587917 4.3956308 1.9833235
10.516168 1.2297885 -2.0580659
12.851667 1.4983548 -2.0492916
16.488335 1.9165146 -2.0381432
23.11595 2.6827843 -2.0359581
35.621143 4.1215076 -1.8792796
37.670437 4.3453135 -0.66189998
7.6834922 0.87542439 -2.0721054
37.625557 4.2802444 0.66099244
8.8488464 1.0050713 -2.0560527
10.524299 1.1935124 -2.0588293
12.856818 1.4534876 -2.0492916
16.479143 1.857165 -2.0361931
23.101416 2.5994098 -2.0338664
36.532452 4.0977621 -1.9265913
37.70525 4.2160048 -0.66224903
7.6884208 0.84881228 -2.072623
40.669456 4.48278 0.71418738
8.8542376 0.97438776 -2.0565026
40.627426 4.4637947 2.1420062
10.508885 1.1546266 -2.0550129
12.863778 1.4088118 -2.0496047
16.469738 1.7979188 -2.0342433
23.056871 2.5129204 -2.02916
37.098522 4.0301881 -1.9556901
40.697876 4.4068303 -0.71453643
7.6778913 0.82053047 -2.0689995
40.680882 4.3403549 0.71411759
8.8614616 0.9438895 -2.0574024
40.634064 4.328187 2.1415875
10.530421 1.1198022 -2.0584474
12.841117 1.3609883 -2.0452244
16.447973 1.7403646 -2.0308311
23.033802 2.4290833 -2.026371
37.322914 3.9228034 -1.9667854
40.708286 4.2714381 -0.71446663
7.6863341 0.79566336 -2.0705523
40.66721 4.2025394 0.71362895
8.8626032 0.91430038 -2.0569522
40.66011 4.194654 2.1422157
10.528218 1.0842746 -2.0573027
12.847523 1.3186023 -2.0455372
16.46155 1.6866241 -2.031806
22.992176 2.3476322 -2.0220132
37.407249 3.8062825 -1.9705535
40.730183 4.1372375 -0.71460629
7.69662 0.77093828 -2.072623
43.713333 4.3708978 0.76682389
8.8520136 0.88354856 -2.053803
43.669548 4.3511043 2.2999563
10.523942 1.0485744 -2.0557761
12.841997 1.2750118 -2.043973
16.439684 1.6264118 -2.0283935
22.976437 2.2650082 -2.0199213
37.560787 3.6961095 -1.9779854
43.781349 4.2928042 -0.76787096
7.6955481 0.74235433 -2.0715878
43.696476 4.2151995 0.76626539
8.8628025 0.85339296 -2.0556028
43.670551 4.1973143 2.2992234
10.515988 1.0088725 -2.0534863
12.834785 1.2268101 -2.0420959
16.433401 1.5678889 -2.026931
22.940569 2.1806378 -2.0160866
37.685436 3.568953 -1.983847
43.756248 4.1361775 -0.76717287
7.6980925 0.71548527 -2.0715878
43.759418 4.0594583 0.76710308
8.8697519 0.82126039 -2.0565026
43.812923 4.0489769 2.3059225
10.519446 0.97215599 -2.0534863
12.850793 1.183084 -2.043973
16.40741 1.5047498 -2.0230312
22.904757 2.0925591 -2.0122519
7.6891179 0.68623692 -2.0684819
46.749039 4.1722493 0.81925088
8.8764477 0.79063773 -2.0574024
10.515117 0.9329021 -2.05196
12.835364 1.1342396 -2.0408442
16.420471 1.4481612 -2.0240064
22.854362 2.0075428 -2.0071967
46.828682 4.088757 -0.82050747
7.6933913 0.65955561 -2.0689995
46.756046 4.0002055 0.81911123
8.8734598 0.75760317 -2.0560527
10.51831 0.89618903 -2.05196
12.83531 1.0890913 -2.0402186
16.421471 1.3904949 -2.0235186
22.859247 1.9275804 -2.0070224
46.838684 3.9249227 -0.82043761
7.7032375 0.63467956 -2.0710702
49.802361 4.0945053 0.87223637
8.8603859 0.7269007 -2.0524535
46.714733 3.8324485 2.4564407
10.521223 0.86131126 -2.05196
12.836883 1.0463641 -2.0399058
16.402248 1.3340961 -2.0205939
22.837711 1.8495189 -2.0045822
49.853283 4.0111113 -0.87300432
7.7072258 0.6092813 -2.0715878
49.795731 3.9277701 0.87188739
8.8666334 0.69781786 -2.0533531
46.688004 3.6662428 2.4543474
10.520107 0.82610655 -2.0511968
12.865884 1.0057876 -2.043973
16.383059 1.2749965 -2.0176692
22.806284 1.7668698 -2.0012703
49.847042 3.8355191 -0.87265521
7.7094069 0.58102679 -2.0715878
8.8690147 0.6668694 -2.0533531
46.688568 3.5023401 2.4537191
10.519148 0.78724718 -2.0504336
12.873422 0.95892125 -2.0445988
16.387409 1.2177968 -2.0176692
22.800392 1.6863623 -2.0002241
7.7017536 0.5534218 -2.0689995
8.8772306 0.63476884 -2.054703
46.704494 3.3396177 2.4539285
10.521832 0.75052589 -2.0504336
12.835314 0.91103834 -2.0380285
16.375919 1.1566105 -2.0157192
22.784279 1.6052176 -1.9983069
7.7094202 0.52692735 -2.0705523
8.8812323 0.60546172 -2.0551529
46.691956 3.1749518 2.4526725
10.528306 0.71405619 -2.0511968
12.820525 0.8672725 -2.0352125
16.379665 1.102295 -2.0157192
22.771851 1.5244828 -1.9967381
7.7111249 0.50136065 -2.0705523
8.867734 0.57345265 -2.0515537
46.674324 3.0183036 2.4512072
10.538452 0.67964661 -2.0527232
12.819532 0.82226509 -2.0345869
16.35568 1.0433393 -2.0123067
22.746954 1.4470676 -1.9941233
7.7051158 0.47396797 -2.0684819
8.8715315 0.54415983 -2.0520036
46.648689 2.8531542 2.4493229
10.525084 0.64190257 -2.0496705
12.824161 0.7798658 -2.0348997
16.363012 0.98934662 -2.0127943
22.731979 1.3664554 -1.9923801
7.7162881 0.44897321 -2.0710702
8.8792133 0.51352847 -2.0533531
46.654377 2.6900823 2.4491136
10.523234 0.60676765 -2.0489073
12.826804 0.73509908 -2.0348997
16.362402 0.93199295 -2.0123067
22.684668 1.2881337 -1.987848
7.7004471 0.42108417 -2.0664113
8.8906803 0.48306161 -2.0556028
46.671459 2.5276313 2.4495323
10.525289 0.57002819 -2.0489073
12.82732 0.69021726 -2.0345869
16.36952 0.87507939 -2.0127943
22.645254 1.2066141 -1.9840133
7.7211637 0.39519486 -2.0715878
8.8864737 0.45172518 -2.0542529
46.67601 2.3645098 2.4493229
10.527214 0.53328687 -2.0489073
12.813868 0.64463991 -2.032084
16.380405 0.81833339 -2.0137691
22.60157 1.1251765 -1.9798299
0.66766208 0.031836711 -0.17910279
8.8704777 0.4198755 -2.0502038
46.656048 2.2002585 2.4478576
10.532933 0.49672395 -2.0496705
12.819986 0.60009468 -2.0327096
16.339539 0.75911903 -2.0084071
22.589439 1.0455325 -1.9784353
0.66776913 0.029505761 -0.17910279
8.8835707 0.38941887 -2.0529034
46.631519 2.0359788 2.4461827
10.526757 0.45960873 -2.0481439
12.810161 0.55482459 -2.0308325
16.334152 0.70174909 -2.007432
22.581007 0.96616799 -1.9773895
0.65628648 0.026703533 -0.17599694
8.9062948 0.35926872 -2.0578523
46.622379 1.8725605 2.4453454
10.528297 0.42286289 -2.0481439
12.823863 0.51057357 -2.0327096
16.328569 0.64441055 -2.0064571
22.53248 0.88529998 -1.9728574
0.68147248 0.025345745 -0.18272625
0.68159664 0.025112454 -0.15746574
46.648586 1.710526 2.4463923
10.529709 0.38610691 -2.0481439
12.821619 0.46567225 -2.032084
16.338654 0.58769035 -2.007432
22.527468 0.80637193 -1.97216
0.70858741 0.02387782 -0.18997319
0.68947077 0.022992706 -0.15926534
46.634315 1.5470072 2.4453454
10.527069 0.34921604 -2.0473807
12.803422 0.42026213 -2.0289552
16.324734 0.53014225 -2.0054822
22.530146 0.72772545 -1.97216
0.70094252 0.021171102 -0.18790263
0.66032875 0.01971372 -0.15251681
46.619465 1.383653 2.4442987
10.539998 0.31282428 -2.0496705
12.826531 0.37620702 -2.0323968
16.322517 0.47303569 -2.0049946
22.480879 0.64366585 -1.9676279
0.71260244 0.018909166 -0.19100846
0.65649742 0.017305743 -0.15161701
46.620018 1.2207953 2.4440894
10.537149 0.27408636 -2.0489073
12.81795 0.32893625 -2.0308325
16.320099 0.41595885 -2.0045071
22.471039 0.56488264 -1.9665822
0.68562537 0.015798705 -0.18376154
0.66824591 0.015164864 -0.15431643
46.639973 1.058426 2.4449267
10.53019 0.23712859 -2.0473807
12.832846 0.28450045 -2.0330224
16.321514 0.35613573 -2.0045071
22.437021 0.48566926 -1.9634446
0.67022449 0.013103059 -0.17962041
0.66244733 0.012835359 -0.15296671
46.679325 0.89629346 2.446811
10.538806 0.20051651 -2.0489073
12.819893 0.24167943 -2.0308325
16.310698 0.30179265 -2.0030446
22.406704 0.40676188 -1.9606555
0.67026424 0.010880576 -0.17962041
0.65859115 0.010461148 -0.15206692
49.737461 0.79003632 2.6069591
10.535486 0.16550286 -2.0481439
12.826584 0.19701579 -2.0317712
16.33547 0.2452168 -2.0059695
22.376057 0.33197725 -1.9578665
0.66257137 0.0084422212 -0.17754988
0.64887923 0.0081545003 -0.14981739
49.660034 0.61543584 2.602772
10.539927 0.12877634 -2.0489073
12.825191 0.15445901 -2.0314584
16.324284 0.19090126 -2.0045071
22.373095 0.25382772 -1.957518
0.67611808 0.0063725933 -0.18117334
0.64305782 0.0058365162 -0.14846769
49.617863 0.45034128 2.6004694
10.532442 0.093756184 -2.0473807
12.825653 0.10969248 -2.0314584
16.320879 0.13388079 -2.0040195
22.377798 0.17967094 -1.9578665
35.604092 0.27341941 -1.8659865
0.67227262 0.0039893552 -0.18013807
0.6625607 0.0038164037 -0.15296671
49.631111 0.27719358 2.6010971
10.536632 0.057008967 -2.0481439
12.825947 0.06716305 -2.0314584
16.329176 0.079800159 -2.0049946
22.366335 0.10149654 -1.9568207
0.64909554 -0.0029455223 -0.17392641
0.64112794 -0.003133167 -0.14801779
49.60928 -0.25109729 2.5999458
10.544504 -0.05337099 -2.0496705
12.835811 -0.069449097 -2.0330224
16.313219 -0.09395843 -2.0030446
22.350233 -0.13263051 -1.9554262
0.65487665 -0.0052577988 -0.17547932
0.64890772 -0.0054364037 -0.14981739
49.59412 -0.42414486 2.5992131
10.544253 -0.090177849 -2.0496705
12.829564 -0.11420126 -2.032084
16.32073 -0.15097503 -2.0040195
22.321741 -0.21038368 -1.9529859
12.052184 -0.12411106 3.2295442
0.63553709 -0.0073211845 -0.17030294
0.65473062 -0.0077708648 -0.15116711
49.586349 -0.59718597 2.5988991
10.52817 -0.12679447 -2.0466175
12.829087 -0.15898409 -2.032084
16.320103 -0.20794411 -2.0040195
22.324804 -0.29224771 -1.9533345
0.64902741 -0.0098558255 -0.17392641
0.66054505 -0.010146041 -0.15251681
49.593948 -0.77042615 2.5994225
10.519782 -0.16525793 -2.0450909
12.820518 -0.20587711 -2.0308325
16.31531 -0.26484624 -2.0035322
22.307713 -0.36990979 -1.9519401
11.891422 -0.2034134 2.7457526
11.741974 -0.20290692 3.1467221
0.64512599 -0.012049141 -0.17289113
0.65465826 -0.01245578 -0.15116711
49.58696 -0.94346058 2.5992131
10.536807 -0.20231706 -2.0485253
12.817746 -0.25058922 -2.0305195
16.326138 -0.32488 -2.0049946
22.302301 -0.447696 -1.9515913
11.941296 -0.24596436 2.7574499
11.746988 -0.24401318 3.1482749
0.65859962 -0.014600701 -0.1765146
0.64682037 -0.014452509 -0.1493675
49.569389 -1.1162308 2.5984805
10.536037 -0.23909612 -2.0485253
12.824744 -0.29327369 -2.0317712
16.313063 -0.37874117 -2.0035322
22.288649 -0.52526116 -1.9505454
11.998859 -0.28695956 2.7709472
11.751859 -0.28515691 3.149828
0.68751591 -0.01752294 -0.18427916
0.65261018 -0.016861241 -0.1507172
49.55743 -1.2803965 2.5980618
10.527336 -0.27382937 -2.046999
12.829567 -0.33819476 -2.0327096
16.295769 -0.43525812 -2.0015824
22.29077 -0.5992772 -1.9508941
12.01337 -0.32926878 2.7745464
92.385239 -2.5321434 -1.6131958
11.764366 -0.3244988 3.1534514
0.6835885 -0.019810788 -0.18324389
0.66229028 -0.019309239 -0.15296671
49.564636 -1.4537277 2.5986898
10.526317 -0.31057498 -2.046999
12.834298 -0.38091308 -2.0336483
16.294235 -0.48929441 -2.0015824
22.26066 -0.67623585 -1.9484538
11.996629 -0.36862591 2.7709472
11.763162 -0.36556214 3.1534514
0.66034889 -0.021329148 -0.17703223
0.65832347 -0.021493768 -0.15206692
49.56525 -1.6269284 2.599004
10.523266 -0.34541538 -2.0466175
12.815121 -0.42512137 -2.0308325
16.308298 -0.54670095 -2.0035322
22.246218 -0.75353128 -1.947408
11.983583 -0.4100998 2.7682476
11.746368 -0.40608701 3.1493101
0.68150294 -0.024513172 -0.18272625
0.6621393 -0.02393239 -0.15296671
49.5453 -1.799426 2.5982711
10.525853 -0.38412595 -2.0473807
12.805582 -0.47179738 -2.0295811
16.278519 -0.6025961 -2.0001199
22.239468 -0.83103156 -1.9470592
11.785319 -0.44656649 2.7228076
84.716301 -3.2100496 -1.4797895
11.725575 -0.44635218 3.144134
0.68527389 -0.027044274 -0.18376154
0.65425837 -0.026048986 -0.15116711
49.528732 -1.9719629 2.5977478
10.528371 -0.42102259 -2.0481439
12.81175 -0.51681268 -2.0308325
16.280167 -0.66241723 -2.0006073
22.264303 -0.90979576 -1.9494997
11.808999 -0.48874977 2.7286563
82.730568 -3.4240451 -1.4453036
11.787642 -0.48992673 3.161216
0.70640618 -0.030348269 -0.18945555
0.65611535 -0.028302426 -0.15161701
49.531528 -2.1452708 2.5982711
10.515069 -0.45725912 -2.0458541
12.821809 -0.55981225 -2.0327096
16.265984 -0.715877 -1.9991449
22.245068 -0.98680073 -1.9481051
11.830675 -0.52895164 2.734055
79.05835 -3.5485394 -1.3813579
11.830247 -0.53307039 3.1731215
0.70051223 -0.032422669 -0.18790263
0.66185242 -0.030864857 -0.15296671
49.51376 -2.3176877 2.5977478
10.507612 -0.49185041 -2.0447092
12.815829 -0.60437918 -2.032084
16.275282 -0.77321666 -2.0006073
22.233713 -1.060183 -1.947408
11.863792 -0.57193428 2.7421534
0.66952342 -0.033330847 -0.17962041
0.65395552 -0.032784674 -0.15116711
49.519333 -2.4912114 2.5984805
10.497988 -0.52813125 -2.0431828
12.817588 -0.64931101 -2.0327096
16.264553 -0.82961875 -1.9996324
22.194061 -1.1359534 -1.9442703
0.66168654 -0.035256565 -0.17754988
0.65189105 -0.034962837 -0.1507172
49.522301 -2.664695 2.5991085
10.511765 -0.56561679 -2.0462358
12.811297 -0.69383502 -2.032084
16.265522 -0.88660365 -2.0001199
22.185982 -1.2132007 -1.9439217
12.273444 -0.68189454 3.2937315
0.66541696 -0.037785113 -0.17858516
0.64787394 -0.037015829 -0.14981739
49.510704 -2.8374298 2.599004
10.523446 -0.60309261 -2.0489073
12.816686 -0.73900545 -2.0333354
16.250439 -0.94268578 -1.9986575
22.197523 -1.2915627 -1.9453162
12.188065 -0.71983504 3.2714727
0.67106605 -0.040456381 -0.18013807
0.65552145 -0.039748907 -0.15161701
49.494518 -3.0098732 2.5986898
10.505599 -0.63886911 -2.0458541
12.804171 -0.78313661 -2.0317712
16.231197 -0.99842966 -1.9967074
22.204811 -1.3697747 -1.946362
12.212528 -0.75978786 2.8249354
12.154629 -0.76044488 3.2631907
0.66513693 -0.042429637 -0.17858516
0.6592682 -0.042286333 -0.15251681
49.48172 -3.1824946 2.5985854
10.493509 -0.67490655 -2.043946
12.795444 -0.8274442 -2.0308325
16.235537 -1.0555962 -1.9976823
22.195919 -1.4470164 -1.9460133
12.168966 -0.79972917 2.8154874
11.639145 -0.76899046 3.1254988
0.66112977 -0.044491716 -0.17754988
0.65328372 -0.044192772 -0.15116711
49.478279 -3.3557396 2.599004
10.493048 -0.71166456 -2.0443277
12.792478 -0.87210363 -2.0308325
16.227791 -1.1119908 -1.9971949
22.170855 -1.5231203 -1.9442703
12.107778 -0.83816445 2.8019903
11.622899 -0.80867535 3.1218753
0.6706056 -0.047481414 -0.18013807
60.005875 -4.2591691 1.0500416
0.64923781 -0.046196267 -0.1502673
49.486187 -3.5298517 2.6000507
10.498332 -0.74884647 -2.0458541
12.787385 -0.91661114 -2.0305195
16.223812 -1.1686296 -1.9971949
22.153481 -1.599641 -1.9432244
11.908473 -0.86614543 2.7565503
11.637346 -0.85050923 3.1265342
0.66658264 -0.049535647 -0.17910279
59.990643 -4.4686027 1.0500416
0.65295929 -0.048752442 -0.15116711
49.469578 -3.7022705 2.5998411
10.495654 -0.78548789 -2.0458541
12.797897 -0.96227872 -2.0327096
16.215675 -1.2249552 -1.9967074
22.167629 -1.6784656 -1.9449676
12.043338 -0.91822726 2.7884934
11.624676 -0.89038837 3.123946
0.67410982 -0.052461714 -0.18117334
0.6586135 -0.051487036 -0.15251681
49.450378 -3.8744614 2.5995271
10.485021 -0.8215065 -2.0443277
12.790522 -1.0066359 -2.032084
16.179638 -1.279048 -1.9928077
22.161636 -1.7558346 -1.9449676
12.156614 -0.96955657 2.8154874
11.634976 -0.93204039 3.1275694
0.67009062 -0.054267354 -0.18013807
0.66816014 -0.054345783 -0.15476632
49.431988 -4.0293078 2.5992131
10.476368 -0.85579199 -2.0431828
12.789265 -1.0469745 -2.0323968
16.191366 -1.3311726 -1.9947575
22.151718 -1.8289875 -1.9446188
12.235075 -1.0145062 2.8343832
11.643541 -0.96954995 3.1306753
0.65641242 -0.055582009 -0.1765146
0.66018951 -0.056133945 -0.15296671
49.444748 -4.212832 2.6006784
10.473161 -0.89418411 -2.0431828
12.783373 -1.0936742 -2.032084
16.182423 -1.3901681 -1.9942701
22.152807 -1.9108504 -1.9453162
12.268163 -1.062538 2.8429315
11.630287 -1.0113823 3.128087
0.66775036 -0.059007812 -0.17962041
49.576462 -4.3896971 0.86874592
0.67356718 -0.059758794 -0.15611602
49.540386 -4.4039311 2.6065402
10.487576 -0.93230128 -2.0466175
12.775345 -1.140169 -2.0314584
16.185129 -1.4501792 -1.9952452
22.126158 -1.986385 -1.943573
35.361946 -3.187077 -1.8607527
11.641893 -1.0553979 3.1322281
0.66946411 -0.061515115 -0.18013807
49.501095 -4.5572238 0.86769873
0.63842541 -0.058887795 -0.14801779
46.430161 -4.2908492 2.4436707
10.472528 -0.96782005 -2.0443277
12.763418 -1.1840265 -2.0302067
16.168108 -1.5055625 -1.9937826
22.111155 -2.0628674 -1.9428759
35.16766 -3.2933612 -1.851123
46.52977 -4.3737783 -0.81576037
11.630445 -1.0953048 3.1301577
0.66347599 -0.063301161 -0.17858516
46.457153 -4.4405832 0.81460851
0.64597541 -0.061859004 -0.14981739
46.405739 -4.4438424 2.4431474
10.476903 -1.00512 -2.0458541
12.767074 -1.2293293 -2.0314584
16.159075 -1.5587883 -1.9932952
22.095886 -2.1392691 -1.9421785
35.128117 -3.4133947 -1.8496577
43.521618 -4.2366576 -0.76326352
0.66326243 -0.065500975 -0.17858516
43.399494 -4.2935982 0.76123911
0.64576674 -0.0640008 -0.14981739
43.343872 -4.2957344 2.2826853
10.461791 -1.0386935 -2.0435643
12.758994 -1.271268 -2.0308325
16.138014 -1.610788 -1.9913452
22.076777 -2.2113385 -1.9411327
34.882111 -3.5062938 -1.8373064
43.439682 -4.374146 -0.76207674
0.66304159 -0.067700073 -0.17858516
40.379154 -4.1300473 0.70849788
0.63198084 -0.064751513 -0.14666808
40.320568 -4.1382775 2.124212
10.454383 -1.0729793 -2.0428011
12.742918 -1.3123571 -2.0289552
16.140194 -1.6679268 -1.9923203
22.037615 -2.2812533 -1.9383438
34.719311 -3.6062655 -1.8293512
40.420876 -4.2127447 -0.70937055
0.6435895 -0.0679847 -0.17340876
40.362503 -4.2707615 0.70846301
8.813508 -0.93411386 -2.0461547
37.27906 -3.9576616 1.964692
10.44667 -1.1090511 -2.042038
12.730404 -1.3559934 -2.0277038
16.134274 -1.7242564 -1.9923203
22.013668 -2.3564682 -1.9369491
34.448353 -3.6997106 -1.8157438
37.36002 -4.0256128 -0.65589631
7.6260781 -0.83249754 -2.055541
37.327812 -4.0814672 0.6554426
8.7888842 -0.96253937 -2.0412059
37.280903 -4.0895081 1.9655294
10.450541 -1.1463661 -2.0435643
12.725593 -1.4004225 -2.0277038
16.100533 -1.7775152 -1.9889079
22.017191 -2.4346099 -1.9379952
33.160801 -3.6785624 -1.7485443
37.361641 -4.1577682 -0.65617561
7.6442423 -0.86149222 -2.061235
34.306885 -3.8723879 0.60263163
8.7912807 -0.99386925 -2.0425556
34.255795 -3.8787317 1.8067422
10.425016 -1.1804087 -2.0393667
12.712776 -1.4439427 -2.0264523
16.102119 -1.8346046 -1.9898828
22.016476 -2.5123529 -1.9386923
31.631756 -3.6207616 -1.6685752
34.307335 -3.9391575 -0.60277122
7.633513 -0.8872782 -2.0591643
34.269321 -3.9893427 0.60221273
8.7935629 -1.0252273 -2.0439053
34.244034 -3.9985147 1.8068467
10.422783 -1.2170192 -2.0397482
12.715507 -1.489229 -2.0277038
16.091673 -1.890337 -1.9893954
22.035275 -2.5924489 -1.9411327
31.071478 -3.6665545 -1.6396856
34.281464 -4.0574784 -0.60256177
7.6207786 -0.91277009 -2.0565763
34.269089 -4.1106081 0.60245705
8.7879963 -1.055684 -2.0434554
10.404827 -1.2517527 -2.037077
12.694541 -1.5317122 -2.0252008
16.088919 -1.946973 -1.9898828
22.152678 -2.6846917 -1.9522886
31.074352 -3.7769196 -1.640523
31.263783 -3.8110182 -0.5497508
7.6232977 -0.94007516 -2.0581291
31.21608 -3.8549759 0.54901785
8.7784557 -1.0856357 -2.0421057
31.220306 -3.8665626 1.6486874
10.402342 -1.288306 -2.0374587
12.677355 -1.5745543 -2.0233238
16.078083 -2.0026312 -1.9893954
22.194574 -2.7684143 -1.9568207
31.053051 -3.8843744 -1.6401043
31.268145 -3.9223659 -0.55006498
7.616137 -0.96619362 -2.0570939
31.228222 -3.9671929 0.54947156
8.7630138 -1.114796 -2.0394061
31.200678 -3.9747615 1.6483735
10.405573 -1.3256016 -2.038985
12.675699 -1.6192974 -2.0239494
16.059179 -2.0572283 -1.9879328
22.204536 -2.8484058 -1.9585637
30.611422 -3.9377058 -1.6174953
31.252281 -4.0312328 -0.55003005
7.6088867 -0.99227339 -2.0560586
31.218149 -4.076694 0.54954135
8.7610016 -1.1456306 -2.0398562
10.383361 -1.3596215 -2.0355504
12.658218 -1.6619912 -2.0220721
16.03616 -2.1112003 -1.985983
22.194458 -2.9258964 -1.9585637
30.58363 -4.0427036 -1.6167625
31.085377 -4.1200676 -0.54734236
7.6168652 -1.0203662 -2.0591643
8.7511549 -1.1754268 -2.0385065
10.372715 -1.3950728 -2.0344057
