# .PCD v0.7 - Point Cloud Data file format
VERSION 0.7
FIELDS x y z
SIZE 4 4 4
TYPE F F F
COUNT 1 1 1
WIDTH 1472
HEIGHT 1
VIEWPOINT 0 0 0 1 0 0 0
POINTS 1472
DATA ascii
-5.0165458 -14.677205 4.1561165
-2.6116049 -7.6105347 -2.1559627
-3.4930522 -10.173392 0.18775299
-3.097425 -9.0160179 -2.2009211
-3.0248795 -8.7998533 0.48766652
-3.5184028 -10.235591 -2.1038601
-3.4739327 -10.100486 0.93448383
-3.5411506 -10.290084 -1.7235951
-3.0704896 -8.9173508 1.1580026
-3.5414848 -10.279391 -1.3349569
-3.0875282 -8.9566774 1.5005195
-3.5147474 -10.196007 -0.94354802
-3.1507928 -9.1350288 1.8783239
-3.5210423 -10.202704 -0.56564707
-4.2711115 -12.369136 3.0210927
-3.1710498 -9.1781635 -0.16949777
-5.075954 -14.683341 4.1628461
-2.609019 -7.5174193 -2.1321514
-3.533134 -10.174361 0.18799733
-3.144227 -9.0493307 -2.2117188
-3.0798445 -8.8590412 0.49153933
-3.5599124 -10.239936 -2.1072946
-3.3651633 -9.674304 0.89613533
-3.570554 -10.259004 -1.7204664
-3.1544778 -9.0584269 1.1777455
-3.5891023 -10.30071 -1.3393443
-3.1181254 -8.9439802 1.5002067
-3.5542536 -10.194963 -0.94459391
-3.1561496 -9.0479717 1.8626775
-3.5586085 -10.196009 -0.56596106
-4.3039837 -12.324715 3.0138943
-3.21626 -9.2047939 -0.17019588
-5.1367393 -14.692886 4.17061
-2.6346033 -7.506444 -2.1316338
-3.2638435 -9.2940674 0.1719411
-3.1803193 -9.0511684 -2.2148681
-3.2147498 -9.1440573 0.50797284
-3.6027966 -10.247821 -2.1114926
-3.3969276 -9.6568594 0.89561236
-3.6207726 -10.287471 -1.7273496
-3.1808026 -9.032382 1.1757956
-3.6078835 -10.239439 -1.333007
-3.1414442 -8.9106855 1.4964522
-3.5918057 -10.188132 -0.94511688
-3.1896732 -9.0424538 1.8638223
-3.6021545 -10.206125 -0.56721711
-3.2386572 -9.171114 2.2454615
-3.2543666 -9.2104797 -0.17051001
-5.12747 -14.503656 4.1219521
-2.6982658 -7.6027956 -2.1616566
-3.299612 -9.2920389 0.17211564
-3.2242899 -9.0749016 -2.2234163
-3.2533391 -9.1515989 0.50901955
-3.6411767 -10.24258 -2.113019
-3.4352903 -9.6580849 0.89683259
-3.6460619 -10.244992 -1.7223436
-3.5912104 -10.085293 1.3144828
-3.6555977 -10.260443 -1.3373944
-3.1911008 -8.951766 1.5052127
-3.623332 -10.164272 -0.94407099
-3.2271543 -9.0479078 1.8672569
-3.6350739 -10.185966 -0.56679851
-3.2483692 -9.0973549 2.2301648
-3.2454586 -9.0841932 -0.16838083
-5.0551643 -14.141856 4.0241184
-2.7241361 -7.5915127 -2.161139
-3.6401603 -10.138686 0.18803222
-3.2335465 -9.0012369 -2.2081196
-3.2947226 -9.166501 0.51048499
-3.6735878 -10.220572 -2.1111107
-3.3503158 -9.3160629 0.86615378
-3.6884904 -10.250791 -1.7254723
-3.660687 -10.167951 1.3269135
-3.6873534 -10.236414 -1.3359319
-3.2276881 -8.9554386 1.5077156
-3.662169 -10.160934 -0.94494259
-3.224751 -8.942399 1.8477943
-3.6712842 -10.175094 -0.56690317
-3.2648869 -9.0438013 2.2198169
-3.2927735 -9.116066 -0.16918363
-5.1222253 -14.17318 4.038095
-2.7051589 -7.4566517 -2.1254222
-3.4558282 -9.5206556 0.17679287
-3.28424 -9.0430126 -2.2211666
-3.3198786 -9.1361723 0.50943822
-3.7226522 -10.244589 -2.1187432
-3.3569436 -9.2331572 0.85952991
-3.7201984 -10.226714 -1.7235951
-3.6886892 -10.134591 1.3242323
-3.7407236 -10.271977 -1.3422691
-3.2393167 -8.8902931 1.4986424
-3.6989782 -10.151833 -0.94529116
-3.1913924 -8.7540159 1.8111591
-3.7054119 -10.158463 -0.56669378
-3.306457 -9.0598106 2.2265656
-3.3492663 -9.1721392 -0.17044021
-5.1736588 -14.160657 4.0396481
-2.7697506 -7.5523586 -2.1554451
-3.7142963 -10.122414 0.18820675
-3.3177998 -9.0369816 -2.2225163
-3.3372865 -9.0851583 0.50724012
-3.7482345 -10.20389 -2.113019
-3.3980896 -9.2456942 0.86179596
-3.7735987 -10.261871 -1.7317297
-4.783062 -12.999981 1.7008086
-3.7628419 -10.2216 -1.3373944
-3.2484822 -8.8196154 1.4886307
-3.7378356 -10.148208 -0.94616276
-3.2389021 -8.7888756 1.8206996
-3.7429211 -10.151089 -0.56700778
-4.5501242 -12.333652 3.0350397
-3.5239091 -9.5468426 -0.17763059
-5.2357721 -14.176943 4.0494828
-2.7793093 -7.4973602 -2.1425042
-3.7544754 -10.122511 0.18845108
-3.341867 -9.005249 -2.2175674
-3.3773217 -9.0959215 0.50849622
-3.7906642 -10.209149 -2.1168351
-3.4324229 -9.2393789 0.86231887
-3.7983856 -10.219009 -1.7267238
-3.7295971 -10.028587 1.3137517
-3.7998827 -10.212124 -1.3378818
-3.1910303 -8.5712624 1.4485832
-3.7704563 -10.127629 -0.94546551
-3.3408325 -8.9688511 1.8603877
-3.7818186 -10.14732 -0.56753117
-4.6040425 -12.346909 3.042238
-3.4320915 -9.1991196 -0.17138264
-7.1620498 -19.186386 5.4874816
-2.7919068 -7.4514313 -2.1321514
-3.3938904 -9.0532827 0.16876477
-3.3808091 -9.0135984 -2.2225163
-3.4139643 -9.0971661 0.50922889
-3.8311064 -10.208721 -2.1195064
-3.8939698 -10.370735 0.96917188
-3.8520949 -10.253767 -1.7348584
-3.7764544 -10.047095 1.3178952
-3.836905 -10.202512 -1.3383693
-3.2348425 -8.5970488 1.4548407
-3.8050828 -10.112542 -0.94529116
-3.3804193 -8.9791842 1.8649671
-3.8193302 -10.139664 -0.56784517
-6.3720837 -16.907843 4.1714921
-3.4528918 -9.1571455 -0.17082416
-5.6401167 -14.949805 4.2813849
-2.8719454 -7.5843678 -2.1730449
-3.4311407 -9.0563402 0.16904402
-3.4157045 -9.0108538 -2.224766
-3.4357836 -9.0590506 0.5077635
-3.8940983 -10.262076 0.96028197
-3.8668296 -10.184856 -1.7254723
-3.8143225 -10.041275 1.3188702
-3.8837783 -10.218747 -1.3422691
-3.2718537 -8.6041689 1.4579694
-3.8439 -10.108509 -0.94616276
-3.2707207 -8.596673 1.7878804
-3.8554106 -10.128137 -0.56794983
-6.4310651 -16.885498 4.1714921
-3.4627628 -9.0871096 -0.16974211
-5.4025245 -14.170076 4.0634594
-2.8646452 -7.489996 -2.1487157
-3.4704437 -9.0691919 0.16949777
-3.4379025 -8.9794579 -2.2198169
-3.4686635 -9.0550661 0.50818217
-3.8948882 -10.167741 -2.1164536
-3.9523504 -10.31236 0.96620852
-3.9260433 -10.238377 -1.7367356
-3.8497331 -10.034132 1.3196013
-3.9105301 -10.18728 -1.3398317
-3.2968264 -8.5840511 1.456405
-3.8823996 -10.108727 -0.94738293
-3.2921684 -8.5674524 1.7840642
-3.8853922 -10.105974 -0.5674265
-4.348938 -11.305771 2.7965915
-3.4562457 -8.9803972 -0.16796197
-5.4272699 -14.094392 4.0468946
-2.9060941 -7.5195947 -2.1601038
-3.5071287 -9.0700788 0.16974211
-3.4882095 -9.0164757 -2.2319643
-3.4901559 -9.0168266 0.50671679
-3.9480724 -10.199855 -2.125994
-3.9674563 -10.244622 0.96115357
-3.9460583 -10.184087 -1.7298526
-3.8919098 -10.039142 1.3220388
-3.9503727 -10.184671 -1.3412941
-3.3289149 -8.5780144 1.4573436
-3.922709 -10.108114 -0.94860309
-3.296473 -8.4900236 1.770326
-3.9257066 -10.105383 -0.56815922
-6.8974304 -17.745882 4.3955436
-3.5564251 -9.1453333 -0.17127791
-5.7741446 -14.840522 4.266891
-2.9463775 -7.5453944 -2.1704566
-3.5511384 -9.0894451 0.17033549
-3.4813514 -8.9062328 -2.2076695
-3.5288846 -9.0231905 0.5077635
-3.9736416 -10.160414 -2.1206512
-3.7062566 -9.4718485 0.88986009
-3.9959848 -10.207039 -1.7361099
-3.9385135 -10.055069 1.3259385
-3.9772079 -10.148641 -1.3383693
-3.355953 -8.5589867 1.4560922
-3.9586954 -10.096214 -0.94877744
-3.3124652 -8.4437399 1.7630752
-3.9646072 -10.100913 -0.56868255
-3.5956395 -9.151475 -0.17162697
-6.3863826 -16.246029 4.6773777
-2.9060559 -7.3661394 -2.1217985
-3.6173522 -9.1644154 0.17197601
-3.5403342 -8.964715 -2.2252157
-3.5515525 -8.9885263 0.50650746
-4.0083632 -10.144655 -2.1202698
-3.7297752 -9.4347668 0.88759404
-4.0170579 -10.156291 -1.7298526
-4.0093799 -10.131705 1.3378818
-4.027225 -10.17161 -1.343244
-3.3938129 -8.5674219 1.4595338
-3.9909799 -10.074924 -0.94808012
-3.3759177 -8.5179081 1.7810113
-4.0049944 -10.100009 -0.56941521
-7.8195653 -19.709751 4.8953848
-4.0075073 -10.096061 -0.18960294
-6.431643 -16.19491 4.669096
-2.9603601 -7.4277344 -2.1425042
-3.6322839 -9.1090117 0.1711732
-3.5939927 -9.0084124 -2.2391627
-3.6295528 -9.0929375 0.51310176
-4.0401096 -10.121485 -2.1183615
-3.7774639 -9.4586964 0.89108032
-4.0612826 -10.164219 -1.7336069
-4.0380902 -10.101058 1.3356882
-4.0582819 -10.146432 -1.3417815
-3.433238 -8.5793657 1.4636011
-4.0283437 -10.066483 -0.94860309
-3.386657 -8.458683 1.7710892
-4.0387406 -10.08226 -0.56920594
-6.5058112 -16.232817 4.0374212
-4.0434694 -10.083867 -0.18963784
-4.5970826 -11.458709 3.3082252
-2.9999783 -7.4514046 -2.1523392
-3.6610694 -9.0888567 0.17103358
-3.586808 -8.9000168 -2.215318
-3.6971221 -9.1691246 0.51812601
-4.0497203 -10.043592 -2.105005
-3.8328211 -9.5008831 0.89630961
-4.0908217 -10.135325 -1.731104
-3.4452291 -8.5315304 1.1297289
-4.0981379 -10.143247 -1.343244
-3.4602025 -8.5600023 1.4623495
-4.0627103 -10.050512 -0.94842881
-3.5199509 -8.7034359 1.8248973
-4.068666 -10.05514 -0.56847322
-6.5536609 -16.188335 4.032023
-4.0786443 -10.069691 -0.18963784
-4.6036758 -11.360233 3.2844138
-3.0390697 -7.4730983 -2.1616566
-3.681469 -9.0482388 0.17051001
-3.6296082 -8.9163208 -2.2225163
-3.8918304 -9.5557051 0.54073519
-4.1040082 -10.07667 -2.1149271
-3.8358874 -9.4136429 0.88933718
-4.132143 -10.135617 -1.7336069
-4.0695233 -9.9770412 1.3230138
-4.1275182 -10.114177 -1.3412941
-3.4908092 -8.5496998 1.4626625
-4.100029 -10.041803 -0.94895172
-3.4359756 -8.4112072 1.7661282
-4.1067619 -10.048272 -0.56889194
-3.951916 -9.6645823 2.4105756
-4.115284 -10.059093 -0.18970767
-4.628665 -11.308337 3.274061
-3.0702744 -7.4749537 -2.1652801
-3.7343125 -9.087122 0.17148735
-3.7170298 -9.040575 -2.2567091
-4.0832024 -9.9262552 0.56250691
-4.1369166 -10.056835 -2.1137822
-3.9073954 -9.4941616 0.8982271
-4.170505 -10.128438 -1.7348584
-4.1073499 -9.9701176 1.3239887
-4.1764145 -10.132743 -1.3456814
-3.5078287 -8.5064173 1.4573436
-4.1510062 -10.066111 -0.95261222
-3.4518368 -8.3664951 1.759259
-4.1448612 -10.04126 -0.56931055
-3.9714932 -9.6165066 2.4020274
-4.1480794 -10.039123 -0.18960294
-4.6850872 -11.333174 3.2859669
-3.0711808 -7.4035215 -2.1476805
-3.7560461 -9.0500202 0.17103358
-3.738101 -9.0023479 -2.2504103
-4.1191597 -9.9200392 0.56292558
-4.1697359 -10.036894 -2.1126373
-3.9902194 -9.6000509 0.90955734
-4.213419 -10.132059 -1.7379872
-5.4056592 -12.992653 1.7278637
-4.1993179 -10.093178 -1.3422691
-3.5610695 -8.5549202 1.4676683
-4.1746292 -10.023972 -0.9499976
-3.5210407 -8.4504433 1.7794847
-4.180654 -10.028574 -0.56941521
-4.0618486 -9.7435827 2.4371197
-4.1875062 -10.040077 -0.18988217
-4.6698213 -11.190991 3.2492144
-3.117353 -7.4449716 -2.1626918
-4.1916819 -10.005821 0.18935861
-3.768687 -8.9916992 -2.2508602
-4.108799 -9.8031721 0.55706394
-4.2196999 -10.062843 -2.121033
-4.0104694 -9.559207 0.90694261
-4.2332335 -10.085245 -1.7323555
-5.4410291 -12.956354 1.7254263
-4.248138 -10.115803 -1.3471439
-3.5978363 -8.563097 1.4711099
-4.2186551 -10.035787 -0.95243794
-3.5619836 -8.4694853 1.7859724
-4.2123384 -10.010974 -0.56920594
-4.2269835 -10.040881 -0.19016142
-4.7818937 -11.353483 3.3009782
-3.1450317 -7.4417119 -2.1647625
-4.2045922 -9.9439793 0.18845108
-3.7939286 -8.9683847 -2.2481608
-4.1515555 -9.8090029 0.55821538
-4.2599325 -10.065067 -2.1244676
-4.1345963 -9.7641821 0.92768568
-4.2789836 -10.100254 -1.7373614
-6.8644447 -16.195187 2.1597686
-4.2803216 -10.093601 -1.3461689
-3.6230752 -8.5395756 1.4692327
-4.2544403 -10.022833 -0.95261222
-3.6107616 -8.5064211 1.796276
-4.2525382 -10.013495 -0.57014793
-4.2674847 -10.038946 -0.19040576
-4.8759332 -11.46472 3.3382483
-3.1639421 -7.4105911 -2.1590683
-4.1764607 -9.782114 0.18565871
-3.8244452 -8.9532957 -2.2477109
-4.1802773 -9.7815943 0.55748266
-4.3060565 -10.071049 -2.1290469
-4.2267766 -9.8808546 0.94023609
-4.3159742 -10.084503 -1.7373614
-6.9326496 -16.198503 2.1634247
-4.3077154 -10.06035 -1.3437315
-3.6598632 -8.5432196 1.4720485
-4.2941093 -10.018909 -0.9536581
-3.6643522 -8.5454559 1.8073429
-4.3010244 -10.025374 -0.57171804
-4.1459794 -9.6593256 2.4267719
-4.2985563 -10.014801 -0.19023123
-4.6963878 -10.9364 3.1891685
-3.2196162 -7.468689 -2.1792564
-4.3033586 -9.9779053 0.18967277
-3.8124549 -8.8354387 -2.2216165
-4.2232256 -9.782711 0.55842471
-4.3474107 -10.070374 -2.1320999
-4.2446513 -9.8276281 0.93657559
-4.3605509 -10.091135 -1.7411157
-5.6725101 -13.120962 1.7551624
-4.3540158 -10.066358 -1.3466563
-4.3227243 -9.9892311 -0.95226365
-3.6949389 -8.5344143 1.8077245
-4.3423429 -10.024961 -0.57255542
-4.1819978 -9.6501589 2.4281218
-4.3328471 -9.993474 -0.19012651
-4.2582588 -9.8167458 2.8671973
-3.2302485 -7.421978 -2.1689036
-3.9972723 -9.1799498 0.1747684
-3.830822 -8.7934923 -2.2144182
-4.2757006 -9.8100204 0.56083214
-4.3495898 -9.9795504 -2.1160717
-4.2900786 -9.8383207 0.93901592
-4.3878517 -10.057747 -1.7379872
-3.893446 -8.9202347 1.195051
-4.3907161 -10.054738 -1.3471439
-3.7367198 -8.5530138 1.4783059
-4.3535805 -9.9649515 -0.95139205
-3.7105544 -8.4890852 1.8008554
-4.3781095 -10.011573 -0.57266009
-4.1539488 -9.4944601 2.3925796
-4.3701105 -9.9837847 -0.19023123
-4.2863007 -9.7876644 2.8630564
-3.2639077 -7.4283433 -2.1740801
-4.3817644 -9.9677544 0.19005671
-3.8920898 -8.849637 -2.2319643
-4.3115273 -9.7986927 0.56104147
-4.4097013 -10.02181 -2.1282835
-4.37256 -9.9326963 0.94947463
-4.4372644 -10.07491 -1.7436188
-3.8437154 -8.7231169 1.1704333
-4.4289908 -10.046615 -1.3481188
-3.7426372 -8.4856968 1.4689198
-4.3963771 -9.9679251 -0.95313519
-3.735409 -8.4653034 1.7985657
-4.4146442 -9.9998827 -0.57286942
-4.4210992 -10.005051 -0.19092932
-4.063448 -9.1913385 2.6927533
-3.2898178 -7.4169049 -2.1740801
-4.3808427 -9.8719749 0.18852089
-3.9435158 -8.8823051 -2.2436619
-7.1712236 -16.144735 0.92582315
-4.4717541 -10.067359 -2.1412585
-4.4169145 -9.9392214 0.95156634
-4.4611702 -10.03409 -1.7392386
-3.8878567 -8.7404804 1.1745769
-4.4624181 -10.027467 -1.3476313
-7.2544241 -16.293701 2.824894
-4.4343882 -9.9597969 -0.95383239
-3.7697279 -8.4629736 1.8008554
-4.447897 -9.9807634 -0.57266009
-8.2172737 -18.430321 4.6587362
-4.4576254 -9.9932098 -0.19099914
-4.3568873 -9.7627954 2.8646095
-3.3141081 -7.4018502 -2.1730449
-4.43326 -9.8967733 0.18928881
-3.9721074 -8.8631506 -2.2423122
-4.453371 -9.932375 0.57046199
-4.5157032 -10.071395 -2.1454566
-5.8329654 -13.003213 1.24685
-4.5026393 -10.032874 -1.7417415
-3.9199696 -8.7304773 1.1750643
-4.5071535 -10.033559 -1.3505563
-3.9831717 -8.8629599 1.5390024
-4.4740262 -9.9551611 -0.95487827
-3.8064923 -8.4658785 1.8042899
-4.4851685 -9.9706411 -0.57297415
-6.7955952 -15.099737 3.8228183
-4.4924808 -9.9775887 -0.19099914
-4.1719499 -9.261384 2.7217412
-3.3677714 -7.4518514 -2.1911621
-4.494143 -9.9395447 0.19040576
-3.9500108 -8.7320461 -2.2126186
-4.4666038 -9.8694592 0.5677405
-4.5362611 -10.023375 -2.1385872
-5.8898273 -13.008183 1.2492903
-4.5343719 -10.009898 -1.7404901
-3.9373093 -8.6878128 1.1711645
-4.5314946 -9.9942608 -1.3473876
-4.0165329 -8.8543997 1.5399411
-4.5062795 -9.934041 -0.95435536
-3.8254733 -8.4292984 1.7993289
-4.5224209 -9.9603796 -0.57328814
-4.0209455 -8.8518047 2.2445617
-4.5256271 -9.9582062 -0.19092932
-4.1818628 -9.1975241 2.7072473
-3.3584862 -7.3627138 -2.168386
-4.5354528 -9.9383497 0.19068499
-3.9950364 -8.7501144 -2.220717
-4.5117507 -9.8818464 0.56931055
-4.5630651 -9.9896221 -2.1347711
-3.9211884 -8.5804415 0.82536483
-4.5824289 -10.022754 -1.745496
-3.9618316 -8.6613789 1.1694584
-4.5787435 -10.005459 -1.3510437
-4.5450764 -9.9273071 -0.95522696
-3.8017313 -8.2998743 1.7745237
-4.5613227 -9.9536114 -0.57381147
-3.9900966 -8.7030849 2.2103691
-4.5644593 -9.9558678 -0.19117366
-4.0448132 -8.818368 2.5995786
-3.3663945 -7.3123393 -2.1569982
-4.5700588 -9.9268875 0.1907548
-4.0403347 -8.7722197 -2.2297149
-7.28197 -15.803074 0.91190183
-4.6242108 -10.030685 -2.1469829
-6.0539255 -13.125959 1.2646297
-4.6057105 -9.9859781 -1.7417415
-5.8044848 -12.579355 1.7010525
-4.6085706 -9.9830093 -1.3500687
-4.5822067 -9.9168081 -0.95574987
-3.8967588 -8.433362 1.8058165
-4.5951433 -9.9402437 -0.57391614
-4.0532923 -8.7640915 2.229265
-4.6042223 -9.9507627 -0.19138309
-4.1599712 -8.9865208 2.6534131
-3.4296796 -7.3852386 -2.1818447
-4.6080499 -9.918129 0.19089442
-4.0569668 -8.7280188 -2.2220664
-4.6690359 -10.040219 -2.1523256
-7.256393 -15.59691 1.5050054
-4.6522102 -9.9949121 -1.7461218
-4.0449986 -8.6863966 1.1765267
-4.6542859 -9.9902554 -1.3532373
-4.6209588 -9.9141998 -0.95697004
-4.6298113 -9.9241438 -0.57391614
-4.1605101 -8.9141159 2.271106
-4.6431594 -9.9436903 -0.19155762
-4.0825663 -8.7391567 2.5845671
-3.457078 -7.37672 -2.1828799
-4.6460385 -9.9092255 0.19103403
-4.1420293 -8.8302479 -2.25176
-10.49932 -22.37298 1.2952104
-4.7048888 -10.025638 -2.1527071
-7.3319612 -15.616573 1.5093632
-4.6904302 -9.9857635 -1.7473731
-4.0482764 -8.6147337 1.168727
-4.6806846 -9.9559832 -1.3507999
-7.2801609 -15.478147 2.7091324
-4.6597786 -9.9070244 -0.95784163
-7.3953209 -15.715862 3.3761744
-4.6686811 -9.9169569 -0.57443953
-4.1733332 -8.8607521 2.2612078
-4.6778388 -9.9274225 -0.19155762
-4.1097522 -8.7178631 2.5824966
-3.4687665 -7.3349195 -2.1740801
-4.6891527 -9.9110241 0.19138309
-4.1444802 -8.7558479 -2.2364633
-10.365361 -21.888531 1.2692517
-4.745738 -10.021573 -2.1553786
-11.074951 -23.376423 2.2630861
-4.7252584 -9.9693298 -1.7473731
-4.0774732 -8.5987568 1.1684834
-4.7366805 -9.9844208 -1.3568934
-7.3180528 -15.418733 2.7031879
-4.6986036 -9.8996983 -0.95871317
-7.3499241 -15.478908 3.3307621
-4.7126937 -9.9204445 -0.57559091
-4.2243118 -8.8883734 2.2720056
-4.7141838 -9.9146442 -0.19162743
-4.1775002 -8.78197 2.6057904
-3.5093253 -7.3541498 -2.1833978
-4.7185512 -9.8837671 0.19117366
-4.1951761 -8.7835312 -2.247261
-10.736201 -22.468533 1.3050495
-4.7806911 -10.004947 -2.1553786
-11.044772 -23.103941 2.2404256
-4.7736664 -9.981288 -1.7523791
-4.1186018 -8.6077499 1.171652
-4.7680755 -9.9606638 -1.3559184
-7.3897476 -15.430508 2.709758
-4.7382951 -9.8940172 -0.959759
-7.2800603 -15.194661 3.2750459
-4.7542009 -9.9183416 -0.57642829
-4.2452006 -8.8524876 2.2666068
-4.755681 -9.9125519 -0.19190666
-4.1195197 -8.5827217 2.5509207
-3.5219643 -7.3181 -2.1761506
-4.7582407 -9.8824787 0.19145289
-4.1574707 -8.6308737 -2.2117188
-10.642438 -22.083754 1.2847432
-4.8121386 -9.9855013 -2.1546154
-11.086718 -22.995399 2.233453
-4.8101726 -9.9725189 -1.7536306
-4.1816325 -8.6655569 1.1814015
-4.8062587 -9.9555235 -1.3573809
-15.741737 -32.592381 5.732698
-4.7754035 -9.8827991 -0.96028197
-4.4450531 -9.199132 1.9859402
-4.7835884 -9.8953295 -0.57600957
-4.2567163 -8.8015203 2.2571588
-4.7920108 -9.9039278 -0.19204628
-4.1546926 -8.5829248 2.5550618
-3.5529821 -7.3138318 -2.1787388
-4.7892118 -9.8586168 0.19131328
-4.2233491 -8.6899223 -2.2306147
-10.691514 -21.988993 1.2813936
-4.8718901 -10.015466 -2.1649189
-11.029687 -22.664385 2.2052147
-4.8570676 -9.9761353 -1.7573849
-4.2222838 -8.6723251 1.1843264
-4.840981 -9.9386864 -1.3573809
-4.8151112 -9.8768148 -0.96132785
-4.4933705 -9.2127752 1.9924276
-4.8207002 -9.8795242 -0.57611424
-4.2735586 -8.7543373 2.2490606
-4.8379569 -9.9105015 -0.19250005
-4.1846275 -8.5683689 2.5550618
-3.5776427 -7.2996502 -2.1782212
-4.8358774 -9.8625422 0.19173212
-4.2972231 -8.7601147 -2.25266
-10.782596 -21.971176 1.2826498
-4.8808751 -9.9455233 -2.1534703
-11.087655 -22.582827 2.2010312
-4.8883781 -9.9520283 -1.7561336
-4.8756242 -9.9173126 -1.3568934
-16.474993 -33.496361 5.9122849
-4.8530755 -9.8670979 -0.96202505
-4.5272355 -9.2005568 1.9931908
-4.8648605 -9.8823481 -0.57726568
-4.3135624 -8.7585974 2.2540095
-4.8565722 -9.8568268 -0.19180195
-4.2031913 -8.5269814 2.547297
-3.6082373 -7.2975087 -2.1813271
-4.8791409 -9.8635254 0.19208118
-4.3320975 -8.7537937 -2.2549093
-10.850358 -21.915506 1.281603
-5.2648664 -10.633954 -2.3064992
-11.217712 -22.647532 2.2111411
-4.9423833 -9.9738426 -1.7630166
-14.575555 -29.400921 4.0292444
-4.9207969 -9.9215746 -1.3598183
-16.460115 -33.173222 5.8653545
-4.5532112 -9.172389 1.9905195
-4.3206983 -8.6963663 2.2418623
-4.9158716 -9.8899536 -0.19277929
-4.2681985 -8.5831795 2.5685203
-3.6517963 -7.3211718 -2.1921973
-4.9171138 -9.853591 0.19222081
-4.3678498 -8.7490788 -2.2576087
-10.9765 -21.98662 1.2878834
-4.9598384 -9.9305258 -2.1576684
-11.27354 -22.561901 2.206609
-4.9577351 -9.9176598 -1.7561336
-12.02324 -24.041283 3.3004658
-4.9607263 -9.9149885 -1.3612807
-4.5210261 -9.0361605 1.6003247
-4.9530535 -9.8953371 -0.968126
-4.3628001 -8.7123089 1.8939703
-4.9525208 -9.885644 -0.57946378
-4.2942696 -8.5679913 2.2126186
-4.9665589 -9.9093533 -0.19347738
-4.2775879 -8.5309858 2.5571322
-3.6504118 -7.2548823 -2.1761506
-4.9425721 -9.8229399 0.19194156
-4.3994684 -8.739769 -2.2589586
-10.84297 -21.530758 1.2633901
-4.9935865 -9.9113998 -2.1572866
-11.25717 -22.33382 2.188132
-5.0083785 -9.9364424 -1.762391
-12.118983 -24.03319 3.3048532
-4.9971552 -9.9055738 -1.3622556
-4.5703416 -9.0555944 1.6065822
-4.9965467 -9.8957701 -0.96986908
-4.3898983 -8.6942892 1.8932071
-5.0050845 -9.9083872 -0.58176655
-7.6521082 -15.142038 3.9168477
-5.0029254 -9.8955231 -0.19354719
-4.624722 -9.1434984 2.7455525
-3.6709542 -7.2358465 -2.1740801
-4.9858813 -9.8234596 0.19229062
-4.4431834 -8.7504225 -2.265707
-10.947006 -21.549759 1.2667396
-5.0335402 -9.9087887 -2.1603396
-11.439489 -22.509508 2.2090495
-5.0448232 -9.9224215 -1.7630166
-11.205625 -22.030289 3.0347905
-5.0335026 -9.8916082 -1.362743
-5.0419874 -9.9040051 -0.97230941
-4.6082182 -9.0480433 1.9737284
-5.0305762 -9.8730583 -0.58071983
-4.4117866 -8.6548862 2.2427619
-5.0574212 -9.9171925 -0.19431511
-4.64081 -9.096323 2.7362351
-3.7278717 -7.2848992 -2.1927149
-5.0328989 -9.8309155 0.19277929
-4.4550457 -8.6984348 -2.2562592
-11.074987 -21.61451 1.2728106
-5.0591455 -9.8736858 -2.1565235
-11.550713 -22.533266 2.2153246
-5.070415 -9.8871746 -1.7598881
-11.278832 -21.983974 3.0338156
-5.0861297 -9.9092979 -1.3676178
-4.7011247 -9.1552601 1.6300472
-5.0719786 -9.8774834 -0.97143793
-4.4307499 -8.6250114 1.8848113
-5.1015244 -9.9264946 -0.5849067
-4.3626666 -8.4851904 2.2027209
-5.0755439 -9.8674698 -0.19368681
-4.6742997 -9.0835037 2.7372704
-3.7594805 -7.2838593 -2.1963384
-5.0708551 -9.8203955 0.19291891
-11.12286 -21.522488 1.2696704
-5.0313869 -9.7356215 -2.1301918
-11.470081 -22.184862 2.1849945
-5.1303077 -9.9185429 -1.7686483
-11.333608 -21.902159 3.0279658
-5.1115627 -9.8738556 -1.3651805
-4.6740046 -9.0247784 1.6097109
-5.1238356 -9.8933334 -0.97474986
-4.4635401 -8.6147232 1.8859563
-5.112246 -9.862524 -0.58218521
-4.3940525 -8.4733686 2.2036204
-5.1136413 -9.8567934 -0.19382644
-4.7202177 -9.0945683 2.7455525
-3.7652586 -7.2329936 -2.1849504
-5.1014066 -9.7955399 0.19277929
-11.196074 -21.479988 1.269461
-5.1206937 -9.8241978 -2.1534703
-11.541924 -22.134087 2.1839485
-5.153935 -9.8795567 -1.7648939
-11.424687 -21.890621 3.0318656
-5.1864238 -9.9333792 -1.375905
-5.1472697 -9.8541956 -0.9726581
-4.54814 -8.7034893 1.9088533
-5.1614466 -9.8729382 -0.58385998
-4.423604 -8.4579792 2.2036204
-5.1684117 -9.877862 -0.19459434
-4.6614475 -8.9051695 2.6932709
-3.8012581 -7.2403321 -2.1911621
-5.14115 -9.7882948 0.19298871
-4.4090133 -8.3908186 -2.188324
-11.283991 -21.465528 1.2709265
-5.1458182 -9.788887 -2.1496544
-11.648793 -22.150093 2.1895266
-5.1920691 -9.8684988 -1.7661453
-11.469589 -21.790884 3.0235786
-5.1877699 -9.8519812 -1.3671304
-5.1927791 -9.8573208 -0.97474986
-4.5492029 -8.6319828 1.8966415
-5.1902895 -9.8442602 -0.58323193
-4.4494638 -8.4355907 2.2018209
-5.2327251 -9.9163551 -0.19571128
-4.6275687 -8.7658377 2.6560011
-3.8228927 -7.2201896 -2.1890914
-5.1846442 -9.7879601 0.19333775
-4.555985 -8.5975037 -2.246361
-11.328921 -21.369539 1.2675769
-5.1781197 -9.7673941 -2.148891
-11.503857 -21.690382 2.1480405
-5.1811156 -9.7648134 -1.7508147
-11.554897 -21.768246 3.0260162
-5.1923332 -9.77771 -1.3593308
-4.8646388 -9.156764 1.6422491
-5.2019181 -9.7916279 -0.97004336
-4.4715037 -8.4132175 1.8519921
-5.1852398 -9.752017 -0.57883573
-4.5008473 -8.4612999 2.2126186
-5.1883969 -9.7497435 -0.19277929
-4.6563239 -8.7462206 2.6549659
-3.8589916 -7.2272506 -2.1953032
-5.206531 -9.7468739 0.19288401
-4.6006646 -8.6090479 -2.2535596
-11.256543 -21.055096 1.2512481
-5.2917848 -9.8981571 -2.1817102
-11.562587 -21.618469 2.1449027
-11.627059 -21.720779 3.0250411
-5.2592349 -9.8207741 -1.3678616
-16.514389 -30.825031 5.5387192
-5.2379479 -9.7769222 -0.97039205
-4.5156813 -8.4252443 1.8580981
-5.2211366 -9.7373781 -0.57904506
-4.5745721 -8.5279655 2.2342138
-5.2205052 -9.7280512 -0.19270948
-4.6923079 -8.7401257 2.6580718
-3.8768694 -7.2001286 -2.1911621
-5.2547479 -9.7550478 0.19340758
-4.6362348 -8.6032276 -2.2562592
-11.312911 -20.984032 1.2493641
-5.3002167 -9.8312378 -2.1710248
-11.7004 -21.693712 2.1564074
-5.3007522 -9.8240194 -1.7680227
-11.584004 -21.459957 2.9943302
-5.3246088 -9.8599968 -1.375905
-16.126125 -29.849556 5.3735247
-5.3013992 -9.8129215 -0.97579563
-5.0454059 -9.3351746 2.0626454
-5.3234887 -9.8455896 -0.58658141
-4.5292101 -8.3731098 2.1977718
-4.7283072 -8.7338877 2.6611776
-3.9277892 -7.2340884 -2.2056561
-5.2906761 -9.74016 0.19347738
-4.6643763 -8.5835676 -2.2553592
-11.399446 -20.968979 1.2508295
-5.328876 -9.8023272 -2.168735
-11.953111 -21.978291 2.1888292
-5.3482289 -9.8297491 -1.7724028
-11.763231 -21.611181 3.0211413
-5.3400078 -9.8064833 -1.3710303
-16.241562 -29.813898 5.3772788
-5.3470578 -9.8153515 -0.97788739
-5.0732613 -9.3088884 2.0607371
-5.3540001 -9.8199339 -0.58616281
-5.351511 -9.8072224 -0.1950132
-4.9651856 -9.095458 2.7766109
-3.9502347 -7.2152514 -2.2041032
-5.3246441 -9.721633 0.19347738
-4.5828757 -8.363862 -2.2018209
-11.507133 -20.992109 1.2545977
-5.3923154 -9.8370352 -2.1805654
-11.76343 -21.450781 2.1403706
-5.3730073 -9.7937002 -1.769274
-11.928378 -21.73357 3.0440526
-5.3952255 -9.8260641 -1.3763925
-16.93708 -30.833935 5.5718832
-5.3793693 -9.7931347 -0.97753882
-5.3959432 -9.8151865 -0.58700013
-5.3857145 -9.7884808 -0.1950132
-5.0406857 -9.1576157 2.8009398
-3.9921997 -7.2318606 -2.2134204
-5.3604798 -9.7064877 0.19354719
-4.7364383 -8.5729685 -2.2612078
-11.561017 -20.916853 1.2525042
-5.4095259 -9.7872238 -2.173696
-12.229661 -22.117485 2.2111411
-5.4454083 -9.8440275 -1.7817887
-12.146425 -21.948858 3.080126
-5.4141083 -9.7793837 -1.3724926
-16.646467 -30.055763 5.44173
-5.4212437 -9.7882404 -0.97893327
-5.416616 -9.7718353 -0.58553475
-4.6024685 -8.2996578 2.1910233
-5.4217877 -9.773119 -0.19508299
-5.0894957 -9.1703682 2.8102574
-4.0286956 -7.2381368 -2.2196321
-5.398221 -9.694706 0.19368681
-4.7701287 -8.5631933 -2.2630076
-11.616461 -20.844967 1.2506201
-5.4398341 -9.7614222 -2.1721697
-12.18843 -21.862354 2.1898751
-5.4508715 -9.7732029 -1.7724028
-12.182343 -21.833515 3.0698888
-5.4636927 -9.7881594 -1.3763925
-16.094442 -28.821234 5.228353
-5.4514933 -9.7622995 -0.97823608
-5.4643345 -9.777277 -0.58700013
-5.4617267 -9.7646055 -0.19529243
-5.216754 -9.3228188 2.8625388
-4.0492082 -7.2156067 -2.2170439
-5.4398603 -9.6897526 0.19396605
-4.8028541 -8.5515881 -2.2643573
-11.687477 -20.809813 1.2508295
-5.4623327 -9.7218351 -2.1675904
-12.167045 -21.645994 2.1724439
-5.5101271 -9.7988844 -1.7805374
-12.31688 -21.894665 3.0845134
-5.4786029 -9.7388439 -1.3720052
-16.248056 -28.870993 5.2471251
-5.5031304 -9.7744598 -0.98137361
-16.697905 -29.646107 6.613822
-5.4945083 -9.7511826 -0.58658141
-4.7392139 -8.4107504 2.2288151
-5.48033 -9.7220526 -0.19480376
-4.887044 -8.6660318 2.6658361
-4.0731139 -7.2021394 -2.2170439
-5.4699941 -9.6681795 0.19389623
-4.4587421 -7.8775945 -2.0897954
-11.750514 -20.760515 1.2502015
-5.5061502 -9.7241688 -2.1721697
-12.144486 -21.439104 2.15571
-5.5153217 -9.7324371 -1.7717769
-12.166199 -21.459974 3.0289409
-5.5343623 -9.7620697 -1.3778549
-5.5276484 -9.7422943 -0.97997916
-5.5287881 -9.7363825 -0.5867908
-5.5382209 -9.7490311 -0.19571128
-4.9205275 -8.6581764 2.6684244
-4.0721045 -7.1449542 -2.2035854
-5.5040035 -9.6534615 0.19396605
-4.8710485 -8.5398588 -2.2697561
-11.848647 -20.764471 1.2529229
-5.5646377 -9.751895 -2.1824734
-12.284653 -21.519838 2.1679118
-5.5475631 -9.7140942 -1.7717769
-12.410609 -21.72287 3.0718389
-5.564467 -9.735796 -1.3768799
-16.693245 -29.195301 5.3265944
-5.5658565 -9.7342892 -0.98102504
-18.163336 -31.753527 7.1106887
-5.5749321 -9.7422628 -0.58825624
-5.0345259 -8.7943363 2.3394909
-5.5662551 -9.7192287 -0.19550186
-4.1027946 -7.1407466 -2.2066913
-5.5376673 -9.6341906 0.19396605
-4.9115148 -8.5413876 -2.2747052
-11.972844 -20.813013 1.2583659
-5.6143079 -9.7596397 -2.1885793
-11.888643 -20.658298 2.0852883
-5.585381 -9.701519 -1.7730285
-13.237347 -22.983313 3.256593
-5.6003976 -9.7197542 -1.3773675
-17.027874 -29.540745 5.4004316
-5.5958242 -9.7078943 -0.98032773
-10.944039 -18.97858 4.2584753
-5.5949311 -9.6985254 -0.5867908
-5.0651937 -8.7767086 2.3394909
-5.6021476 -9.7032032 -0.19557166
-4.9905138 -8.6403446 2.6736009
-4.1460929 -7.158144 -2.2165263
-5.5772786 -9.6251831 0.19417547
-4.9393454 -8.5208187 -2.2738054
-11.843029 -20.422085 1.2372222
-5.6069756 -9.6686525 -2.1725514
-12.038667 -20.751097 2.0988846
-5.6449924 -9.7263832 -1.7811631
-12.643694 -21.776468 3.0918255
-5.6342921 -9.7001457 -1.3773675
-17.105078 -29.436722 5.3922968
-5.6396852 -9.7055302 -0.98207092
-11.006274 -18.933474 4.2569489
-5.634778 -9.6892929 -0.58741885
-5.1153965 -8.7926636 2.348489
-5.6379938 -9.687047 -0.19564149
-5.041059 -8.6579285 2.6844714
-4.1691065 -7.1402912 -2.2154911
-5.6148772 -9.6125631 0.19431511
-4.969059 -8.5035257 -2.2738054
-11.78724 -20.163364 1.2240335
-5.6129498 -9.6015644 -2.1618662
-12.905623 -22.067642 2.2365906
-5.650979 -9.6588793 -1.7724028
-12.73367 -21.756184 3.0952377
-5.6620998 -9.6701412 -1.375905
-17.147821 -29.274565 5.3735247
-5.6715155 -9.6823473 -0.9817223
-17.20648 -29.362957 6.6153483
-5.666543 -9.6661205 -0.58720946
-5.6737976 -9.6707563 -0.19571128
-5.0771155 -8.6502771 2.6875772
-4.1623921 -7.074811 -2.1994443
-5.6507812 -9.6007833 0.19445471
-5.0110736 -8.5105104 -2.2801039
-11.59555 -19.685335 1.197342
-5.6298122 -9.5575237 -2.1561418
-12.657072 -21.47887 2.1811595
-5.7110667 -9.6877337 -1.7811631
-12.795662 -21.696739 3.0928004
-5.7102752 -9.6786671 -1.3798048
-6.6659837 -11.294046 2.077137
-5.699542 -9.6566229 -0.98102504
-17.241869 -29.20092 6.5916877
-5.7270083 -9.6954269 -0.59014034
-4.9044738 -8.2996254 2.2256656
-5.6976953 -9.6381178 -0.19543205
-5.1156068 -8.6500216 2.6927533
-4.1811514 -7.0502677 -2.1963384
-5.6801786 -9.5741205 0.19431511
-5.0586514 -8.5231323 -2.2882023
-11.703961 -19.711718 1.2014244
-5.6821842 -9.5698881 -2.1633925
-12.817439 -21.578447 2.1958017
-5.7307196 -9.6439667 -1.7767829
-12.903781 -21.706545 3.1006
-5.7379379 -9.6484385 -1.3783424
-6.7215261 -11.297871 2.0821428
-5.7495136 -9.6640644 -0.98381394
-17.407959 -29.248529 6.6161113
-5.7403808 -9.6410532 -0.58804685
-5.7497292 -9.6490898 -0.19606033
-4.2463751 -7.1036162 -2.2175617
-5.7115092 -9.5508032 0.19424528
-5.0893745 -8.5070925 -2.2886522
-11.848594 -19.797565 1.2091701
-5.823432 -9.7302494 -2.2042258
-12.9459 -21.622467 2.2048659
-5.7785611 -9.6476269 -1.7811631
-13.12844 -21.909979 3.1361859
-5.7838297 -9.6487818 -1.3812673
-17.0359 -28.408627 5.2465
-5.7920713 -9.6548872 -0.98503423
-17.513988 -29.194321 6.6176381
-5.7863336 -9.6415071 -0.5893029
-4.9612937 -8.2635126 2.2252157
-5.7833762 -9.6289606 -0.19606033
-7.7837057 -12.954263 4.0494828
-4.2833524 -7.1062036 -2.2232556
-5.7551355 -9.5479345 0.19459434
-5.0526214 -8.3791351 -2.2589586
-11.884615 -19.701359 1.2058206
-5.8154402 -9.6365595 -2.1878161
-13.025064 -21.574873 2.2048659
-5.7995858 -9.6027098 -1.7767829
-13.120687 -21.724682 3.1161995
-5.7928376 -9.5877552 -1.3754175
-17.045036 -28.200222 5.2189674
-5.8185215 -9.6226749 -0.98381394
-17.637131 -29.156807 6.6237435
-5.8092237 -9.5997295 -0.58804685
-4.9854932 -8.2352715 2.2225163
-5.8169522 -9.6087141 -0.19606033
-5.0868192 -8.3993368 2.6311545
-4.311141 -7.0961618 -2.2248087
-5.7984033 -9.5404463 0.19487357
-5.1582165 -8.483778 -2.2922513
-11.923223 -19.610262 1.202785
-5.858222 -9.6312981 -2.1912506
-13.131371 -21.580334 2.2100954
-5.839231 -9.5925322 -1.7786602
-7.155066 -11.749534 1.6891092
-5.8547921 -9.6105366 -1.3817548
-16.900835 -27.742418 5.1451306
-5.8520751 -9.6023054 -0.98381394
-17.630463 -28.917385 6.5832925
-5.8530979 -9.5964441 -0.58909357
-16.176409 -26.511612 7.1700902
-5.8421254 -9.5746946 -0.1957811
-5.1412687 -8.4227543 2.6440954
-4.3379025 -7.0843644 -2.2258439
-5.8320947 -9.5245771 0.19494337
-5.1761422 -8.4500084 -2.2877522
-12.021867 -19.617908 1.2058206
-5.8753891 -9.5840111 -2.1851447
-12.581649 -20.51531 2.1055083
-5.8895979 -9.603426 -1.7842916
-7.1524658 -11.658061 1.6793597
-5.8824763 -9.584301 -1.3807799
-13.142232 -21.404232 3.9781287
-5.8959846 -9.5987988 -0.98555714
-17.644058 -28.724932 6.552763
-5.8786159 -9.5667725 -0.58846557
-16.296886 -26.510952 7.1844869
-5.9174123 -9.6223783 -0.19717729
-5.1908855 -8.4376631 2.6544483
-4.3593435 -7.0666523 -2.2248087
-5.8590064 -9.4939518 0.19473396
-5.1646585 -8.3655615 -2.2697561
-12.090275 -19.575823 1.2058206
-5.910234 -9.5694847 -2.1862895
-12.687313 -20.534496 2.1117837
-5.9147754 -9.5693665 -1.7817887
-7.1711936 -11.597568 1.6742412
-5.9284253 -9.5839691 -1.3837045
-17.125277 -27.674147 5.1545162
-5.9084806 -9.5442772 -0.98207092
-16.123875 -26.045736 5.9543858
-5.9245911 -9.5665712 -0.58972162
-5.0453992 -8.1437397 2.2117188
-5.9298964 -9.5676689 -0.19647919
-5.1989269 -8.3850145 2.6435778
-4.3872547 -7.0539074 -2.2258439
-5.9111199 -9.5040054 0.19536224
-5.1372061 -8.2564793 -2.2450116
-12.226081 -19.642021 1.2125195
-5.9110222 -9.4927616 -2.173696
-13.255502 -21.279295 2.1933613
-5.9602571 -9.5643883 -1.7849175
-12.820098 -20.572334 2.9762933
-5.9576435 -9.5564775 -1.3827296
-13.107365 -21.016962 3.923064
-5.9565253 -9.5472603 -0.98451126
-16.117359 -25.823248 5.9169874
-5.9511523 -9.5312395 -0.58888423
-5.0628228 -8.10536 2.20632
-6.0013938 -9.6079712 -0.19773577
-5.2250953 -8.3618984 2.6420248
-4.4180074 -7.0483723 -2.2289498
-5.9459147 -9.482276 0.19536224
-5.1912513 -8.2755632 -2.2553592
-12.351882 -19.690588 1.2181718
-5.9482965 -9.4787216 -2.1752226
-12.865709 -20.493803 2.117013
-5.9873037 -9.5334873 -1.7830403
-12.89119 -20.518484 2.9753184
-5.9989681 -9.5446625 -1.3841921
-13.153317 -20.927595 3.9149294
-5.9792104 -9.5095425 -0.98276818
-16.259666 -25.849922 5.9360681
-6.0035329 -9.5408344 -0.59076834
-5.120153 -8.1338148 2.2189171
-5.9965439 -9.5260401 -0.19647919
-5.257339 -8.3485146 2.6435778
-4.4487748 -7.0427065 -2.2320557
-5.9901428 -9.4827948 0.1957811
-5.1322603 -8.1215706 -2.2180173
-12.429079 -19.660858 1.2190093
-5.9719038 -9.4429674 -2.1717882
-13.220517 -20.896637 2.1633797
-6.0252213 -9.5235968 -1.7849175
-7.1648545 -11.320551 1.6449926
-6.0327101 -9.5280695 -1.3846796
-13.236859 -20.898243 3.9180582
-6.0059705 -9.4785156 -0.9817223
-6.0330005 -9.5174999 -0.59055901
-5.1397929 -8.1052713 2.2157679
-6.0597529 -9.5523291 -0.19745652
-5.2957649 -8.3447914 2.6482365
-4.4721031 -7.0279164 -2.2320557
-6.0232053 -9.4618292 0.1957811
-5.2474608 -8.240036 -2.2553592
-12.590765 -19.771152 1.2284297
-5.9968557 -9.4131775 -2.1694984
-13.229772 -20.758595 2.1536183
-6.0573673 -9.5008411 -1.7846047
-12.94836 -20.301388 2.9565504
-6.0744748 -9.5203419 -1.3866295
-13.36559 -20.947489 3.9355788
-6.0287933 -9.4451113 -0.98032773
-17.775 -27.83679 6.4199595
-6.0855398 -9.526679 -0.59244311
-5.2708902 -8.2482042 2.2598584
-6.0741682 -9.5052223 -0.19689806
-5.3182054 -8.3190451 2.6456482
-4.5028648 -7.0220199 -2.2351615
-6.0631843 -9.4552689 0.19606033
-5.3031673 -8.2668762 -2.2675066
-12.912113 -20.120415 1.2529229
-6.0370998 -9.4037533 -2.1721697
-13.263397 -20.651932 2.1473432
-6.0931096 -9.4873495 -1.785856
-13.92874 -21.6796 3.1639721
-6.1103034 -9.5068264 -1.3876045
-17.543186 -27.284403 5.1376214
-6.0660381 -9.4307117 -0.98102504
-17.610193 -27.378109 6.3276086
-6.1106133 -9.4963694 -0.59181505
-5.2887206 -8.2159328 2.2558093
-6.1289644 -9.5175858 -0.19759615
-4.5355601 -7.0216537 -2.23982
-6.1004944 -9.4407654 0.19619995
-5.2145596 -8.0666561 -2.2175674
-13.403083 -20.725946 1.2935356
-6.1119614 -9.451273 -2.1878161
-6.9986839 -10.818321 1.1272724
-6.1315536 -9.4743156 -1.7874204
-13.007493 -20.091137 2.9387574
-6.1412959 -9.4821062 -1.387117
-13.543725 -20.903406 3.9449646
-6.1102767 -9.4306107 -0.98311675
-6.1285124 -9.45152 -0.59034967
-5.3300915 -8.217041 2.2612078
-6.1577959 -9.4894238 -0.19745652
-18.846518 -29.032185 9.2745228
-4.556881 -7.0009212 -2.2382672
-6.1355934 -9.4227648 0.19626977
-5.1480217 -7.9030795 -2.1775262
-13.054446 -20.033127 1.2531322
-6.0698857 -9.3147411 -2.1611028
-7.0733976 -10.850573 1.133199
-6.1775393 -9.4727087 -1.7911749
-13.07754 -20.045614 2.9387574
-6.1786938 -9.4672613 -1.3880919
-13.590698 -20.816301 3.9374561
-6.1409831 -9.4058857 -0.98276818
-6.1723895 -9.4467907 -0.59139633
-16.981441 -25.980038 7.1655908
-6.2040153 -9.4879551 -0.19787538
-5.6630645 -8.6573715 2.7719519
-4.5844698 -6.9898181 -2.23982
-6.1772242 -9.4146652 0.196549
-5.258985 -8.0121346 -2.2126186
-13.391782 -20.3948 1.2786722
-6.1810269 -9.4132957 -2.1889608
-13.932586 -21.210339 2.2202053
-6.2235832 -9.4708996 -1.7949294
-13.437491 -20.441076 3.0035923
-6.2051597 -9.4356842 -1.3866295
-13.424423 -20.405678 3.8686249
-6.1737757 -9.3843946 -0.98276818
-18.111778 -27.520189 6.4039316
-6.2163129 -9.4418678 -0.59244311
-5.3605309 -8.1389437 2.2499604
-6.2414956 -9.4729214 -0.198015
-17.456118 -26.483646 8.4990997
-4.5992551 -6.9592681 -2.2351615
-6.2210784 -9.4097261 0.19689806
-5.3051968 -8.0213594 -2.2202671
-13.738411 -20.764349 1.3048402
-6.2311816 -9.41786 -2.1950669
-12.82769 -19.380527 2.0333436
-6.2478809 -9.4359407 -1.7924262
-13.21936 -19.957138 2.9392452
-6.2577963 -9.4437532 -1.3910168
-13.458463 -20.302711 3.8579872
-6.2042947 -9.3594646 -0.98241949
-6.2646885 -9.4434137 -0.59390849
-5.3975291 -8.133172 2.2535596
-6.263464 -9.4344168 -0.19766594
-16.488213 -24.826162 7.9856033
-4.6181655 -6.9351306 -2.2325733
-6.2405829 -9.3679819 0.19647919
-5.391521 -8.0903616 -2.2445617
-13.87728 -20.815975 1.3111205
-6.2661958 -9.3993187 -2.1958301
-12.968225 -19.445032 2.044848
-6.2939358 -9.4337921 -1.7961807
-7.4020929 -11.090582 1.637193
-6.2863135 -9.415247 -1.3900418
-13.641162 -20.423159 3.8899
-6.2485194 -9.3515711 -0.98398834
-18.240206 -27.298401 6.3817983
-6.2909546 -9.4115248 -0.59328043
-5.5439577 -8.2908545 2.302599
-6.309701 -9.4324417 -0.19808482
-16.523207 -24.691387 7.9607563
-4.6489353 -6.9261794 -2.2351615
-6.2843885 -9.3627472 0.19682825
-5.4534054 -8.1216459 -2.2585087
-7.0294991 -10.464943 0.66068918
-6.2962246 -9.369771 -2.1943038
-7.1593909 -10.650283 1.1227403
-6.3218565 -9.4008255 -1.7943035
-13.365011 -19.874247 2.9407074
-6.3280058 -9.4064236 -1.3919919
-13.48076 -20.031267 3.8241973
-6.2900262 -9.342926 -0.9853828
-17.120604 -25.420605 5.9574389
-6.3343353 -9.4016542 -0.59411782
-5.4958887 -8.15413 2.270206
-6.3470583 -9.4169912 -0.19822444
-16.41057 -24.338837 7.8655109
-4.676332 -6.9147091 -2.2367141
-6.3231444 -9.3462744 0.19696786
-5.3083749 -7.8433843 -2.1865242
-13.943903 -20.602802 1.3037934
-6.2881684 -9.2875853 -2.1801836
-12.899219 -19.044905 2.0124259
-6.3701458 -9.4015951 -1.7986836
-13.491226 -19.904001 2.9524071
-6.3557553 -9.3733091 -1.3905294
-13.690287 -20.190092 3.8636191
-6.3259563 -9.3258581 -0.98590571
-14.201945 -20.928944 4.9163847
-6.367115 -9.379487 -0.59411782
-5.5122762 -8.1171627 2.2652571
-6.3821383 -9.3980875 -0.19829424
-16.517141 -24.313368 7.875864
-4.6928244 -6.8871684 -2.2330909
-6.3698673 -9.3483896 0.19745652
-5.5088739 -8.0817642 -2.2580585
-13.93247 -20.431894 1.2960478
-6.3039522 -9.2412519 -2.1744595
-12.900483 -18.90431 2.002316
-6.3923807 -9.3673658 -1.7961807
-13.557158 -19.859154 2.9524071
-6.4069524 -9.3816891 -1.3949165
-13.604676 -19.913832 3.8198173
-6.3719621 -9.3234587 -0.98799747
-14.187081 -20.758547 4.8873816
-6.4162202 -9.3847008 -0.59579259
-5.5490651 -8.1133156 2.2693062
-6.4194217 -9.3823538 -0.19843386
-16.612822 -24.271503 7.8810401
-4.7221956 -6.8811259 -2.2361965
-6.3979344 -9.3195047 0.19731691
-5.4344501 -7.9130926 -2.2162178
-14.028584 -20.419355 1.2983505
-6.3801441 -9.2866411 -2.1901057
-12.972132 -18.874565 2.0037105
-6.442945 -9.3710413 -1.8011867
-13.608392 -19.785542 2.9485071
-6.4396639 -9.3592663 -1.3949165
-13.980986 -20.312065 3.9055433
-6.3949375 -9.2907887 -0.98677731
-14.217148 -20.647451 4.8728805
-6.4534717 -9.3688259 -0.59621125
-6.4725623 -9.3895235 -0.19906214
-17.011106 -24.668211 8.0290852
-4.7505817 -6.8709564 -2.2382672
-6.4281516 -9.2938251 0.1972471
-5.5274601 -7.9886241 -2.2427619
-14.236178 -20.567327 1.3109111
-6.4080515 -9.2578564 -2.1885793
-7.29421 -10.534179 1.1209971
-6.4666171 -9.3355017 -1.7986836
-13.718077 -19.796658 2.9572816
-6.4768162 -9.343257 -1.3958915
-13.900964 -20.045622 3.8636191
-6.4330068 -9.2765951 -0.9876489
-14.217515 -20.494461 4.8484569
-6.4975209 -9.3626518 -0.59725797
-6.4984555 -9.3570194 -0.19885273
-16.927362 -24.364353 7.9493685
-4.7557659 -6.8273835 -2.2294674
-6.4788461 -9.2975798 0.19780558
-5.393723 -7.7374768 -2.1775262
-12.891265 -18.486073 1.181118
-6.3999014 -9.1774588 -2.1748412
-7.3286572 -10.505385 1.1206485
-6.4471631 -9.2383566 -1.7842916
-14.000729 -20.054657 3.0031047
-6.5230331 -9.3401203 -1.3988165
-13.921067 -19.925728 3.8498526
-6.4790397 -9.2736845 -0.98974061
-14.466661 -20.698961 4.9087524
-6.532454 -9.3431864 -0.5974673
-20.635008 -29.502722 8.3119411
-6.5379543 -9.3441095 -0.19906214
-17.442131 -24.919197 8.1502123
-4.7862272 -6.8202286 -2.2325733
-6.5158577 -9.281455 0.19794521
-5.4072595 -7.6994648 -2.1721272
-7.3160067 -10.413488 0.66696948
-6.4601135 -9.1952238 -2.1843815
-7.3607001 -10.473219 1.1199512
-6.5407238 -9.3030577 -1.8011867
-14.143735 -20.109577 3.0187037
-6.5441713 -9.3010597 -1.396379
-14.108783 -20.045012 3.882391
-6.5136647 -9.2542696 -0.99008924
-14.570474 -20.693285 4.9194379
-6.5581255 -9.3105316 -0.59683931
-20.030703 -28.426929 8.0285034
-6.5636215 -9.3114233 -0.19885273
-17.277395 -24.501356 8.033226
-4.8199682 -6.820097 -2.2377496
-6.5696888 -9.2924528 0.1986433
-5.4518919 -7.7085385 -2.1797757
-13.635107 -19.271812 1.2372222
-6.4769635 -9.1545181 -2.1798022
-13.102215 -18.511774 1.9841876
-6.5920844 -9.3103352 -1.8068182
-14.267713 -20.14356 3.0308907
-6.6071138 -9.3246593 -1.4032037
-14.115776 -19.91431 3.8661218
-6.5431652 -9.2309933 -0.98991495
-7.73457 -10.907772 2.5992002
-6.5982089 -9.3017645 -0.59767663
-17.986629 -25.347111 7.1754885
-6.5921454 -9.2863455 -0.19878291
-17.005093 -23.946196 7.8696523
-4.8415036 -6.8000822 -2.2367141
-6.6044059 -9.2727213 0.19871311
-5.5522676 -7.7926226 -2.2090194
-7.6232061 -10.695235 0.68832254
-6.5020423 -9.122261 -2.1775124
-13.21071 -18.527571 1.9908115
-6.617661 -9.2776184 -1.8049411
-14.40251 -20.184122 3.0445402
-6.6303964 -9.2886133 -1.4012538
-14.534182 -20.353621 3.9612339
-6.5753484 -9.2080965 -0.98991495
-7.8250923 -10.954191 2.6167548
-6.6283159 -9.275425 -0.5974673
-7.8027692 -10.914886 3.0975759
-6.6384797 -9.2827969 -0.19920176
-17.392065 -24.310907 8.0094147
-4.8573279 -6.7721529 -2.2330909
-6.6390624 -9.252861 0.19878291
-5.4760299 -7.6291275 -2.1680782
-13.708742 -19.091791 1.2317792
-6.5418615 -9.110672 -2.1801836
-12.928915 -17.999125 1.9388665
-6.6569219 -9.2640867 -1.8068182
-14.607284 -20.320702 3.0728137
-6.6836405 -9.2944221 -1.4056411
-14.845079 -20.636307 4.0263109
-6.6179218 -9.1996441 -0.99148369
-7.8839245 -10.955495 2.6236238
-6.6723223 -9.2684412 -0.59851408
-7.5629487 -10.501733 2.9877999
-6.6708422 -9.2595673 -0.19920176
-17.59429 -24.413044 8.0632486
-4.8809376 -6.7551565 -2.2330909
-6.6806951 -9.2425938 0.19906214
-5.4147019 -7.4883714 -2.1334357
-14.859251 -20.542339 1.3287053
-6.5586648 -9.0671005 -2.1752226
-12.989333 -17.950655 1.9385179
-6.7008004 -9.2567968 -1.809947
-14.584986 -20.140965 3.0533147
-6.6997399 -9.2485285 -1.4022288
-14.634193 -20.194077 3.9499707
-6.6640244 -9.1958475 -0.99357545
-14.84288 -20.474525 4.9156218
-6.7022901 -9.2418594 -0.59830469
-7.6110048 -10.491043 2.9922991
-6.71487 -9.2524099 -0.19955082
-16.719217 -23.028933 7.6253271
-4.902215 -6.7349539 -2.2320557
-6.7176232 -9.2256851 0.19920176
-5.480969 -7.5245552 -2.1491826
-13.676099 -18.775251 1.2173344
-6.614553 -9.0774736 -2.1832366
-13.457985 -18.462278 1.9988298
-6.7330747 -9.2333479 -1.809947
-14.533534 -19.923143 3.0279658
-6.744411 -9.2455053 -1.4051536
-6.7031326 -9.1821852 -0.99462134
-15.018467 -20.565285 4.9499674
-6.7580709 -9.2506638 -0.60039812
-6.733716 -9.2139463 -0.19920176
-16.870743 -23.07629 7.6594911
-4.9005384 -6.6859393 -2.2211852
-6.7458158 -9.2001324 0.19913197
-5.5312457 -7.5409088 -2.1590803
-7.7090306 -10.509946 0.68308902
-6.6388125 -9.047575 -2.1813285
-13.429534 -18.295481 1.9855821
-6.7823629 -9.2364445 -1.8149529
-18.36721 -25.003935 3.8093922
-6.7679806 -9.2134914 -1.4036912
-14.816929 -20.163433 3.9631112
-6.7382646 -9.1663265 -0.99531853
-15.070293 -20.493227 4.9446244
-6.7839766 -9.2217674 -0.59997946
-22.223661 -30.209631 8.6583662
-6.7997913 -9.2398834 -0.20024893
-17.407589 -23.64562 7.8675814
-4.9192419 -6.6649885 -2.2196321
-6.8000431 -9.2098866 0.19983006
-5.5782204 -7.5523076 -2.1676283
-13.288465 -17.984577 1.1719068
-6.6769457 -9.036562 -2.1839998
-13.307752 -18.004105 1.9587381
-6.7988605 -9.1948452 -1.8111985
-15.678215 -21.195631 3.2370939
-6.8119082 -9.2057676 -1.4061285
-21.945929 -29.647406 5.8422022
-6.7781057 -9.156744 -0.9967131
-17.703842 -23.907919 5.7826576
-6.8216529 -9.208849 -0.60060751
-18.226345 -24.595558 7.067512
-6.8272381 -9.2096663 -0.20010929
-17.294397 -23.320919 7.779583
-4.9401717 -6.6446762 -2.2185969
-6.8202162 -9.1700478 0.19948101
-5.5766306 -7.4952664 -2.1568308
-13.389322 -17.989353 1.1752564
-6.710793 -9.0163507 -2.1847632
-13.320544 -17.890425 1.9514171
-6.8497949 -9.1964035 -1.8162043
-7.7793889 -10.440656 1.5986823
-6.8534923 -9.1946669 -1.4080786
-22.198069 -29.770155 5.8816237
-6.8171744 -9.1426115 -0.99775898
-17.838839 -23.915215 5.799449
-6.8585343 -9.1913843 -0.60102618
-8.0935001 -10.842461 3.1236703
-6.8545599 -9.1793671 -0.19996966
-17.253141 -23.096357 7.7247133
-4.9714413 -6.638216 -2.2222204
-6.8689699 -9.1685896 0.19996966
-5.5618558 -7.4211755 -2.1410842
-13.404113 -17.878584 1.1710695
-6.7222047 -8.9661665 -2.1782756
-13.485718 -17.980892 1.9664078
-6.8699999 -9.1566362 -1.8130757
-7.7395225 -10.311826 1.5830829
-6.8783941 -9.1611624 -1.4066161
-6.8586183 -9.1315041 -0.99915344
-18.101467 -24.091377 5.8574548
-6.8881764 -9.1641941 -0.60081685
-18.517061 -24.626589 7.1134024
-6.9154086 -9.1937408 -0.20080739
-17.231443 -22.900148 7.6791615
-5.0097089 -6.6408701 -2.2289498
-6.9033422 -9.1477499 0.20003949
-5.6029911 -7.4219356 -2.1469328
-13.514586 -17.895439 1.1752564
-6.719151 -8.8972139 -2.1672087
-13.704532 -18.140373 1.9890683
-6.899538 -9.129447 -1.8124499
-14.285557 -18.895746 2.908534
-6.9175158 -9.146596 -1.4080786
-18.760723 -24.797127 4.9248705
-6.9072814 -9.1297512 -1.0015938
-18.166494 -24.002996 5.8513494
-6.9442358 -9.1719408 -0.60291028
-18.741749 -24.745111 7.1664906
-6.9377971 -9.1567936 -0.20052816
-18.907623 -24.946024 8.38729
-5.0270138 -6.6156521 -2.2263615
-6.9473329 -9.1395149 0.20038854
-5.6713285 -7.4581747 -2.1631293
-13.717234 -18.032553 1.1873983
-6.77988 -8.9127693 -2.1767492
-13.912556 -18.282688 2.0099857
-6.9672599 -9.1524611 -1.821836
-13.911253 -18.267742 2.8193257
-6.9566193 -9.1318684 -1.409541
-18.681934 -24.514668 4.8816943
-6.9511843 -9.1214314 -1.0033369
-19.104773 -25.06045 6.1253505
-6.9544086 -9.1190586 -0.60102618
-19.02895 -24.942928 7.2429743
-6.9697185 -9.1325207 -0.20052816
-18.891428 -24.744747 8.3417387
-5.0406847 -6.5857906 -2.2222204
-6.9767604 -9.1120358 0.20031872
-5.6582222 -7.38728 -2.1482825
-15.126041 -19.741159 1.3033748
-6.8157287 -8.8952808 -2.1782756
-15.760439 -20.561695 2.2665722
-6.9895473 -9.1155453 -1.819333
-19.17491 -24.99826 3.868377
-7.0005374 -9.1232777 -1.4119784
-18.651924 -24.298876 4.8516593
-6.9926877 -9.1097555 -1.0047314
-19.158657 -24.950008 6.1146655
-7.0202656 -9.1390762 -0.603957
-18.980539 -24.700197 7.1916852
-7.0064292 -9.1144772 -0.20066777
-18.904673 -24.583704 8.3096447
-5.0612817 -6.5650964 -2.2211852
-7.0207367 -9.1034613 0.20066777
-5.6887355 -7.3736558 -2.1500821
-15.281697 -19.807913 1.3111205
-6.8407383 -8.8636656 -2.1763675
-8.0773878 -10.462238 1.1563823
-7.045476 -9.1223583 -1.8255905
-14.684113 -19.005882 2.9489946
-7.0347691 -9.1019268 -1.4124658
-18.896688 -24.449455 4.8942094
-7.0439434 -9.1105099 -1.0075203
-19.245626 -24.882984 6.1146655
