# .PCD v0.7 - Point Cloud Data file format
VERSION 0.7
FIELDS x y z
SIZE 4 4 4
TYPE F F F
COUNT 1 1 1
WIDTH 1473
HEIGHT 1
VIEWPOINT 0 0 0 1 0 0 0
POINTS 1473
DATA ascii
-2.7555885 -7.481411 -2.1362925
-3.7321897 -10.132878 0.18848598
-3.3396204 -9.0621777 -2.2297149
-3.3490748 -9.0829477 0.50734478
-3.7672353 -10.211539 -2.1156902
-3.4130647 -9.2465477 0.86231887
-3.7847655 -10.253546 -1.731104
-4.8113189 -13.027647 1.705196
-3.7835836 -10.239338 -1.3403192
-4.8333974 -13.073382 2.2076035
-3.7457793 -10.126161 -0.94459391
-3.2877796 -8.8880262 1.8420701
-3.7594802 -10.157747 -0.56763583
-4.5239091 -12.216609 3.0075955
-3.4119043 -9.2087584 -0.17141753
-7.1198392 -19.206211 5.4885168
-2.7857716 -7.4867167 -2.1404335
-3.3824117 -9.0853224 0.16921853
-3.3474247 -8.9865484 -2.2139683
-3.3947091 -9.108633 0.50943822
-3.8093038 -10.221067 -2.1202698
-3.8108671 -10.214361 -1.7267238
-3.7508733 -10.0482 1.3169203
-3.8137453 -10.211192 -1.3383693
-3.2111795 -8.5932636 1.4529635
-3.7807338 -10.117416 -0.94494259
-3.3531632 -8.968441 1.8611511
-3.793514 -10.140821 -0.5674265
-6.9833326 -18.657919 4.5993495
-3.4510419 -9.215518 -0.17176658
-5.6224494 -15.005979 4.293808
-2.7982888 -7.4407821 -2.1300809
-3.414104 -9.0734606 0.16921853
-3.383579 -8.9875774 -2.2171178
-3.4271889 -9.0985956 0.50954288
-3.8311195 -10.170962 -2.1126373
-3.9017193 -10.352919 0.96795171
-3.8646188 -10.249054 -1.7348584
-3.7789171 -10.016473 1.3144828
-3.8549743 -10.212674 -1.3403192
-3.2523234 -8.6115704 1.4579694
-3.8223627 -10.120933 -0.94651133
-3.3802838 -8.9456625 1.8588613
-3.8288894 -10.127518 -0.5674265
-6.3920488 -16.898222 4.1710424
-3.4605384 -9.1435699 -0.17064963
-5.3683076 -14.176877 4.0619063
-2.8359118 -7.461668 -2.1388805
-3.4578385 -9.0932627 0.16981192
-3.4287906 -9.0121384 -2.2261157
-3.4376109 -9.0305796 0.50640279
-3.8805676 -10.194224 -2.1202698
-3.9172692 -10.285239 0.96289659
-3.8891182 -10.205967 -1.7298526
-3.8244653 -10.031045 1.318139
-3.8806949 -10.173189 -1.3369068
-3.2732065 -8.5761728 1.4539021
-3.8612204 -10.116836 -0.94738293
-3.2707148 -8.5651588 1.7821561
-3.8670692 -10.121553 -0.56784517
-6.4475155 -16.866707 4.1687932
-3.4395726 -8.9932194 -0.16806667
-5.4074054 -14.130987 4.0541415
-2.8681738 -7.4679551 -2.1435394
-3.4938626 -9.0923367 0.17002134
-3.4630251 -9.00739 -2.2279153
-3.4791527 -9.0446224 0.50786817
-3.9076717 -10.158627 -2.1156902
-3.9524319 -10.269644 0.9627223
-3.9318168 -10.210763 -1.7329811
-3.8744452 -10.056533 1.3232574
-3.9318891 -10.200332 -1.3422691
-3.3059654 -8.5720663 1.4551535
-3.8986609 -10.108871 -0.94790584
-3.2935266 -8.5353727 1.77834
-3.9074121 -10.121036 -0.56857789
-6.8532243 -17.742111 4.3910446
-3.5062666 -9.0725565 -0.16977702
-5.4504285 -14.09581 4.0494828
-2.9291708 -7.547946 -2.1694212
-3.5255799 -9.0800858 0.17002134
-3.5029128 -9.017046 -2.233314
-3.502743 -9.0119448 0.50671679
-3.9566209 -10.179693 -2.122941
-3.9730918 -10.216789 0.9590618
-3.9559755 -10.167521 -1.7279752
-3.9160051 -10.059596 1.3254511
-3.9559438 -10.156948 -1.3383693
-3.3408895 -8.5733576 1.4573436
-3.9281383 -10.08035 -0.94651133
-3.3019049 -8.4689503 1.7668914
-3.9448938 -10.112917 -0.56889194
-7.607337 -19.491703 4.8305988
-3.5539155 -9.1012421 -0.17054491
-5.7681465 -14.764068 4.2472205
-2.9343438 -7.4837198 -2.1538923
-3.5850043 -9.138464 0.17134774
-3.478832 -8.8632689 -2.1982217
-3.5458591 -9.0294085 0.50839156
-3.9957175 -10.174957 -2.1248491
-3.7194784 -9.4666643 0.88986009
-4.003006 -10.183064 -1.7329811
-3.9619946 -10.073574 1.3291072
-4.0117278 -10.194799 -1.3451939
-3.3621111 -8.539588 1.4535893
-3.9669497 -10.075847 -0.94738293
-3.3343256 -8.4646797 1.768418
-3.9867616 -10.115808 -0.56983393
-7.7925625 -19.762344 4.9043832
-6.4005494 -16.215532 4.6711664
-2.9405289 -7.4231415 -2.1393983
-3.6279335 -9.153779 0.1718713
-3.5621865 -8.9833117 -2.2310646
-3.6193402 -9.1227961 0.51435781
-4.0218 -10.137223 -2.1198881
-3.7488248 -9.4443655 0.88898855
-4.0341516 -10.158015 -1.731104
-4.0147266 -10.103959 1.3349569
-4.0296903 -10.136462 -1.3393443
-3.4101503 -8.5736876 1.4614109
-4.0065141 -10.073047 -0.94842881
-3.3783708 -8.4894714 1.7760502
-4.0146604 -10.083274 -0.56878728
-6.4797354 -16.266321 4.0423703
-4.0201201 -10.08674 -0.18953314
-4.5787964 -11.482668 3.3123662
-2.9893892 -7.4702258 -2.1559627
-3.6412826 -9.0946484 0.17099868
-3.592798 -8.9690142 -2.2306147
-3.6585917 -9.1286459 0.51540452
-4.0556993 -10.119479 -2.1191249
-3.7965996 -9.4682074 0.89247483
-4.0813546 -10.173204 -1.7361099
-3.4295716 -8.5442533 1.13046
-4.0754042 -10.148124 -1.3427565
-3.4459505 -8.576396 1.4639139
-4.0394244 -10.053452 -0.94790584
-4.0475974 -10.06364 -0.56847322
-6.5117388 -16.182137 4.0270739
-4.0635204 -10.093051 -0.1899171
-4.6202946 -11.4702 3.3134017
-3.0263066 -7.4866114 -2.1637273
-3.6850028 -9.1115437 0.17155716
-3.6101956 -8.9220953 -2.2220664
-3.8245912 -9.4472027 0.53414083
-4.0851049 -10.090702 -2.1160717
-3.825887 -9.4456635 0.89160323
-4.1094208 -10.140588 -1.7329811
-3.4631054 -8.5414286 1.1316788
-4.1018491 -10.111762 -1.3398317
-3.4766088 -8.5661449 1.4642268
-4.0774889 -10.046677 -0.94860309
-3.4353399 -8.4602222 1.7749053
-4.0872121 -10.060552 -0.56910127
-3.9331324 -9.6764488 2.4114752
-4.0979738 -10.076953 -0.18988217
-4.6049724 -11.318007 3.274061
-3.0144498 -7.3829994 -2.1368101
-3.7122486 -9.0875187 0.17134774
-3.6671214 -8.9725771 -2.2378132
-4.0684519 -9.9495745 0.5633443
-4.1039557 -10.036402 -2.1076763
-3.8512912 -9.4138098 0.88986009
-4.1477852 -10.133495 -1.7342327
-4.0796885 -9.9621649 1.321795
-4.152173 -10.13412 -1.3447064
-3.4989977 -8.5356798 1.4610981
-4.1132903 -10.034225 -0.94877744
-3.4529309 -8.419117 1.7687995
-4.1223044 -10.046224 -0.56910127
-4.1316032 -10.058887 -0.18981238
-4.6371078 -11.283996 3.2688849
-3.0866001 -7.4849467 -2.1694212
-3.7340319 -9.0504732 0.17089397
-3.7184963 -9.008357 -2.2499604
-4.0938029 -9.9175673 0.56229758
-4.1494551 -10.047421 -2.113019
-3.9427123 -9.5420961 0.90328211
-4.1816249 -10.115304 -1.7336069
-4.109128 -9.9350224 1.3200889
-4.1784134 -10.097554 -1.3417815
-3.5378561 -8.5495834 1.4654782
-4.1581988 -10.043737 -0.95104349
-3.4560025 -8.3435287 1.7554429
-4.1573472 -10.031773 -0.56910127
-3.9938736 -9.6325531 2.4074261
-4.168767 -10.054368 -0.1899869
-4.6648788 -11.245358 3.2621555
-3.1000834 -7.44381 -2.1606214
-3.7423513 -8.9815845 -2.246361
-9.4495077 -22.667528 1.287046
-4.1928153 -10.052807 -2.1172168
-3.9437716 -9.4510498 0.89596105
-4.2181873 -10.108673 -1.7348584
-5.4115853 -12.962226 1.7246951
-4.2271786 -10.120276 -1.3466563
-3.5798664 -8.5663443 1.4704841
-4.1947684 -10.032838 -0.95139205
-3.538178 -8.4624376 1.7829194
-4.1836548 -10.001348 -0.56815922
-4.0634117 -9.7091389 2.4299212
-4.2084723 -10.050821 -0.19019634
-4.7466516 -11.330569 3.2916608
-3.1247501 -7.4334893 -2.1606214
-3.9133861 -9.3050308 0.1761995
-3.7812386 -8.9864292 -2.2508602
-4.1249666 -9.7985477 0.55716866
-4.2520266 -10.100369 -2.1301918
-4.0841351 -9.6968193 0.9205389
-4.2549825 -10.097528 -1.7354842
-5.4606571 -12.952402 1.7259138
-4.2470484 -10.068878 -1.3417815
-3.5943851 -8.5173969 1.4642268
-4.2344155 -10.029147 -0.95243794
-3.5913692 -8.5061026 1.7947495
-4.2278657 -10.008762 -0.56941521
-4.0714841 -9.6338654 2.4146245
-4.2443094 -10.037911 -0.19023123
-4.8177862 -11.388659 3.3134017
-3.1572604 -7.4344335 -2.1642449
-4.1647077 -9.8066797 0.18597284
-3.8202038 -8.9911108 -2.2553592
-4.1677413 -9.804306 0.55832005
-4.2782621 -10.059423 -2.1248491
-4.1625524 -9.7826185 0.93012613
-4.2935104 -10.0855 -1.7361099
-6.8960948 -16.198997 2.1617186
-4.3008389 -10.097824 -1.3476313
-3.6124794 -8.47754 1.4595338
-4.2717409 -10.019804 -0.95296091
-3.6356151 -8.5235815 1.801237
-4.2786331 -10.026264 -0.57129937
-4.1412005 -9.6995287 2.4348702
-4.2785363 -10.021196 -0.19019634
-4.881793 -11.428621 3.3299658
-3.18167 -7.4198165 -2.1632097
-4.1903753 -9.7674589 0.18551907
-3.8231559 -8.9072104 -2.2378132
-4.2099528 -9.803647 0.55915743
-4.3257451 -10.073291 -2.130955
-4.2147651 -9.810132 0.9341352
-4.324008 -10.059563 -1.7342327
-6.9679685 -16.202789 2.1656184
-4.3315439 -10.067405 -1.3456814
-4.3003888 -9.9901915 -0.95156634
-3.704174 -8.600997 1.820318
-4.3230886 -10.033279 -0.57255542
-4.1488042 -9.6241684 2.4195735
-4.3152375 -10.005447 -0.19019634
-4.6848521 -10.857236 3.168463
-3.2052476 -7.4033461 -2.1616566
-3.9279776 -9.0683355 0.1724996
-3.7953353 -8.7579165 -2.2036204
-4.2616258 -9.8292065 0.5614602
-4.356194 -10.047322 -2.1286652
-4.2600827 -9.8209496 0.93657559
-4.3638158 -10.05528 -1.7361099
-5.6859989 -13.095649 1.7529688
-4.3745675 -10.070431 -1.3481188
-3.6612401 -8.4242964 1.4548407
-4.3392062 -9.9842548 -0.95243794
-3.6981637 -8.5051947 1.8027636
-4.3580842 -10.018128 -0.57255542
-4.168376 -9.5774651 2.4114752
-4.3541284 -9.9994898 -0.19037086
-3.2589252 -7.4558382 -2.1802919
-4.3634195 -9.9779816 0.19009161
-3.8907146 -8.8928003 -2.2409625
-4.2885938 -9.8022118 0.56072748
-4.3817935 -10.010474 -2.1240859
-7.1076779 -16.230213 1.5501521
-4.4004731 -10.043606 -1.7367356
-3.8429 -8.7668409 1.175308
-4.4065061 -10.047828 -1.3471439
-4.3724294 -9.9653997 -0.95208931
-3.715203 -8.4634714 1.7966576
-4.3906193 -9.9973679 -0.57224143
-4.3969169 -10.006965 -0.1907897
-4.0465207 -9.2051334 2.6943064
-3.2693334 -7.4090681 -2.169939
-4.3294806 -9.8116083 0.18719451
-3.921757 -8.8834133 -2.2418623
-7.1260962 -16.134142 0.92435771
-4.4436893 -10.056172 -2.1370609
-5.7335258 -12.96898 1.2405748
-4.4417424 -10.047024 -1.7398643
-3.8663306 -8.7413416 1.1736019
-4.4430137 -10.040421 -1.3481188
-3.9943852 -9.0223455 1.5627805
-4.4112229 -9.9591846 -0.95296091
-3.7416587 -8.4475155 1.7958944
-4.4286013 -9.9937096 -0.57286942
-8.1541681 -18.392263 4.6447892
-4.4326329 -9.9933844 -0.19082463
-4.3372159 -9.7736645 2.8651271
-3.2923133 -7.3946557 -2.1689036
-4.3693981 -9.8092232 0.18743885
-3.9686062 -8.9052696 -2.2508602
-4.4146671 -9.9015484 0.56815922
-4.4866061 -10.062899 -2.1416404
-5.7927341 -12.986287 1.2440611
-4.4800053 -10.038673 -1.7411157
-3.904104 -8.7441063 1.1757956
-4.4747963 -10.017602 -1.3471439
-3.9581521 -8.8568563 1.5364995
-4.4531655 -9.9645109 -0.95487827
-3.7919583 -8.4810009 1.8058165
-4.4683528 -9.9891291 -0.57349747
-4.4683051 -9.9796762 -0.19085953
-4.2283587 -9.4393539 2.7714343
-3.3268158 -7.4025016 -2.1745977
-4.4626551 -9.9252253 0.189952
-3.9596956 -8.8025017 -2.2283652
-4.4516611 -9.8915424 0.56847322
-4.5184813 -10.040015 -2.1401138
-5.8642044 -13.024123 1.249639
-4.511776 -10.01577 -1.7398643
-3.9370487 -8.7358551 1.1765267
-4.5260549 -10.038114 -1.3520186
-3.9955432 -8.8573895 1.5390024
-4.4821877 -9.9361916 -0.9536581
-3.8207326 -8.4659243 1.8054349
-4.5031943 -9.9734707 -0.57349747
-4.6522155 -10.298724 2.6089823
-4.5064077 -9.9713058 -0.19099914
-4.1808963 -9.246748 2.7191529
-3.3478463 -7.3802886 -2.1714919
-4.5138016 -9.9460068 0.19065009
-3.9767013 -8.758462 -2.220717
-4.4514689 -9.7995682 0.56407702
-3.9180472 -8.6212845 0.82850248
-4.5532498 -10.014346 -1.7423673
-3.9584775 -8.7021828 1.1738456
-4.5561347 -10.011412 -1.3505563
-7.3955789 -16.243145 2.8267713
-4.5217967 -9.931365 -0.95470399
-3.8234041 -8.3935766 1.7928416
-4.534668 -9.9504213 -0.57307881
-6.4311295 -14.105307 3.5789714
-4.5453367 -9.964612 -0.19117366
-4.1979094 -9.1987057 2.7093179
-3.3719802 -7.3650432 -2.1704566
-4.5451612 -9.9229174 0.19051047
-4.0381002 -8.8118477 -2.2378132
-7.2432957 -15.79887 0.91085511
-4.5900998 -10.011795 -2.140877
-3.9381495 -8.5858231 0.82641071
-4.5881791 -9.9983912 -1.7423673
-4.6026521 -10.020702 -1.3539685
-4.5614281 -9.926383 -0.95574987
-3.8731806 -8.4247732 1.8023818
-4.5727115 -9.9417896 -0.57349747
-4.0633407 -8.8302784 2.2441118
-4.5842748 -9.9577675 -0.1913482
-4.0416875 -8.775157 2.5887084
-3.4065804 -7.372519 -2.1761506
-4.586484 -9.9215117 0.1907897
-4.0246615 -8.7021856 -2.2135184
-7.3084645 -15.795239 0.91211116
-4.6390352 -10.026001 -2.1473646
-6.1007066 -13.178967 1.2705564
-4.6330137 -10.003824 -1.7461218
-7.1144342 -15.354797 2.0778725
-4.6342635 -9.9973698 -1.3529935
-8.62743 -18.603209 3.2478929
-4.6019177 -9.9230518 -0.95697004
-3.9207439 -8.4503822 1.8107775
-4.6107507 -9.9330139 -0.57391614
-4.0859313 -8.7983656 2.2396126
-4.6223736 -9.9489584 -0.1914878
-4.1146379 -8.8520908 2.6156254
-3.4314802 -7.3588319 -2.175633
-4.6295409 -9.9235649 0.19113876
-4.0962229 -8.7763777 -2.2360134
-9.9772205 -21.367001 1.2358613
-4.6740046 -10.009748 -2.1473646
-7.2817283 -15.587296 1.5051796
-4.6645598 -9.9804325 -1.7448702
-4.6708155 -9.9847298 -1.3534811
-4.636528 -9.9069281 -0.95697004
-7.3817868 -15.76559 3.3838069
-4.6521735 -9.9313278 -0.57475352
-4.1579671 -8.8722792 2.2621078
-4.6536789 -9.9255219 -0.1913482
-4.1151576 -8.7729607 2.5964727
-3.4587901 -7.350306 -2.1766684
-4.6590447 -9.8964872 0.19092932
-4.1409497 -8.791997 -2.2436619
-10.481666 -22.244444 1.2887207
-4.7289987 -10.035995 -2.1565235
-4.7111669 -9.9891024 -1.7492503
-4.0685797 -8.6227264 1.1706771
-4.7158089 -9.9899054 -1.3564059
-7.2960315 -15.448829 2.7060037
-4.6753364 -9.8996925 -0.95784163
-7.395678 -15.652747 3.3651078
-4.6979084 -9.9385014 -0.57611424
-4.1939106 -8.8682804 2.2648072
-4.6968493 -9.9272919 -0.19169722
-4.1374903 -8.7410803 2.5912962
-3.4869127 -7.3434229 -2.1782212
-4.6952748 -9.8837767 0.19099914
-4.1498637 -8.7317276 -2.2319643
-10.422033 -21.919119 1.2719731
-4.760633 -10.012334 -2.1549969
-11.120214 -23.376991 2.2648292
-4.7358189 -9.9511938 -1.745496
-4.1003628 -8.6120567 1.1711645
-4.7438231 -9.9590464 -1.3544559
-7.3524594 -15.428617 2.7069423
-4.7150044 -9.894104 -0.95888752
-7.3117089 -15.336203 3.3025222
-4.7299924 -9.9166346 -0.57580024
-4.2391086 -8.8834848 2.2724555
-4.73492 -9.9180546 -0.19183685
-4.1688108 -8.7283287 2.591814
-3.5208721 -7.348629 -2.1833978
-4.7366629 -9.8817539 0.19127838
-4.1845307 -8.7259731 -2.2342138
-10.785302 -22.480453 1.3067242
-4.8082895 -10.022206 -2.1607211
-11.05346 -23.029085 2.2348475
-4.7927585 -9.9808998 -1.7536306
-4.1561856 -8.65137 1.1784766
-4.7888765 -9.9638968 -1.3573809
-4.755559 -9.8901529 -0.96010768
-4.4255853 -9.1997995 1.9844136
-4.7671776 -9.9054623 -0.57611424
-4.2557206 -8.8387852 2.2648072
-4.7773218 -9.9176807 -0.192151
-4.1229334 -8.555356 2.544709
-3.5397758 -7.3223791 -2.1792564
-4.7780933 -9.8795605 0.19155762
-4.1699805 -8.6183414 -2.2103691
-10.661819 -22.025599 1.2824404
-4.8483768 -10.015964 -2.1630108
-11.118148 -22.958082 2.23171
-4.832737 -9.9747744 -1.7555077
-4.2080078 -8.6814671 1.1845701
-4.8149643 -9.9292583 -1.3549435
-4.7909207 -9.8752861 -0.96028197
-4.4773903 -9.2249165 1.9931908
-4.8034678 -9.892355 -0.57632357
-4.2592974 -8.767786 2.2504103
-4.8136606 -9.904541 -0.19222081
-4.1705117 -8.5773964 2.5555794
-3.5627737 -7.304769 -2.1777036
-4.8160577 -9.8700104 0.19169722
-4.2650104 -8.7368259 -2.2445617
-10.736886 -21.984659 1.2822311
-4.9031253 -10.039554 -2.1717882
-11.014542 -22.543203 2.1951044
-4.8640566 -9.9507475 -1.7542564
-4.266191 -8.7237911 1.1923697
-4.8618088 -9.937355 -1.3583559
-16.389807 -33.485352 5.9047761
-4.8332458 -9.874608 -0.96185076
-4.52424 -9.2392073 1.9996784
-4.8379693 -9.8755274 -0.57632357
-4.2950253 -8.7633629 2.2531099
-4.8490829 -9.8894749 -0.19225572
-4.1902161 -8.5419741 2.5493677
-3.5891037 -7.2940216 -2.1782212
-4.8557806 -9.863903 0.19190666
-4.3195891 -8.7708349 -2.2571588
-10.855933 -22.033041 1.2872553
-4.8973579 -9.9396048 -2.153852
-11.151305 -22.622566 2.206609
-4.9179826 -9.9726839 -1.7611394
-4.8973455 -9.9221029 -1.3585995
-4.512135 -9.1376419 1.614091
-4.8703322 -9.8630362 -0.96237373
-4.5321159 -9.1740723 1.9889932
-4.3126307 -8.7221146 2.246361
-4.2422857 -8.5723124 2.5628264
-3.6308615 -7.3143268 -2.1880562
-4.8919621 -9.8504753 0.19197647
-4.3354387 -8.7260351 -2.2495105
-10.904056 -21.946838 1.2843245
-11.239077 -22.601341 2.2083521
-4.9422059 -9.9342327 -1.7573849
-11.985905 -24.082096 3.3029032
-4.9399509 -9.9253569 -1.3612807
-4.5089536 -9.0554333 1.6022019
-4.9287176 -9.8941269 -0.96708012
-4.3539457 -8.7364845 1.8974047
-4.9335313 -9.8951349 -0.57946378
-4.3258796 -8.6763735 2.2382631
-4.9421711 -9.9081326 -0.19326794
-4.2672391 -8.5512829 2.5607557
-3.6620145 -7.3160658 -2.1921973
-4.9299731 -9.8449268 0.19218589
-4.3695889 -8.7220631 -2.2522099
-10.892682 -21.742701 1.2744853
-4.9807334 -9.9376335 -2.1607211
-11.310392 -22.556824 2.207655
-4.9839792 -9.9354458 -1.7605137
-12.055015 -24.020926 3.2999783
-4.9763994 -9.9160166 -1.3622556
-4.556685 -9.0757389 1.6084594
-4.9865408 -9.9275789 -0.97196084
-4.3846569 -8.7255068 1.8981681
-4.9699063 -9.8858566 -0.57988244
-4.241714 -8.4373779 2.1802256
-4.9929705 -9.9274178 -0.19396605
-4.6099043 -9.1617908 2.7481406
-3.6627543 -7.2573171 -2.1782212
-4.9553823 -9.8142433 0.19190666
-4.4239669 -8.7579699 -2.2652571
-10.889235 -21.547684 1.2652742
-4.9808974 -9.8562307 -2.1466014
-11.300632 -22.352055 2.1912696
-5.0168967 -9.9188643 -1.7605137
-12.044979 -23.803696 3.2756045
-5.0163627 -9.9092131 -1.363718
-5.0085573 -9.8852301 -0.96952045
-5.0134978 -9.8906994 -0.58113849
-4.4438896 -8.763175 2.2684064
-5.0185461 -9.8920956 -0.193617
-4.6514745 -9.1645937 2.7538347
-3.6945896 -7.2541723 -2.1813271
-5.0095744 -9.8360901 0.19267458
-4.4421277 -8.7181644 -2.2589586
-11.015179 -21.609188 1.2711359
-5.0482059 -9.8991213 -2.1599579
-11.471215 -22.484411 2.2083521
-5.0550165 -9.9039278 -1.7611394
-11.218328 -21.979258 3.0299158
-5.0473084 -9.8845711 -1.362743
-4.7062044 -9.2125826 1.6384948
-5.0611668 -9.9031687 -0.97300667
-4.6805172 -9.1544151 1.9985336
-5.0606298 -9.8935947 -0.58239454
-4.3490319 -8.4987526 2.2040703
-5.0657992 -9.8994389 -0.19410567
-4.6667104 -9.1156282 2.7439995
-3.7357788 -7.2721624 -2.1906445
-5.0492482 -9.8247766 0.19281419
-4.1505919 -8.0727148 -2.095644
-11.105268 -21.589983 1.2723918
-5.0854235 -9.8866768 -2.1611028
-11.51863 -22.384001 2.2024255
-5.0967875 -9.9002724 -1.7636423
-11.347894 -22.033291 3.0430777
-5.1016884 -9.9012976 -1.3676178
-4.6792955 -9.077632 1.6175325
-5.0810966 -9.8571091 -0.97021776
-4.4316964 -8.5936127 1.8794687
-5.0933027 -9.8723202 -0.58218521
-4.3858218 -8.4973736 2.2076695
-5.1112232 -9.8985739 -0.19445471
-4.680584 -9.0607033 2.7326117
-3.7673616 -7.2710838 -2.194268
-5.0816717 -9.8035402 0.19274437
-4.4873524 -8.653285 -2.2504103
-11.156651 -21.50499 1.2696704
-5.0168371 -9.6701984 -2.1175983
-11.473706 -22.106691 2.1790679
-5.1422391 -9.9034595 -1.7673968
-11.364335 -21.877283 3.0269911
-5.1417112 -9.8939972 -1.3690803
-4.689085 -9.0191784 1.6100237
-5.1356926 -9.8782024 -0.97405255
-4.5205498 -8.6913042 1.9042739
-5.1517029 -9.9005461 -0.5849067
-4.4118576 -8.4750986 2.2058702
-5.149437 -9.8877668 -0.19459434
-4.7309284 -9.0802879 2.7434819
-3.7837722 -7.240767 -2.1890914
-5.1251264 -9.803463 0.19309342
-4.1770453 -7.9865561 -2.0807972
-11.244614 -21.490692 1.2711359
-5.1743455 -9.8892021 -2.1694984
-11.615484 -22.190069 2.1912696
-5.171279 -9.8749485 -1.7655195
-11.518014 -21.985184 3.0474651
-5.1872749 -9.8970881 -1.3720052
-16.327417 -31.138758 5.5687551
-5.1645918 -9.8496275 -0.97300667
-4.5618072 -8.6963339 1.9088533
-5.1676669 -9.8471346 -0.58281326
-4.432354 -8.4423933 2.201371
-5.2080994 -9.91576 -0.19550186
-4.626905 -8.8054886 2.6653185
-3.8135283 -7.2360611 -2.1916797
-5.1593161 -9.7855129 0.19309342
-4.5585647 -8.6424303 -2.2558093
-11.30092 -21.415981 1.2690424
-5.1740174 -9.8051004 -2.1549969
-11.562652 -21.902716 2.1668661
-5.1688175 -9.7869682 -1.7530048
-11.453731 -21.678061 3.0104167
-5.1596384 -9.7613363 -1.3556747
-4.8415084 -9.1556091 1.6403719
-5.176589 -9.7892685 -0.96882319
-5.1833234 -9.7937298 -0.58071983
-4.4426475 -8.3907042 2.1919231
-5.237062 -9.8869181 -0.19529243
-4.6476631 -8.7705078 2.6596246
-3.8442035 -7.2329402 -2.1947856
-5.1990752 -9.778038 0.19330285
-4.5768075 -8.6041002 -2.2499604
-11.283709 -21.212637 1.2592032
-5.2109785 -9.7921782 -2.1561418
-11.474248 -21.552691 2.1361871
-5.202949 -9.7688656 -1.7530048
-11.602143 -21.774597 3.0294285
-5.1983495 -9.7520237 -1.3568934
-4.8774185 -9.1499634 1.6422491
-5.2107286 -9.7711391 -0.96882319
-4.4948783 -8.4252367 1.8561901
-5.2174788 -9.7755766 -0.58071983
-4.5572724 -8.5350151 2.2337639
-3.8511744 -7.1854239 -2.184433
-5.2295809 -9.7572203 0.19323304
-4.6218901 -8.6197882 -2.2580585
-11.297263 -21.060478 1.2525042
-5.3026834 -9.8811846 -2.1798022
-11.590878 -21.589745 2.143857
-5.3119349 -9.8942728 -1.7786602
-11.587874 -21.575113 3.0070045
-5.2964306 -9.8571367 -1.373955
-16.063578 -29.883263 5.3735247
-5.2646217 -9.7897406 -0.97248381
-5.0351405 -9.3630133 2.0664616
-4.5541492 -8.4615116 2.2184672
-5.2483048 -9.7471609 -0.19323304
-4.7035909 -8.7318659 2.6575541
-3.9071195 -7.2321014 -2.2025502
-5.2693157 -9.7494602 0.19344248
-4.6436071 -8.5881748 -2.2540095
-11.361201 -21.003349 1.2514575
-5.3111358 -9.8186483 -2.1698802
-11.779992 -21.768471 2.1654716
-5.3201075 -9.8270302 -1.7698997
-11.588424 -21.396635 2.9877491
-5.3232408 -9.824626 -1.3720052
-16.173441 -29.837429 5.375402
-5.3245916 -9.8230257 -0.97753882
-5.0443964 -9.3022337 2.056921
-5.3067555 -9.7819691 -0.58323193
-4.5408983 -8.3667765 2.1977718
-5.3500433 -9.8535547 -0.19571128
-4.7939782 -8.825736 2.6912005
-3.9572933 -7.2642231 -2.2165263
-5.3052268 -9.73452 0.19351228
-4.5970645 -8.4316158 -2.2171178
-11.392374 -20.886412 1.2468519
-5.3359785 -9.7828112 -2.1660638
-12.083036 -22.143471 2.2069576
-5.3695226 -9.8361416 -1.7749057
-11.875224 -21.744566 3.0421028
-5.3803434 -9.8477945 -1.3778549
-16.845942 -30.820799 5.5631227
-5.3550258 -9.7973852 -0.97684151
-5.371541 -9.8194561 -0.58658141
-4.5588498 -8.3303614 2.192373
-5.3671212 -9.8032475 -0.19508299
-4.9945841 -9.1190157 2.7859285
-3.9361222 -7.1657052 -2.1906445
-5.3391747 -9.7159414 0.19351228
-4.7034512 -8.5555477 -2.2540095
-11.571081 -21.039026 1.2583659
-11.833712 -21.507648 2.147692
-5.401917 -9.813879 -1.77428
-12.054464 -21.890781 3.0684266
-5.3859529 -9.7767906 -1.3705428
-5.4103494 -9.8170223 -0.98067641
-18.502174 -33.558163 7.448802
-5.3903513 -9.7726641 -0.5849067
-4.5813103 -8.302453 2.1892235
-5.4187016 -9.8159657 -0.19571128
-5.0534687 -9.150568 2.8009398
-4.0069747 -7.2347293 -2.2160087
-5.3808107 -9.7112379 0.19379151
-4.7559614 -8.5799828 -2.2648072
-11.580523 -20.883224 1.2514575
-5.4003348 -9.7384548 -2.1645374
-12.179341 -21.954041 2.1964991
-5.4418921 -9.8053246 -1.776157
-12.07492 -21.747906 3.0542896
-5.4258289 -9.7683439 -1.3720052
-16.030203 -28.847973 5.2271018
-5.4252272 -9.7632465 -0.9771902
-18.619211 -33.49337 7.448802
-5.445785 -9.7921906 -0.58720946
-4.6112089 -8.2881145 2.1896734
-5.4315395 -9.7585487 -0.19494337
-5.1539865 -9.2560835 2.8387275
-4.0340881 -7.224071 -2.2170439
-5.4146767 -9.6923962 0.19379151
-4.7953897 -8.5803404 -2.2693062
-11.620211 -20.783403 1.2478987
-5.4113016 -9.6784182 -2.1553786
-12.148913 -21.720118 2.1773245
-5.4722285 -9.7793741 -1.7749057
-12.261298 -21.903093 3.0820758
-5.4637742 -9.7562733 -1.3729801
-16.215767 -28.943495 5.2546339
-5.4806986 -9.7824888 -0.98102504
-16.626177 -29.663891 6.6100059
-5.466258 -9.7487326 -0.58574408
-4.7039905 -8.3858404 2.2198169
-5.479269 -9.7639465 -0.19543205
-5.2496271 -9.3508997 2.873409
-4.0602283 -7.2116294 -2.2175617
-5.4435701 -9.6647253 0.193617
-4.805222 -8.5278959 -2.2598584
-11.739763 -20.826227 1.2529229
-5.4951839 -9.7484026 -2.1752226
-12.048497 -21.365198 2.1459486
-5.492743 -9.7361259 -1.7705256
-12.320117 -21.829042 3.0776887
-5.519269 -9.7751703 -1.3783424
-16.443001 -29.110312 5.2953072
-5.499135 -9.7355413 -0.97823608
-16.739281 -29.622765 6.613822
-5.5238438 -9.7713203 -0.58825624
-4.7533779 -8.4049911 2.229265
-5.5074124 -9.7343168 -0.19522263
-4.9253912 -8.7020588 2.6792948
-4.0691633 -7.1688519 -2.2087619
-5.4841857 -9.657836 0.19386134
-11.798899 -20.769817 1.2518762
-5.5155988 -9.705266 -2.1698802
-12.215566 -21.485819 2.162334
-5.5306015 -9.7237616 -1.7717769
-12.243092 -21.51675 3.0396655
-5.5317526 -9.7178907 -1.3729801
-5.5547752 -9.7543764 -0.98207092
-5.5440741 -9.7276869 -0.5867908
-5.5634313 -9.7576923 -0.19606033
-4.9494357 -8.6772871 2.6767068
-4.0960836 -7.1579571 -2.2097969
-5.5221415 -9.6500111 0.19407077
-11.926911 -20.82556 1.2577379
-5.5914102 -9.759203 -2.1862895
-12.322196 -21.498362 2.1679118
-5.5588875 -9.698513 -1.7705256
-13.195175 -23.012127 3.2570803
-5.583703 -9.7339315 -1.3778549
-16.88657 -29.426039 5.3735247
-5.582839 -9.7245588 -0.98102504
-10.901721 -18.98934 4.256186
-5.592217 -9.7369585 -0.58846557
-5.0473623 -8.7847271 2.3390412
-5.5775275 -9.7035379 -0.19536224
-4.982584 -8.6649809 2.6782596
-4.1275167 -7.1577239 -2.2139382
-5.5597873 -9.6376057 0.19421038
-11.843747 -20.513969 1.2414091
-5.6136575 -9.7192268 -2.1817102
-11.972895 -20.729315 2.0943525
-5.6144505 -9.7166777 -1.7774086
-12.576035 -21.756016 3.0854883
-5.6057224 -9.6937599 -1.37493
-17.056446 -29.483181 5.3947992
-5.6187463 -9.7084608 -0.98137361
-10.800082 -18.653624 4.189784
-5.6138525 -9.6922007 -0.58700013
-5.0779958 -8.7670555 2.3390412
-5.6394382 -9.7324572 -0.19633958
-5.0195823 -8.659235 2.6818831
-4.1488695 -7.1341963 -2.21135
-5.597085 -9.6206207 0.19428019
-4.9679322 -8.5357647 -2.2801039
-11.828409 -20.315083 1.2319885
-5.6037884 -9.6205502 -2.1641557
-12.348632 -21.200058 2.1464715
-5.6420679 -9.6823826 -1.7749057
-12.749666 -21.870981 3.1083996
-5.6612144 -9.7074451 -1.3798048
-17.126564 -29.355631 5.3829103
-5.6462569 -9.674036 -0.97997916
-17.081146 -29.254314 6.5848188
-5.6694856 -9.7060509 -0.58909357
-5.6508579 -9.6702843 -0.19550186
-5.0512867 -8.6407785 2.6818831
-4.1701012 -7.1106105 -2.2087619
-5.6343331 -9.6034908 0.19435
-5.0080614 -8.5326242 -2.284153
-11.583219 -19.727345 1.1989121
-5.6350365 -9.593173 -2.1626294
-12.557442 -21.377983 2.169132
-5.685524 -9.6752625 -1.7774086
-12.755298 -21.697472 3.090363
-5.6826677 -9.662674 -1.3763925
-12.726444 -21.631117 3.9750004
-5.6938043 -9.6738806 -0.98207092
-17.180286 -29.177979 6.5817661
-5.6969132 -9.6714392 -0.58825624
-18.868305 -32.032024 8.5827827
-5.7207808 -9.7080832 -0.19668862
-5.101563 -8.6538258 2.6917181
-4.185318 -7.0769877 -2.2030678
-5.6715302 -9.5862169 0.1944198
-5.043272 -8.5209208 -2.2859526
-11.668674 -19.7071 1.200273
-5.6581526 -9.5521841 -2.1580498
-12.80427 -21.616375 2.1980679
-5.7088628 -9.6339655 -1.7736541
-12.848904 -21.674484 3.0937755
-5.7443724 -9.6861744 -1.3827296
-6.6976404 -11.289085 2.0790143
-5.7271867 -9.6495218 -0.9817223
-17.311165 -29.155323 6.5909243
-5.7282429 -9.6436253 -0.58783752
-4.9123468 -8.2700462 2.220717
-5.7379346 -9.6561079 -0.19606033
-16.68009 -28.058996 8.7465315
-4.196897 -7.0431552 -2.1968563
-5.7114801 -9.5810976 0.19469903
-5.0864735 -8.5292549 -2.2927012
-11.757128 -19.714945 1.2029945
-5.7736297 -9.6776733 -2.1904874
-12.890173 -21.597752 2.2005081
-5.7569823 -9.6421185 -1.7786602
-13.427645 -22.480463 3.2151573
-5.752378 -9.6305885 -1.3773675
-16.960859 -28.384476 5.2371135
-5.7636075 -9.6417427 -0.98276818
-17.491343 -29.249079 6.624507
-5.7585115 -9.6255817 -0.58783752
-4.9333014 -8.2462101 2.2184672
-5.7764583 -9.651762 -0.19633958
-7.781209 -12.99631 4.0588007
-4.2739272 -7.1186366 -2.2248087
-5.7370429 -9.5518188 0.19448961
-5.096663 -8.4822721 -2.2846029
-11.784379 -19.612503 1.1991215
-5.8410912 -9.7173672 -2.2038438
-12.994577 -21.609524 2.2060859
-5.7868886 -9.6195879 -1.7780343
-13.104967 -21.775883 3.1205866
-5.7924709 -9.6250658 -1.3793174
-6.8070793 -11.306524 2.0902774
-5.7934928 -9.6191616 -0.98241949
-17.584187 -29.184185 6.6229806
-5.7986455 -9.6201181 -0.5886749
-4.9696722 -8.2448282 2.2225163
-5.7981071 -9.615428 -0.19599053
-5.0581808 -8.3850451 2.6239076
-4.2895112 -7.0912013 -2.2206676
-5.7811103 -9.5532722 0.19490847
-5.0954967 -8.4169807 -2.2715557
-11.929333 -19.69767 1.2068673
-5.8254838 -9.6190176 -2.1859078
-13.066167 -21.566313 2.2060859
-5.8330913 -9.6239967 -1.7824146
-7.1458764 -11.785316 1.6922778
-5.8219161 -9.5979986 -1.3783424
-16.893375 -27.839426 5.1576447
-5.8353062 -9.612505 -0.98381394
-17.62993 -29.0418 6.6038995
-5.83881 -9.6144934 -0.58951229
-5.3667269 -8.833662 2.3862808
-5.8420243 -9.6122179 -0.19633958
-5.1115069 -8.4069538 2.6363311
-4.3235202 -7.0886259 -2.2248087
-5.8123398 -9.5296192 0.19483867
-5.1552973 -8.449048 -2.285053
-11.979282 -19.625223 1.2049831
-5.8852558 -9.6378145 -2.1950669
-13.155511 -21.53528 2.2078292
-5.8497849 -9.5722122 -1.7767829
-7.1507425 -11.701015 1.6837471
-5.8657384 -9.5945539 -1.3807799
-13.096614 -21.413656 3.975626
-5.858427 -9.5750828 -0.98207092
-17.609165 -28.769354 6.5565796
-5.8823528 -9.6066551 -0.59034967
-16.165648 -26.390284 7.1448951
-5.8880734 -9.6122303 -0.19675842
-5.1700935 -8.4368277 2.6513424
-4.3512716 -7.0784292 -2.2263615
-5.851419 -9.5150661 0.1949783
-5.1872516 -8.431756 -2.2855027
-12.075975 -19.629215 1.2078093
-5.9054856 -9.5954771 -2.1901057
-12.580878 -20.433939 2.0994074
-5.897666 -9.5752811 -1.7811631
-7.1592169 -11.618958 1.6757036
-5.907115 -9.5831308 -1.3822422
-17.035494 -27.636732 5.1420016
-5.9022722 -9.5715322 -0.98381394
-16.124176 -26.137867 5.9696503
-5.8990684 -9.5588684 -0.5886749
-5.0540972 -8.1864777 2.2211666
-5.9257927 -9.598424 -0.19689806
-5.2167697 -8.4466705 2.6601424
-4.3769727 -7.0648379 -2.2268791
-5.8871531 -9.502409 0.19511791
-5.1186824 -8.2588062 -2.2432117
-12.123367 -19.552998 1.2057159
-5.8872023 -9.4913845 -2.1710248
-13.175276 -21.232988 2.1862147
-5.9398017 -9.5724554 -1.7842916
-13.238541 -21.326649 3.0820758
-5.9346724 -9.5567417 -1.3812673
-7.0851994 -11.405022 2.1265705
-5.929337 -9.540719 -0.98276818
-16.092625 -25.894161 5.926146
-5.9412799 -9.5562153 -0.58972162
-5.0544572 -8.126647 2.2094693
-5.9634881 -9.5844727 -0.19703768
-5.2186594 -8.3841276 2.6461661
-4.4024215 -7.0535641 -2.2279146
-5.9308753 -9.498764 0.19546695
-5.1629643 -8.2656822 -2.2499604
-12.298448 -19.681627 1.2162877
-5.9352908 -9.4984493 -2.1771307
-12.840067 -20.540432 2.1192791
-5.9794621 -9.5617132 -1.7861689
-12.80545 -20.469145 2.9645939
-5.9806337 -9.5561609 -1.3841921
-13.076937 -20.8869 3.9030404
-5.9503679 -9.504118 -0.98102504
-16.203758 -25.871107 5.9337783
-5.9852057 -9.5523415 -0.59076834
-5.0921087 -8.1238155 2.2135184
-5.9692864 -9.5195484 -0.19613016
-5.2366014 -8.3478584 2.6404719
-4.4280448 -7.0397882 -2.2284322
-5.972517 -9.4915438 0.1957462
-5.2000909 -8.2608032 -2.2535596
-12.396872 -19.685904 1.2192186
-5.9443464 -9.4394646 -2.1683536
-12.754514 -20.245993 2.0934808
-6.0170155 -9.5474682 -1.7874204
-7.1366148 -11.319607 1.6430426
-6.009716 -9.528511 -1.3832171
-13.183503 -20.894585 3.9130523
-5.9877629 -9.4900284 -0.9817223
-6.012116 -9.5212603 -0.59014034
-5.143332 -8.1422367 2.2234163
-6.0388007 -9.5561304 -0.19731691
-5.2884192 -8.3654518 2.65186
-4.4556942 -7.0291834 -2.229985
-6.0013285 -9.4638824 0.19560657
-5.1506019 -8.1191826 -2.2198169
-12.536145 -19.753807 1.2261269
-6.0182872 -9.483305 -2.1832366
-13.233034 -20.843887 2.1600678
-6.0344205 -9.5013943 -1.7827275
-7.1867318 -11.311379 1.64548
-6.0684967 -9.5476837 -1.3890669
-14.805948 -23.285509 4.3704667
-6.0294027 -9.4825211 -0.98311675
-17.701103 -27.828012 6.4108014
-6.0624685 -9.5271778 -0.59181505
-5.1968355 -8.1636887 2.2342138
-6.0635281 -9.5214977 -0.19703768
-5.3144741 -8.3420525 2.6503072
-4.4926829 -7.0331235 -2.2361965
-6.0364814 -9.4462471 0.19567639
-5.2586846 -8.2259398 -2.2540095
-12.861126 -20.110384 1.2510388
-6.0301986 -9.4291601 -2.1756043
-13.213373 -20.653236 2.1450772
-6.078198 -9.4969091 -1.785856
-13.014812 -20.327242 2.963619
-6.0825152 -9.4963531 -1.3846796
-13.429226 -20.958382 3.942462
-6.0452681 -9.4345751 -0.98032773
-17.558683 -27.392515 6.3245549
-6.0827498 -9.4857807 -0.59055901
-5.283175 -8.2357111 2.2589586
-6.1204853 -9.5373001 -0.19780558
-5.3519087 -8.3364582 2.6544483
-4.5203433 -7.0222721 -2.2377496
-6.08674 -9.4520168 0.19623485
-5.2842007 -8.2026186 -2.25266
-12.940724 -20.087774 1.2522949
-6.1088071 -9.4790144 -2.192014
-13.283225 -20.603634 2.1447284
-6.1123824 -9.4772949 -1.7861689
-12.973763 -20.108212 2.9382701
-6.1199336 -9.4817352 -1.3856546
-17.595062 -27.260382 5.1388731
-6.0911336 -9.4335012 -0.98241949
-6.1396728 -9.5013952 -0.59286177
-5.290731 -8.1844893 2.2499604
-6.1477365 -9.5102339 -0.19766594
-17.138315 -26.501949 8.4566536
-4.5469289 -7.0096927 -2.2387848
-6.1158729 -9.4284267 0.19616506
-5.2572727 -8.1016798 -2.2297149
-13.469688 -20.749428 1.2964665
-6.0787716 -9.360487 -2.1694984
-7.0335522 -10.826584 1.1295384
-6.1760621 -9.506669 -1.795555
-13.005757 -20.011816 2.9304705
-6.1535063 -9.4647169 -1.386142
-13.554342 -20.839993 3.9374561
-6.1175056 -9.4021606 -0.98137361
-16.766111 -25.768291 5.9757562
-6.1471767 -9.4441576 -0.59055901
-6.1874452 -9.4987688 -0.19787538
-17.247597 -26.467865 8.4649363
-4.5638094 -6.9848723 -2.2356789
-6.1618781 -9.4271059 0.19658391
-5.0988851 -7.797852 -2.1509819
-13.074082 -19.986916 1.2516668
-6.1506152 -9.4027119 -2.1839998
-7.165421 -10.949909 1.1448778
-6.1918979 -9.4586077 -1.790549
-13.13426 -20.055971 2.9436324
-6.2039123 -9.4697456 -1.3900418
-13.588024 -20.733072 3.9261928
-6.1486516 -9.3818226 -0.98137361
-18.027126 -27.495939 6.3909574
-6.2195401 -9.4827662 -0.59432721
-5.3634229 -8.1743555 2.2571588
-6.2073965 -9.4570522 -0.19745652
-5.6548395 -8.6119471 2.7605641
-4.5934763 -6.976965 -2.2382672
-6.1881461 -9.3955202 0.19637449
-5.3458676 -8.1135979 -2.2432117
-7.1137743 -10.792703 0.67743665
-6.2147355 -9.4287205 -2.1950669
-12.799327 -19.411205 2.034215
-6.2488065 -9.4732132 -1.7974323
-13.418483 -20.334747 2.9914052
-6.2325559 -9.4414062 -1.3890669
-13.427363 -20.332764 3.8592389
-6.1923428 -9.3769283 -0.98311675
-14.419831 -21.827351 5.0850601
-6.2393889 -9.4410019 -0.5930711
-5.3962231 -8.1620865 2.2589586
-6.269052 -9.4786921 -0.19836405
-16.308416 -24.648676 7.9193454
-4.6081891 -6.9464002 -2.2336085
-6.2319627 -9.3905239 0.19672352
-5.2857742 -7.96176 -2.20632
-13.788992 -20.761969 1.306201
-6.2497802 -9.4102411 -2.1958301
-12.878036 -19.382999 2.0359581
-6.2599673 -9.4184399 -1.7911749
-13.236583 -19.907587 2.9353452
-6.2698722 -9.4262037 -1.3900418
-13.596744 -20.433777 3.8873968
-6.2321873 -9.362464 -0.98398834
-18.209934 -27.356342 6.3879037
-6.2745199 -9.4224892 -0.59328043
-5.4149575 -8.1286039 2.2549093
-6.288794 -9.4367838 -0.19794521
-16.499372 -24.749125 7.9700737
-4.629323 -6.9230409 -2.2315381
-6.2669272 -9.3720379 0.19679335
-5.5053153 -8.2299566 -2.2859526
-7.0101137 -10.475534 0.66058451
-6.2667546 -9.3611689 -2.1897242
-13.015508 -19.434999 2.0464168
-6.3120375 -9.4216909 -1.7961807
-13.367872 -19.953613 2.9489946
-6.3093672 -9.4141569 -1.3915043
-13.650383 -20.359943 3.882391
-6.2748208 -9.3555431 -0.98555714
-17.084965 -25.463488 5.9604917
-6.3112373 -9.4027472 -0.59348977
-5.4751325 -8.1540031 2.2675066
-6.3328438 -9.4313755 -0.19829424
-16.462864 -24.508562 7.9110632
-4.6588583 -6.9148493 -2.2341261
-6.3079405 -9.3589535 0.19700275
-5.3458796 -7.9285784 -2.2076695
-7.0678501 -10.482467 0.66257328
-6.2939043 -9.3310986 -2.1878161
-14.148653 -20.968351 2.2130587
-6.3404641 -9.3930531 -1.7949294
-13.416471 -19.868294 2.9436324
-6.3438311 -9.3909664 -1.3915043
-13.52676 -20.024075 3.8273261
-6.3141308 -9.3434887 -0.98660302
-14.336926 -21.207426 4.9759173
-6.346261 -9.3839674 -0.59369916
-5.4970078 -8.1251574 2.2648072
-6.3612423 -9.4025879 -0.19815461
-16.277615 -24.050978 7.7816539
-4.6753721 -6.8873563 -2.2305026
-6.3411889 -9.3412943 0.19707258
-5.4673901 -8.0510645 -2.2468112
-13.921476 -20.492527 1.2983505
-6.2878141 -9.2522392 -2.1744595
-12.846184 -18.895494 1.999004
-6.3849049 -9.3915777 -1.7986836
-13.518006 -19.876219 2.951432
-6.4039688 -9.4125509 -1.3978415
-13.79219 -20.264151 3.882391
-6.3377395 -9.3082151 -0.98520851
-14.15967 -20.796257 4.8904347
-6.3885856 -9.3793783 -0.59474587
-5.538187 -8.1278191 2.2706561
-6.4052906 -9.3968477 -0.19850367
-16.422419 -24.083391 7.8106413
-4.7101798 -6.8893566 -2.2361965
-6.3850465 -9.3356075 0.19742163
-5.4283347 -7.9338231 -2.219367
-13.965851 -20.404249 1.2958384
-6.3605995 -9.292901 -2.1889608
-12.938041 -18.895535 2.0035362
-6.4243469 -9.3790112 -1.8005608
-13.573841 -19.809261 2.9485071
-6.421073 -9.3672171 -1.3944291
-13.605894 -19.841183 3.8104312
-6.3753304 -9.2970076 -0.98625439
-14.198855 -20.698139 4.8789864
-6.437109 -9.3800764 -0.59621125
-6.4312582 -9.364543 -0.19829424
-16.819248 -24.481318 7.9586859
-4.7352953 -6.874464 -2.2367141
-6.4085178 -9.3000898 0.19714238
-5.4781165 -7.9469156 -2.2283652
-14.134501 -20.496778 1.3048402
-6.3729382 -9.2415504 -2.182092
-12.997131 -18.840416 2.0024903
-6.450315 -9.3467741 -1.7986836
-13.638395 -19.755224 2.9475322
-6.4740376 -9.3741484 -1.3988165
-13.980482 -20.235626 3.8955314
-6.4247322 -9.2992849 -0.98886907
-14.226371 -20.583847 4.8637218
-6.4607263 -9.3444061 -0.59537387
-19.192133 -27.747995 7.7891555
-6.4593563 -9.3354578 -0.19815461
-16.880411 -24.38751 7.947298
-4.7603626 -6.8594804 -2.2372317
-6.4569082 -9.3006601 0.19763105
-5.4346809 -7.8253074 -2.1995716
-7.2527223 -10.443076 0.66634142
-6.41188 -9.2289219 -2.1843815
-7.3364639 -10.555788 1.1246576
-6.4671154 -9.3014946 -1.7943035
-13.847824 -19.909576 2.9777558
-6.4908481 -9.3286791 -1.3954041
-13.918894 -20.004305 3.8598645
-6.458292 -9.2784367 -0.98904335
-14.255505 -20.472839 4.8492203
-6.5001545 -9.3316307 -0.59600192
-6.5085711 -9.3402376 -0.19871311
-17.4517 -25.035049 8.1771297
-4.7676754 -6.8190722 -2.2294674
-6.5083399 -9.3086958 0.19825934
-5.4237404 -7.7545457 -2.1847248
-12.915706 -18.459257 1.1806993
-6.4170365 -9.167882 -2.1752226
-13.08949 -18.693727 1.9965637
-6.4911265 -9.2702885 -1.7924262
-14.064099 -20.078165 3.0099294
-6.5468092 -9.3428688 -1.4007664
-14.006779 -19.981478 3.8648703
-6.4929285 -9.2590981 -0.98939192
-14.564538 -20.76944 4.9308863
-6.5448279 -9.3296442 -0.59725797
-17.766354 -25.316517 7.1403961
-6.5319428 -9.304368 -0.19843386
-17.663334 -25.151041 8.2351046
-4.7969337 -6.8127027 -2.2325733
-6.5453982 -9.2924623 0.19839896
-5.4653683 -7.7562752 -2.1905735
-13.558965 -19.242447 1.2336632
-6.4869928 -9.2027149 -2.1885793
-13.100885 -18.578579 1.9888941
-6.5735464 -9.3185997 -1.8061925
-14.253139 -20.197624 3.0352783
-6.5748005 -9.3134737 -1.3997915
-14.141314 -20.03175 3.8836427
-6.5224481 -9.2358885 -0.98921764
-7.7087245 -10.911633 2.5969105
-6.588882 -9.3230524 -0.59830469
-20.077585 -28.398607 8.0294027
-6.5858502 -9.3153124 -0.19913197
-16.930088 -23.937788 7.8561935
-4.8273921 -6.8053713 -2.2356789
-6.5715494 -9.2641811 0.19825934
-5.4707594 -7.7095008 -2.1824751
-7.6396532 -10.761968 0.69167209
-6.4861093 -9.1335955 -2.1775124
-13.114891 -18.461264 1.9812243
-6.588398 -9.2742023 -1.8018124
-14.313133 -20.140541 3.0338156
-6.6240525 -9.3175058 -1.4036912
-14.442417 -20.307436 3.946842
-6.5627322 -9.2244282 -0.99043781
-14.557617 -20.461857 4.8812757
-6.6128116 -9.2913895 -0.59767663
-7.8111877 -10.97112 3.1092734
-6.6136866 -9.2857513 -0.19899234
-17.383472 -24.397751 8.0270147
-4.8466249 -6.7821908 -2.2336085
-6.6217413 -9.2628069 0.19874801
-5.5318537 -7.7353663 -2.1955223
-14.69803 -20.545143 1.3238904
-6.5339451 -9.1332531 -2.1828551
-13.262735 -18.53203 1.9937748
-6.6476412 -9.2853289 -1.8086954
-14.449277 -20.175093 3.0469775
-6.6558461 -9.289937 -1.4032037
-14.567379 -20.325014 3.9606082
-6.6006932 -9.2095623 -0.9913094
-7.8442006 -10.940517 2.6167548
-6.6584625 -9.2833195 -0.59872341
-7.6332197 -10.638418 3.0228922
-6.6616688 -9.2809429 -0.1994112
-16.753904 -23.332706 7.6967611
-4.8770418 -6.7746391 -2.2367141
-6.6563721 -9.2428818 0.1988178
-5.4676929 -7.5895171 -2.1595302
-13.756053 -19.087278 1.2330352
-6.5588989 -9.1008329 -2.1805654
-12.956818 -17.971684 1.9383438
-6.6730795 -9.2524548 -1.8068182
-14.710093 -20.388548 3.0869508
-6.6859102 -9.2634277 -1.4027163
-14.649802 -20.290056 3.963737
-6.6456308 -9.2042351 -0.99322683
-7.8961349 -10.932169 2.6213341
-6.6838083 -9.2503061 -0.59809536
-7.5767012 -10.482198 2.9860003
-6.6869922 -9.2479105 -0.19920176
-16.683531 -23.064337 7.6273975
-4.8881855 -6.7403712 -2.2310205
-6.6909437 -9.2228279 0.19888763
-5.4403558 -7.4962587 -2.1383848
-6.5848603 -9.0699396 -2.1786571
-13.33559 -18.361607 1.9854077
-6.7401695 -9.2770491 -1.8162043
-14.603774 -20.092999 3.0499024
-6.7228746 -9.2464561 -1.4036912
-6.684751 -9.1906481 -0.99427271
-14.964067 -20.566067 4.9438615
-6.7583718 -9.2850523 -0.60186356
-18.09536 -24.851362 7.0972056
-6.7286544 -9.237442 -0.19948101
-16.948238 -23.258894 7.7112546
-4.9002857 -6.7076683 -2.2258439
-6.7396159 -9.2220192 0.1993763
-5.5101938 -7.5370021 -2.1554811
-13.641376 -18.652235 1.2110542
-6.6350236 -9.0722532 -2.1847632
-13.472545 -18.41464 1.9962151
-6.7515111 -9.2247715 -1.8105727
-14.54952 -19.87212 3.0240662
-6.7527642 -9.2197285 -1.4032037
-14.802772 -20.203222 3.9668658
-6.7191467 -9.1704721 -0.99462134
-15.042728 -20.523207 4.9461508
-6.760036 -9.2195272 -0.59914213
-22.446554 -30.602041 8.7618437
-6.7892485 -9.252594 -0.20031872
-17.445429 -23.76646 7.8996754
-4.9099312 -6.6718502 -2.2196321
-6.7622809 -9.1855536 0.19909707
-5.5468698 -7.5318441 -2.1595302
-7.8215752 -10.620564 0.69125336
-6.6456914 -9.020586 -2.1778939
-13.404352 -18.187866 1.9766922
-6.7860165 -9.2043285 -1.8111985
-15.646248 -21.214302 3.2366061
-6.8014059 -9.2184639 -1.4066161
-14.869689 -20.154022 3.9668658
-6.7653151 -9.1661987 -0.9967131
-17.693766 -23.964199 5.7902899
-6.8325219 -9.2504959 -0.60270095
-18.21051 -24.646063 7.0747104
-6.8175178 -9.2268124 -0.20024893
-17.074013 -23.099493 7.6967611
-4.9320388 -6.6531196 -2.2191145
-6.8117566 -9.1887827 0.19965553
-5.5149374 -7.4367089 -2.137485
-13.33487 -17.975069 1.1729535
-6.7052164 -9.0351725 -2.187053
-13.327618 -17.952196 1.9561234
-6.8165021 -9.1817741 -1.8111985
-15.742552 -21.197363 3.2419686
-6.8248348 -9.1862984 -1.4051536
-22.120646 -29.763762 5.8734889
-6.8115349 -9.1617146 -0.99880481
-17.784853 -23.921148 5.794106
-6.8297858 -9.1829147 -0.59977013
-18.436384 -24.779408 7.1304984
-6.8592348 -9.2157907 -0.20052816
-17.089935 -22.952982 7.6677732
-4.9690971 -6.6568527 -2.2258439
-6.853364 -9.1777658 0.19993477
-5.5758481 -7.464251 -2.1509819
-7.9457426 -10.632899 0.69564962
-6.7186885 -8.9908695 -2.1817102
-13.354869 -17.864817 1.9514171
-6.8674388 -9.1832352 -1.8162043
-7.8006072 -10.427291 1.5989259
-6.8687539 -9.1783113 -1.407591
-22.240978 -29.708504 5.8778691
-6.8466549 -9.1454544 -0.999502
-18.049477 -24.100925 5.8528757
-6.8857493 -9.1909866 -0.60186356
-18.464334 -24.636932 7.1080036
-6.8769684 -9.1725922 -0.20010929
-17.385546 -23.180643 7.7640538
-4.9853382 -6.6302023 -2.222738
-6.8997817 -9.172966 0.20035362
-5.5971832 -7.4385138 -2.1491826
-13.450422 -17.868776 1.1721163
-6.698081 -8.8983469 -2.1649189
-13.589726 -18.047285 1.9765179
-6.9018278 -9.162364 -1.81683
-14.269001 -18.9356 2.9112151
-6.9007487 -9.1542816 -1.407591
-18.726507 -24.832872 4.9261217
-6.8833361 -9.1278629 -1.0001993
-18.124043 -24.025229 5.8498225
-6.9129772 -9.1605167 -0.6014449
-18.439852 -24.426128 7.0657125
-6.9378681 -9.1868296 -0.20094702
-18.875406 -24.984941 8.3903961
-5.011951 -6.6173806 -2.2242911
-6.9341741 -9.1520119 0.20042343
-5.6819701 -7.4965825 -2.1716774
-13.667172 -18.025429 1.1855142
-6.7611275 -8.9171495 -2.1752226
-13.732108 -18.104507 1.9880224
-6.9122763 -9.1098909 -1.8111985
-14.324206 -18.87145 2.9090214
-6.9470682 -9.149107 -1.4105159
-6.9247952 -9.1164732 -1.0015938
-22.118029 -29.107775 7.1061087
-6.9666681 -9.1649513 -0.603329
-18.841125 -24.777334 7.1862864
-6.9529424 -9.140276 -0.20045835
-18.868916 -24.795914 8.3489857
-5.0408773 -6.6075239 -2.2268791
-6.9636526 -9.1245728 0.20035362
-5.6572556 -7.4100995 -2.1523318
-13.780925 -18.044277 1.1899104
-6.818429 -8.9278202 -2.1836183
-23.897608 -31.2794 3.4438722
-6.9656248 -9.1139574 -1.81683
-13.975233 -18.278851 2.8251753
-6.9886084 -9.1374168 -1.4124658
-18.616131 -24.331287 4.8522849
-6.9953179 -9.1428823 -1.0071718
-19.05978 -24.902119 6.0955844
-7.0034714 -9.1469212 -0.60374761
-18.972525 -24.77021 7.203383
-7.0066996 -9.1445189 -0.20108663
-18.86838 -24.616438 8.3106794
-5.0474329 -6.5684423 -2.2196321
-7.0027733 -9.1097212 0.20056306
-5.6783352 -7.3841271 -2.150532
-15.221147 -19.786488 1.3082944
-6.8531427 -8.9086332 -2.1847632
-8.0767412 -10.495439 1.1586484
-7.0166764 -9.1146317 -1.821836
-7.0131936 -9.1035318 -1.4110035
-7.0320539 -9.1247196 -1.007869
-7.0329185 -9.119256 -0.60353833
-18.98983 -24.614342 7.1772885
-7.0483499 -9.1326714 -0.20136586
-19.006138 -24.617708 8.333456
-5.0809727 -6.5645332 -2.2242911
-7.0443239 -9.0978699 0.20084229
-5.7040763 -7.3642612 -2.150532
-16.644323 -21.480949 1.4241662
-6.8577433 -8.8505154 -2.1763675
-8.1157694 -10.470331 1.1589971
-7.0605545 -9.1056938 -1.8249646
-14.735175 -18.996477 2.9519196
-7.0595312 -9.0978146 -1.4139282
-18.964808 -24.431673 4.8985891
-7.0785232 -9.1190042 -1.0099607
-7.0671582 -9.097805 -0.60374761
-19.190428 -24.695627 7.2204795
-7.0728221 -9.0985394 -0.20115645
-19.025545 -24.465813 8.3044682
-5.1050425 -6.5482817 -2.2248087
-7.0834169 -9.0826864 0.20105173
-5.7429333 -7.3612056 -2.1554811
-14.273867 -18.289455 1.2158691
-6.9187918 -8.8652172 -2.1859078
-14.326854 -18.350737 2.0368297
-7.1287732 -9.127697 -1.8343508
-14.808728 -18.954309 2.953382
-7.0863562 -9.0668612 -1.4129534
-19.028074 -24.337313 4.8929577
-7.115221 -9.1005192 -1.010658
-7.0914879 -9.0636425 -0.60311961
-19.062723 -24.355326 7.1403961
-7.1094699 -9.0800924 -0.20129606
-5.3581328 -6.8408546 2.3283362
-5.1028161 -6.4985132 -2.2139382
-7.1150761 -9.0579071 0.20105173
-5.8011031 -7.3824854 -2.1676283
-14.263569 -18.145304 1.2095888
-6.9060192 -8.7854452 -2.1721697
-14.39082 -18.300617 2.0368297
-7.1312799 -9.0654955 -1.8268418
-14.90181 -18.936823 2.9587443
-7.1400619 -9.0701466 -1.4173405
-7.1444793 -9.0724955 -1.0103093
-19.296267 -24.49478 6.0612388
-7.1750031 -9.1047211 -0.60751587
-19.287565 -24.466164 7.192585
-7.1460762 -9.0615015 -0.20143569
-5.3544607 -6.7872243 2.3164306
-5.1194754 -6.4730864 -2.21135
-7.1466517 -9.0330153 0.20105173
-5.7857189 -7.3102374 -2.1523318
-14.242513 -17.988928 1.2024711
-6.9671082 -8.7997675 -2.1817102
-14.370496 -18.144068 2.0249765
-7.1923227 -9.0777063 -1.8343508
-31.100853 -39.239525 6.1478214
-7.1938806 -9.0731649 -1.4217279
-7.1959152 -9.0724773 -1.0130984
-19.140032 -24.122766 5.9856782
-7.1868758 -9.0545874 -0.6058411
-19.421324 -24.459734 7.2105808
-7.1975608 -9.0615568 -0.20199415
-5.4285946 -6.8320189 2.3381712
-5.1576872 -6.4748197 -2.2180793
-7.1955881 -9.0299063 0.20154038
-5.8257756 -7.3082833 -2.1577303
-14.265372 -17.889132 1.1991215
-6.9990072 -8.7769289 -2.182092
-14.458595 -18.124941 2.0284626
-7.2091784 -9.0340185 -1.8305963
-30.957741 -38.780109 6.0927367
-7.2155991 -9.0355883 -1.419778
-21.752686 -27.229631 5.5199475
-7.2151017 -9.0317383 -1.0113552
-22.35685 -27.975901 6.9610944
-7.250864 -9.0700064 -0.60856253
-19.837637 -24.805759 7.3329549
-7.2341471 -9.0426216 -0.20213377
-5.1597052 -6.43116 -2.2092795
-7.2295666 -9.0078545 0.20161021
-5.8500304 -7.2863827 -2.1572804
-14.30461 -17.816807 1.1974468
-7.0591092 -8.7891788 -2.1912506
-14.933578 -18.586912 2.0859857
-7.2604699 -9.033433 -1.8356022
-7.2778635 -9.0518351 -1.4261152
-21.71163 -26.994181 5.486783
-7.2865524 -9.0561714 -1.0169332
-7.2774701 -9.0384178 -0.60814387
-19.763357 -24.545546 7.2753673
-7.2640915 -9.0185833 -0.20213377
-5.1810036 -6.4140143 -2.2092795
-7.2769938 -9.0056067 0.20209888
-5.904788 -7.304832 -2.1685281
-7.0499468 -8.718399 -2.1794205
-15.458759 -19.110432 2.1504807
-7.2804446 -8.9970217 -1.8330992
-8.3382549 -10.300565 1.6271995
-7.2903528 -9.0060511 -1.4227029
-21.801029 -26.922033 5.486783
-7.3115277 -9.0257654 -1.0162359
-7.3250113 -9.0359564 -0.60960931
-7.2989964 -9.000658 -0.20227338
-5.4913902 -6.7692142 2.3355832
-5.194932 -6.3878055 -2.2061737
-7.3244829 -9.0031433 0.20258754
-5.9302096 -7.2867217 -2.168978
-18.054642 -22.176662 1.4986926
-7.0961728 -8.7162867 -2.1847632
-15.494367 -19.025076 2.1466458
-7.3227172 -8.9881449 -1.836228
-8.3949413 -10.300555 1.6315869
-7.3393092 -9.0020866 -1.4261152
-21.020926 -25.774204 5.2677746
-7.3505464 -9.0094509 -1.0172819
-19.124105 -23.440121 5.880352
-7.3448334 -8.9992371 -0.60877192
