# .PCD v0.7 - Point Cloud Data file format
VERSION 0.7
FIELDS x y z
SIZE 4 4 4
TYPE F F F
COUNT 1 1 1
WIDTH 1510
HEIGHT 1
VIEWPOINT 0 0 0 1 0 0 0
POINTS 1510
DATA ascii
15.739915 -3.7671995 -1.9872018
22.518589 -5.3937659 -2.0258482
36.100796 -8.6603708 -1.9456418
7.4284334 -1.7957548 -2.0477762
8.5950603 -2.0809519 -2.0416558
10.345423 -2.5066442 -2.0691328
12.464382 -3.0246639 -2.0314584
15.734384 -3.8239937 -1.9881767
22.507368 -5.4742217 -2.0265453
36.047062 -8.7806606 -1.9443855
7.4315009 -1.8239764 -2.0503645
8.6392097 -2.1219933 -2.053803
10.323266 -2.5394583 -2.0664616
12.440857 -3.0626755 -2.0292683
15.706198 -3.8723483 -1.9862267
22.484253 -5.5517983 -2.0261967
7.4216623 -1.8476768 -2.0493293
8.6336403 -2.1526084 -2.0542529
10.284308 -2.5660727 -2.0603557
12.432007 -3.1065624 -2.0295811
15.711843 -3.9319689 -1.9886642
22.496643 -5.6340718 -2.0289855
35.296795 -8.8528442 -1.9071225
7.432024 -1.877831 -2.053988
8.6396809 -2.1845708 -2.0574024
10.28861 -2.6053298 -2.0630269
12.425466 -3.1487415 -2.0302067
15.691021 -3.9820964 -1.9876893
22.4807 -5.7135472 -2.0293343
35.422096 -9.0092287 -1.9154962
7.4182706 -1.9005483 -2.0519176
8.6357765 -2.2156839 -2.0583022
10.250932 -2.633899 -2.0573027
12.422052 -3.1940632 -2.0314584
15.696248 -4.0417943 -1.9901265
22.449045 -5.7890005 -2.0282884
35.497131 -9.1669626 -1.9213579
7.401907 -1.9252934 -2.0493293
8.6351404 -2.2492857 -2.0601017
10.262107 -2.6769042 -2.0615005
12.408349 -3.2390718 -2.0311453
15.68517 -4.1003008 -1.9906142
22.41033 -5.8666997 -2.0267196
37.430038 -9.8126049 -2.0279138
7.40414 -1.9548757 -2.0519176
8.6249552 -2.2804217 -2.0596519
10.220435 -2.7041724 -2.0550129
12.398305 -3.2850349 -2.0314584
15.681548 -4.1608167 -1.9920764
22.39164 -5.9454017 -2.0268939
37.202538 -9.8918772 -2.0174465
7.406601 -1.9832072 -2.0545056
8.618824 -2.3110194 -2.0601017
10.195765 -2.7357614 -2.05196
12.402023 -3.3323936 -2.0339613
15.674596 -4.2175932 -1.9930513
22.401533 -6.0318155 -2.0296829
36.866955 -9.9405642 -2.0011177
7.395905 -2.0080366 -2.0534704
8.5975418 -2.3375118 -2.0569522
10.172892 -2.7677269 -2.0492887
12.373162 -3.3709915 -2.0311453
15.672015 -4.2726817 -1.9945139
22.405327 -6.1167955 -2.031949
36.681763 -10.028112 -1.9929534
7.3910675 -2.0330639 -2.053988
8.6198044 -2.3742898 -2.0641508
10.176906 -2.8050978 -2.05196
12.424753 -3.4293475 -2.0414701
15.650107 -4.322515 -1.993539
22.361876 -6.1846876 -2.0298572
36.321087 -10.059075 -1.9751592
7.4456978 -2.0746744 -2.0710702
8.6024971 -2.4002419 -2.0619013
10.142471 -2.8337371 -2.046999
12.417119 -3.4715946 -2.0420959
15.650216 -4.3813987 -1.9954888
22.30562 -6.2530279 -2.0267196
36.212681 -10.165287 -1.9711816
7.4436202 -2.1035259 -2.072623
8.6105185 -2.4365311 -2.0659504
10.130128 -2.870357 -2.0466175
12.408111 -3.5181596 -2.0427215
15.649329 -4.4430671 -1.9974388
22.338127 -6.3505387 -2.0317745
35.764095 -10.180923 -1.9487817
7.4247179 -2.1276014 -2.0695171
8.5303507 -2.4476502 -2.0488544
10.135143 -2.9100349 -2.0496705
12.408423 -3.5674345 -2.0449116
15.62991 -4.4965692 -1.9969513
22.304337 -6.4251661 -2.0307288
35.747532 -10.311236 -1.9498285
7.4213314 -2.1532874 -2.0705523
8.5727139 -2.4906034 -2.0610015
10.100929 -2.9365029 -2.0447092
12.434458 -3.6196048 -2.0511689
15.618724 -4.5494852 -1.9974388
22.307772 -6.5063472 -2.0329947
35.264526 -10.298707 -1.9253354
7.4141507 -2.1778855 -2.0705523
8.5774946 -2.522867 -2.0641508
10.094903 -2.9710915 -2.0454724
12.437545 -3.6652865 -2.0536718
15.637019 -4.6140904 -2.001826
22.301361 -6.5847993 -2.0343893
34.9697 -10.338582 -1.9111
7.3898382 -2.1987941 -2.0658937
8.5742378 -2.554462 -2.0655005
10.071301 -3.0023851 -2.0428011
12.432246 -3.7109389 -2.0549233
15.609407 -4.6652346 -2.0003636
22.314507 -6.6734529 -2.0377011
34.703796 -10.391835 -1.8985393
7.3950663 -2.228478 -2.0695171
8.5596724 -2.5826871 -2.0641508
10.045723 -3.0329823 -2.0397482
12.370054 -3.7394516 -2.0467887
15.612024 -4.7254434 -2.0028009
22.321587 -6.7605448 -2.0404902
34.044228 -10.323958 -1.8644162
7.3706126 -2.249203 -2.0648584
8.5450134 -2.6108422 -2.0628011
10.012546 -3.061142 -2.0351689
12.430592 -3.8051584 -2.0589907
15.59164 -4.7787471 -2.0023134
22.28071 -6.8331633 -2.0389214
33.859058 -10.397003 -1.856252
7.3760347 -2.2776225 -2.0684819
8.5307236 -2.6374373 -2.0614514
9.9511604 -3.0803986 -2.0248652
12.412244 -3.844605 -2.0580521
15.587084 -4.8339529 -2.0037761
22.273846 -6.916213 -2.0404902
33.639465 -10.458208 -1.8462033
7.3639498 -2.303488 -2.0674467
8.5172815 -2.6675215 -2.0605516
9.9323111 -3.1145015 -2.0233386
12.428226 -3.8995347 -2.0630579
46.369434 -14.557968 5.9674549
15.565475 -4.8898606 -2.0032885
22.254051 -6.9995975 -2.0410132
33.623772 -10.588632 -1.8474596
7.3480911 -2.3281291 -2.065376
8.5111618 -2.6998994 -2.0614514
9.9344769 -3.1533101 -2.02601
12.427027 -3.9492481 -2.065248
46.35738 -14.741055 5.9728169
15.55966 -4.9477735 -2.004751
22.244671 -7.0820723 -2.0424078
33.518097 -10.684099 -1.8436912
7.3624067 -2.3595586 -2.0715878
8.4836054 -2.7221546 -2.0569522
9.9463978 -3.1934388 -2.0305893
12.381892 -3.9801586 -2.0599291
46.285568 -14.887408 5.9698925
15.558286 -5.0042067 -2.0067008
22.183132 -7.1435847 -2.0389214
33.28479 -10.731451 -1.8328053
7.3380017 -2.3785989 -2.0669291
8.4597034 -2.74546 -2.0533531
9.9264164 -3.2233732 -2.0286815
12.379897 -4.0248613 -2.0618064
15.552048 -5.0621705 -2.0081632
22.129644 -7.2117133 -2.0363066
33.231934 -10.836197 -1.8318634
7.3365769 -2.4078879 -2.0689995
8.4611769 -2.778621 -2.0560527
9.925725 -3.2634122 -2.0309711
12.385702 -4.0770025 -2.065248
46.54142 -15.320043 6.0162024
15.541823 -5.1189108 -2.0091381
22.051355 -7.2714467 -2.031426
33.279232 -10.986727 -1.8366783
7.3244605 -2.4322648 -2.0679643
8.4564848 -2.8114588 -2.0574024
9.9254513 -3.3017581 -2.0332606
12.384515 -4.1245818 -2.0674381
46.247662 -15.411449 5.9854913
10.457235 -3.4867697 -1.3534811
22.025839 -7.3483753 -2.031426
33.297512 -11.121808 -1.8398185
7.3195882 -2.4590478 -2.0689995
8.4434195 -2.838244 -2.0565026
9.8952579 -3.3301227 -2.0294447
12.365153 -4.1637363 -2.0664995
45.801258 -15.431625 5.9343066
10.336514 -3.4846468 -1.3393443
21.986841 -7.4207554 -2.0302057
33.252876 -11.229609 -1.8393996
7.3095641 -2.4826858 -2.0684819
8.413167 -2.8607991 -2.0515537
9.8562822 -3.3534324 -2.0237205
46.590298 -15.86063 4.3058424
12.324364 -4.1979561 -2.0621192
45.897427 -15.642637 5.9538054
10.245374 -3.4937971 -1.3291072
46.67691 -15.926487 7.8113995
21.980968 -7.5000596 -2.031949
33.130318 -11.317207 -1.8347942
7.2880635 -2.5037916 -2.0648584
8.3902302 -2.8857121 -2.0484045
9.8667927 -3.395483 -2.0282996
12.317107 -4.243525 -2.0633709
10.128027 -3.4932919 -1.3154578
46.434296 -16.024879 7.7801123
21.932053 -7.5689425 -2.0298572
33.517242 -11.580187 -1.8584501
7.2975278 -2.535557 -2.0700347
8.389308 -2.9181831 -2.0506537
9.8660049 -3.4337757 -2.0305893
12.319007 -4.2923431 -2.0661867
10.055793 -3.5077024 -1.3076582
21.877283 -7.6356049 -2.0272424
33.404968 -11.672079 -1.8544725
7.2868104 -2.560374 -2.0695171
8.3845863 -2.9493892 -2.0520036
47.758785 -16.809153 2.6534331
9.852107 -3.4675415 -2.0302079
12.29836 -4.3333488 -2.065248
10.058463 -3.5480649 -1.3096081
21.878677 -7.7218709 -2.0298572
33.168175 -11.719414 -1.8435866
7.261445 -2.5799732 -2.0648584
8.3925991 -2.9851694 -2.0565026
47.609505 -16.943621 2.6484091
9.8362436 -3.5005946 -2.0294447
12.279438 -4.3749261 -2.0646224
10.161941 -3.6245005 -1.3247199
21.812702 -7.78861 -2.026371
36.900009 -13.18306 -2.0535586
7.268302 -2.6124516 -2.0695171
8.3711262 -3.0104902 -2.053803
9.8122644 -3.5326324 -2.0271549
44.548965 -16.047398 4.1426868
12.272612 -4.4232516 -2.0661867
10.242595 -3.6936202 -1.3369068
21.787254 -7.8653789 -2.0265453
36.768795 -13.288346 -2.0489528
36.642075 -13.249781 -0.68012029
7.264586 -2.6397862 -2.0710702
8.3490467 -3.0371544 -2.0511036
9.8109426 -3.5708909 -2.0294447
44.073326 -16.050091 4.103641
10.286014 -3.7478693 -1.7339199
10.236448 -3.7338576 -1.3378818
21.722237 -7.9277215 -2.0230591
7.2553272 -2.6651285 -2.0710702
8.3224678 -3.058774 -2.0470545
43.901588 -16.14394 2.4514165
9.842638 -3.6213858 -2.0386035
9.4893894 -3.4932957 -1.6015763
45.870365 -16.895189 6.0020657
10.26685 -3.7835698 -1.3434877
21.716862 -8.0117731 -2.0251508
35.358414 -13.05142 -1.9752638
7.2337708 -2.684468 -2.0674467
8.3208742 -3.0911994 -2.0493042
9.8287344 -3.653321 -2.0382218
9.2994051 -3.4602656 -1.5715408
45.967381 -17.113382 6.0225396
10.261023 -3.8221571 -1.3444628
21.705109 -8.0893106 -2.0265453
35.361294 -13.192915 -1.9779854
7.2279744 -2.7110593 -2.0684819
8.3136826 -3.1215959 -2.0502038
9.8416519 -3.6972735 -2.0435643
43.879608 -16.493261 4.1012006
9.1578445 -3.4440315 -1.5496399
10.266195 -3.8649452 -1.3469001
21.624535 -8.1453619 -2.0216646
34.601368 -13.060966 -0.6455645
7.202209 -2.7301104 -2.0638232
8.3045568 -3.1512883 -2.0506537
9.8415346 -3.7364829 -2.0462358
9.1051435 -3.4605381 -1.5427569
10.248932 -3.8993459 -1.3464125
21.551279 -8.203784 -2.0174811
34.234371 -13.045457 -1.919997
7.180007 -2.7503967 -2.0601997
8.2698517 -3.1711872 -2.044805
9.8467607 -3.7778456 -2.0500519
9.0266228 -3.4668036 -1.5314937
45.674473 -17.551085 6.0079155
15.364003 -5.90692 -2.0210814
21.414658 -8.2374744 -2.0073709
7.1883788 -2.7824163 -2.065376
8.2660007 -3.2028513 -2.0466046
43.579632 -16.894674 2.4495323
9.85182 -3.8192911 -2.0538683
8.9555359 -3.4754219 -1.5214819
15.352542 -5.9641085 -2.0223
21.060789 -8.1858616 -1.9768665
33.602676 -13.07412 -1.8896422
33.486301 -13.042299 -0.62727439
7.1642284 -2.8018625 -2.061235
8.2438822 -3.2274227 -2.0439053
9.8439121 -3.8558049 -2.0550129
45.321991 -17.761494 4.2587781
8.8845005 -3.4835868 -1.51147
15.335327 -6.0191135 -2.0227876
20.88558 -8.2017937 -1.9630958
45.343796 -17.815701 9.4698505
7.1687784 -2.8325324 -2.065376
45.277023 -17.899023 0.84982753
8.2525005 -3.2640641 -2.0488544
45.254616 -17.908434 2.5506456
9.8559494 -3.9002566 -2.0603557
8.8135176 -3.4912975 -1.5014582
45.550922 -18.05328 6.0162024
15.332674 -6.0799232 -2.0252249
20.738298 -8.2276258 -1.9519401
32.742104 -13.003195 -1.846308
7.1444936 -2.8518095 -2.061235
8.2338171 -3.2899582 -2.0470545
9.8623285 -3.9426532 -2.0645535
8.7572603 -3.5044272 -1.4939493
15.31873 -6.1363611 -2.0262001
20.755688 -8.3184958 -1.9562978
32.674271 -13.108481 -1.845052
7.1398711 -2.8788984 -2.0627878
51.189137 -20.650583 0.96347755
8.2204762 -3.3179505 -2.0466046
9.8557873 -3.9799953 -2.0660799
8.6790447 -3.5083237 -1.482686
47.113159 -19.054087 6.2399549
15.289855 -6.1868167 -2.0252249
20.591707 -8.3363171 -1.943573
31.980452 -12.959913 -1.8084167
7.1297779 -2.9038036 -2.0627878
8.1985998 -3.34078 -2.0439053
9.8745556 -4.0277209 -2.0729489
8.6088362 -3.5132005 -1.4726743
47.012959 -19.195206 6.2350798
15.276607 -6.240489 -2.0262001
20.433392 -8.3553572 -1.9313713
7.1218967 -2.9281657 -2.0633056
8.2283363 -3.386436 -2.0542529
8.5198154 -3.5116146 -1.4595338
8.8118868 -3.6355965 -1.1704333
19.693272 -8.133069 -1.864087
8.8141394 -3.6419277 -0.49980843
7.1004119 -2.9498019 -2.0601997
8.7384682 -3.6303174 0.16516958
8.1876736 -3.4031706 -2.0470545
8.7781916 -3.6504138 0.49823835
8.71873 -3.6292567 0.82623643
8.3500605 -3.4775045 -1.432627
8.7081556 -3.6266387 1.1582464
8.7207975 -3.6354759 1.4964522
8.7602339 -3.6555059 1.8451231
8.737359 -3.6495423 2.1860743
7.0847278 -2.972327 -2.0586467
8.6624126 -3.6360068 0.16398282
8.1985025 -3.4429662 -2.0529034
8.7784252 -3.6883075 -1.8508474
8.6398859 -3.6318734 0.81996119
8.1630659 -3.4331133 -1.4025916
8.7325878 -3.6762233 -1.1633649
8.6207781 -3.6326971 1.8184099
8.7271204 -3.679302 -0.49635425
8.606061 -3.6300333 2.1563809
8.7438488 -3.6899502 -0.16565825
8.6156473 -3.63762 2.5058861
7.086761 -3.0023143 -2.0622702
8.6478262 -3.6654418 0.1639479
8.1541414 -3.4578688 -2.044805
8.6672678 -3.6772518 0.49342343
8.7401962 -3.7081928 -1.8455048
8.0092115 -3.4013586 -1.3781878
8.579669 -3.6453881 1.1445969
8.6977797 -3.6973641 -1.16044
8.6291189 -3.669955 1.485189
8.7107706 -3.7046814 -0.82815391
8.5791397 -3.6504679 1.8123039
8.6793089 -3.6948791 -0.49436548
8.6775665 -3.6977162 -0.164646
8.5655785 -3.6517622 2.4950156
7.0673561 -3.0232344 -2.0596819
8.6331406 -3.6948192 0.163913
8.1420212 -3.4863112 -2.044805
8.6194983 -3.6925404 0.49143466
8.7055426 -3.7294016 -1.8409253
8.6069956 -3.6889632 0.81926399
7.9174075 -3.395041 -1.3644215
8.5796614 -3.680793 1.1463031
8.6756992 -3.7237875 -1.1592213
8.5890293 -3.6883628 1.480496
8.6941233 -3.7334929 -0.82780522
8.5861874 -3.6889172 1.8165017
8.6571836 -3.7212098 -0.49384215
8.5518656 -3.6777081 2.1491826
8.6370525 -3.7161283 -0.16412243
8.5510044 -3.6808751 2.494498
7.0620809 -3.0501833 -2.061235
8.6183548 -3.724139 0.1638781
8.1476898 -3.5224438 -2.0493042
8.6120548 -3.7249846 0.49174872
8.6798582 -3.7543116 -1.838254
8.5922384 -3.7181935 0.81908965
7.858376 -3.4022517 -1.3562869
8.5649395 -3.7099302 1.1460594
8.6681128 -3.7564173 -1.1599525
8.5634155 -3.7128208 1.4783059
8.6408224 -3.746382 -0.82397038
8.5354347 -3.7024593 1.8084878
8.6514692 -3.754586 -0.49426082
8.5371885 -3.7067609 2.1487324
8.6166925 -3.7430685 -0.16398282
8.5257015 -3.7053111 2.4908745
7.0708699 -3.0833104 -2.0669291
8.6089678 -3.7557991 0.1639479
8.1514187 -3.5578794 -2.0533531
8.595994 -3.7519248 0.49153933
8.5737286 -3.7457702 0.81856668
7.7885313 -3.4043443 -1.3462751
8.5774002 -3.7509398 1.1494718
8.6222115 -3.7723289 -1.1555651
8.5456276 -3.7388222 1.4773673
8.6422949 -3.782913 -0.82536483
8.5404425 -3.7401066 1.8123039
8.6511164 -3.7903736 -0.49499351
8.5331211 -3.7404506 2.1509819
8.6225462 -3.7796495 -0.16433185
8.5169067 -3.7351151 2.4919097
7.0812812 -3.1173134 -2.0731406
8.6092777 -3.7899663 0.16419223
8.1645432 -3.5958872 -2.0596519
8.5992947 -3.7891555 0.49248141
8.3336706 -3.6738491 -1.770326
8.5770082 -3.7829115 0.82013553
7.7302084 -3.4094281 -1.3381406
8.5867071 -3.7889795 1.1523966
8.6750317 -3.8297625 -1.1643399
8.5433655 -3.7734182 1.4792445
8.6326818 -3.8146677 -0.82571346
8.5441551 -3.7755489 1.8157386
8.6458073 -3.8222713 -0.49541223
8.5313635 -3.7734561 2.1536813
8.6056433 -3.8081064 -0.16426206
8.5232477 -3.7734246 2.4976039
7.0885606 -3.1486211 -2.0783172
8.6087875 -3.82568 0.16443658
8.1376963 -3.6180315 -2.0560527
8.5914907 -3.8215849 0.49279541
8.369875 -3.7230079 -1.7806298
8.5953608 -3.825104 0.82309878
7.6821666 -3.4203212 -1.3318831
8.5734291 -3.8189297 1.1523966
8.6472807 -3.8554437 -0.82832819
8.5345097 -3.8069499 1.8165017
8.5959339 -3.8361483 -0.49331877
8.5188427 -3.8070943 2.5001922
7.0740004 -3.1717649 -2.0772817
8.1836882 -3.6727462 -2.0708995
8.6327591 -3.8760941 0.49593559
7.5490842 -3.3895261 -1.6085199
8.6346626 -3.8787601 0.82815391
7.6377497 -3.4325407 -1.3262516
8.6752386 -3.902447 -1.1679959
8.6302996 -3.8840432 1.4989552
8.580245 -3.863317 1.8290951
8.7045002 -3.9210911 -0.50033182
8.7215633 -3.9306092 2.2085695
8.7957811 -3.9659038 -0.16841573
8.6199646 -3.8884413 2.5338387
7.0699263 -3.1996245 -2.0793524
8.2915249 -3.7559688 -2.1014926
7.4263396 -3.3656118 -1.5848596
7.6113296 -3.4526525 -1.3237487
45.211086 -20.518173 6.096149
8.6489105 -3.9269605 -1.1662897
8.6999693 -3.9519753 -0.83599782
8.6634884 -3.9390519 -0.49876171
8.7964439 -4.0032091 -0.16869496
7.0446572 -3.2178626 -2.0752113
8.3545723 -3.8197317 -2.1208386
7.3609858 -3.3670146 -1.573411
7.5633097 -3.4627535 -1.3174912
45.236649 -20.720503 6.1093106
8.6459789 -3.9620893 -1.1677521
8.5919447 -3.939142 -0.82693368
8.5080948 -3.9042945 -0.49059731
8.771513 -4.028882 -0.16848554
7.0456619 -3.2480948 -2.0788348
8.5393667 -3.9403167 -2.1712275
7.3135386 -3.3762314 -1.5657787
11.883554 -5.4909725 -2.0733826
45.383869 -20.979904 6.1390467
15.320122 -7.0853806 -2.0725102
8.5401678 -3.9515393 -0.82327312
8.7356253 -4.0493836 -0.16806667
7.0167651 -3.2645195 -2.0736582
8.5061274 -3.9610512 -2.1662786
7.2518802 -3.3785257 -1.5550934
11.871475 -5.5357604 -2.0746341
45.393112 -21.176802 6.150259
15.270114 -7.1270609 -2.0690978
8.3955889 -3.9238508 -0.48567775
6.9895892 -3.2816041 -2.0689995
8.4957771 -3.9923773 -2.1671786
7.2045088 -3.3871129 -1.547461
11.896764 -5.5981913 -2.0824559
15.295426 -7.2040033 -2.0759225
8.4601068 -3.9864359 -0.81821811
8.3980989 -3.9608006 -0.48661977
8.5534334 -4.0377116 -0.16509975
6.9990416 -3.315908 -2.0752113
8.4712238 -4.0169983 -2.164479
7.1482964 -3.3912034 -1.5379206
11.868228 -5.6354489 -2.0808916
15.282736 -7.2633157 -2.0776286
8.4587355 -4.0219316 -0.81943828
8.4058638 -4.0003905 -0.48787585
6.985682 -3.3394854 -2.0746937
8.3921089 -4.0154233 -2.1478326
7.1098537 -3.40342 -1.5321964
11.850266 -5.6776958 -2.0812044
15.273399 -7.3243427 -2.0798223
8.4536266 -4.0557427 -0.82030988
8.3954487 -4.0314374 -0.48808515
8.5592813 -4.1137857 -0.16576295
6.9826818 -3.3680456 -2.0772817
8.386816 -4.0489292 -2.1500821
7.0608048 -3.4102862 -1.5241823
11.823261 -5.7155876 -2.079953
15.28169 -7.3940396 -2.0844533
8.4064894 -4.0729098 -0.48955056
8.41712 -4.0816889 -0.16328472
6.9604602 -3.3873274 -2.0741758
8.3586168 -4.0713534 -2.1464829
7.0259142 -3.4237318 -1.5192213
11.799686 -5.7550917 -2.0793271
15.223679 -7.4316626 -2.0800662
8.5217819 -4.1618757 -0.82972264
8.3814545 -4.0969667 -0.48892254
8.3920431 -4.1057725 -0.1630753
6.9485936 -3.4116032 -2.0741758
8.3793335 -4.1176949 -2.1554811
6.9681125 -3.4257157 -1.5092993
11.820292 -5.8163047 -2.0865231
15.210109 -7.4908977 -2.0817723
21.137539 -10.414709 -2.0615819
8.3957634 -4.1403322 -0.49059731
8.4009724 -4.1465468 -0.16352905
6.9470296 -3.4409821 -2.0772817
8.363163 -4.1460538 -2.1550312
6.903348 -3.4238484 -1.4978507
11.805225 -5.8601646 -2.0874617
15.233645 -7.568676 -2.0885971
21.063589 -10.469807 -2.0579214
8.4027176 -4.1802888 -0.49185339
8.4204569 -4.1927814 -0.16419223
6.933248 -3.4643474 -2.0767641
8.3678112 -4.1848092 -2.1599801
6.8527274 -3.4285989 -1.4894551
11.765268 -5.8916068 -2.0840201
15.226656 -7.6315899 -2.0912783
20.998417 -10.528979 -2.0551324
8.4059258 -4.2185531 -0.49290007
8.4075575 -4.2230463 -0.16422716
6.9199963 -3.4864507 -2.0762465
8.3643274 -4.2177992 -2.1626794
6.781724 -3.4212391 -1.4764801
11.75272 -5.9341516 -2.0852716
15.192406 -7.6775646 -2.0900595
20.924269 -10.578777 -2.0512974
8.3847618 -4.2427979 -0.49248141
8.398859 -4.2536139 -0.16433185
6.8974509 -3.5053332 -2.0731406
8.3165531 -4.2301841 -2.1541312
6.6717544 -3.3950295 -1.4551095
11.758338 -5.9885874 -2.0899646
15.160208 -7.7278447 -2.0893283
20.731022 -10.572099 -2.0359581
8.3699007 -4.2720404 -0.49248141
8.3893023 -4.285635 -0.16443658
52.585396 -26.874571 15.82368
6.9143987 -3.5443699 -2.0819407
8.293066 -4.2547402 -2.1518817
6.5637989 -3.3689911 -1.4341204
11.742633 -6.0323024 -2.0909033
15.149028 -7.7888846 -2.0915217
20.631981 -10.612503 -2.0298572
8.3869009 -4.3176861 -0.49436548
47.966721 -24.704483 12.45644
5.7185516 -2.9465106 -0.11228879
6.8848233 -3.5596116 -2.0767641
8.2712412 -4.2800808 -2.1500821
6.4177513 -3.3223841 -1.4047359
11.735537 -6.0805259 -2.0934062
15.130559 -7.8462868 -2.0927405
20.486929 -10.628489 -2.0192242
8.3930492 -4.3579798 -0.49562153
5.6691942 -2.946167 -0.11152088
6.8774958 -3.586302 -2.0783172
8.2614326 -4.3116317 -2.1514318
6.3469439 -3.3138719 -1.3917608
11.707236 -6.117794 -2.0921547
15.08021 -7.8870945 -2.0895717
20.361437 -10.653753 -2.0105085
5.663631 -2.9659111 -0.33505484
5.6624184 -2.9677951 -0.11159069
52.150528 -27.344814 15.778127
6.8717742 -3.613884 -2.0803876
8.2446079 -4.3395357 -2.1509819
6.2988577 -3.316797 -1.3837469
11.685811 -6.1586223 -2.0921547
15.071902 -7.9498744 -2.0922532
20.267738 -10.695008 -2.0049307
41.607502 -21.964996 9.1454763
5.6267519 -2.9716718 -0.33348474
5.6255054 -2.973525 -0.11106712
52.034264 -27.515852 15.771915
6.8625312 -3.6396594 -2.081423
8.2311306 -4.3692017 -2.1514318
6.2386918 -3.3129821 -1.3730617
11.664242 -6.1993756 -2.0921547
14.952926 -7.9539595 -2.0795786
5.6230402 -2.9923415 -0.55727381
5.6075311 -2.9866004 -0.33296138
5.6062684 -2.9884405 -0.11089259
6.8617091 -3.6699696 -2.0850463
8.2072401 -4.3933086 -2.1491826
6.1907439 -3.3152757 -1.3650476
11.68954 -6.2652493 -2.1006021
14.963555 -8.0267506 -2.0849409
42.029797 -22.555071 7.5548468
49.292156 -26.507809 14.996493
6.8267522 -3.6819775 -2.0783172
8.1935692 -4.4228563 -2.1496322
6.1566768 -3.3247378 -1.3600866
11.672812 -6.3088331 -2.1015408
42.311775 -22.877892 5.9060326
14.820209 -8.0165997 -2.0688543
41.985558 -22.720451 7.5611043
49.029507 -26.58762 14.944731
6.8070698 -3.7020926 -2.0762465
6.0796447 -3.3092258 -1.5980524
6.1174469 -3.3311863 -1.3539807
42.664406 -23.242073 4.2505856
11.645514 -6.346705 -2.1006021
42.224689 -23.021646 5.9050579
14.603921 -7.9656229 -2.0425303
41.905991 -22.866867 7.5611043
6.8025751 -3.7304757 -2.0788348
6.0253468 -3.3069868 -1.5868047
6.0937347 -3.3459053 -1.3513094
42.555077 -23.375511 4.2477965
11.618096 -6.3844619 -2.0996637
14.589942 -8.0242052 -2.0444803
5.5754757 -3.0676785 -0.55675089
5.5845299 -3.0752001 -0.33411276
5.5780082 -3.0741467 -0.11117183
48.60585 -26.798672 14.87226
43.229263 -23.91308 0.8623234
5.9745507 -3.3062966 -1.576457
42.782089 -23.685223 2.5627873
6.0545368 -3.3519413 -1.3452035
11.592283 -6.4230633 -2.0990379
14.740655 -8.174242 -2.0695853
5.5751867 -3.0929208 -0.55779672
5.5737615 -3.0946751 -0.33411276
5.5812259 -3.1013691 -0.11145107
6.4760194 -3.6104298 -1.9866952
43.152515 -24.06773 0.86246306
5.9238324 -3.3052926 -1.5661093
6.0153713 -3.3577449 -1.3390976
11.542201 -6.4480743 -2.094032
14.701339 -8.2163 -2.0678792
5.5782676 -3.1201441 -0.55919123
5.5698962 -3.1180146 -0.33453146
5.5744004 -3.1218145 -0.11152088
6.5061164 -3.6555429 -1.9996361
5.8890586 -3.3115463 -1.5598106
5.9888043 -3.3690112 -1.3356631
11.524197 -6.4882522 -2.0946577
34.94677 -19.683456 4.9247408
14.689577 -8.2737732 -2.0700727
5.5748324 -3.1425385 -0.55988848
5.5664835 -3.1403933 -0.33495015
5.5709839 -3.1442139 -0.1116605
45.206501 -25.524557 13.910489
5.59795 -3.1697476 -1.7237349
34.960426 -19.803827 0.7013424
5.8492227 -3.3147233 -1.5521622
34.81189 -19.735743 2.0972066
6.4472671 -3.6551192 -1.4406079
34.759968 -19.714325 3.4961655
11.512925 -6.5322809 -2.096535
34.915829 -19.818832 4.929615
14.670963 -8.3308811 -2.0715353
5.5678458 -3.1629765 -0.56023711
5.5734015 -3.1687064 -0.33599687
5.5738788 -3.1715529 -0.11193974
5.6019506 -3.1978886 -1.7283937
34.578514 -19.74724 0.69505954
5.5871911 -3.192049 -1.4855767
34.451466 -19.690634 2.0796216
5.6146069 -3.209012 -1.2570497
34.697861 -19.839497 3.4968626
11.491769 -6.5734096 -2.0968478
34.481174 -19.731575 4.8779426
14.502249 -8.3021555 -2.0517924
5.5740604 -3.1922944 -0.56198025
5.5657725 -3.1901283 -0.33620623
47.820362 -27.420242 12.72638
5.5766501 -3.1989501 -0.11221898
44.869709 -25.749149 13.861831
34.422726 -19.817934 0.69331431
5.5912127 -3.2202857 -1.4896258
34.292542 -19.758926 2.0741789
5.5812573 -3.2158496 -1.2520887
14.452549 -8.3408213 -2.0488675
34.390732 -19.855499 6.2896047
5.5761247 -3.220675 -0.5633747
5.5736251 -3.2205286 -0.33735761
47.724358 -27.586996 12.72638
5.5792985 -3.2264049 -0.11249821
6.4661379 -3.7528138 -2.0032594
34.578175 -20.068464 0.6978519
5.7501507 -3.3386111 -1.535066
5.5762229 -3.2402301 -1.2536151
5.5558887 -3.2323062 -0.78922594
5.5855098 -3.2521496 -0.56546646
34.195278 -19.918108 7.6922746
5.5773153 -3.2499859 -0.33829966
47.622925 -27.76173 12.72638
5.574913 -3.2498894 -0.11263783
5.724422 -3.3517864 -1.5314667
9.383215 -5.4962974 -2.1137822
5.5657163 -3.2627752 -1.0218301
5.5474286 -3.254657 -0.78971344
5.5741239 -3.2716267 -0.56546646
5.5728254 -3.2734804 -0.33871832
47.609737 -27.977163 12.748877
5.5664115 -3.2723269 -0.11270764
6.769259 -3.9921734 -2.105752
5.6925483 -3.3598619 -1.526068
9.3605919 -5.5270214 -2.113019
11.443611 -6.7623415 -2.1052952
14.359515 -8.4921932 -2.0483801
5.5660987 -3.293093 -0.56581503
5.5751133 -3.3010545 -0.33955571
47.70293 -28.256403 12.800165
5.5618367 -3.2958152 -0.11284725
6.7768698 -4.0286117 -2.1124811
5.5669651 -3.3106806 0.11305669
5.6539893 -3.3637702 -1.5188695
9.3513641 -5.5656872 -2.1153085
11.426725 -6.8062897 -2.1065466
33.998409 -20.259077 4.8594184
14.299093 -8.5239706 -2.0439928
5.5682602 -3.3206666 -0.56720954
5.5687017 -3.3235655 -0.33986974
5.5554485 -3.3182859 -0.11295197
6.7644229 -4.0532355 -2.1129987
5.5399384 -3.3208396 0.11274255
5.6087875 -3.3634415 -1.5098715
5.5731354 -3.3433843 0.34060243
9.3453465 -5.6063747 -2.1183615
5.6768408 -3.4069459 0.57923704
11.413058 -6.8522367 -2.1084239
14.085485 -8.4634123 -2.0176692
5.5702953 -3.3482947 -0.56860405
5.5604892 -3.3450429 -0.34007907
5.5558243 -3.3448782 -0.11319631
6.7419653 -4.0718288 -2.1104105
5.5591202 -3.3587713 0.11337084
5.5653253 -3.3638461 -1.5013233
5.5716858 -3.3690186 0.34123048
9.322361 -5.6369305 -2.1175983
5.5506954 -3.3576496 0.56755817
11.404281 -6.901238 -2.1112397
5.5529723 -3.3616748 0.79702556
14.266402 -8.6400404 -2.0478926
5.7222962 -3.4669108 1.0596871
5.5687981 -3.3739123 -0.56964993
5.5658574 -3.3747869 -0.34112579
5.5441146 -3.3642514 -0.11319631
45.130783 -27.396809 14.146531
6.7508125 -4.1094012 -2.1176574
40.800785 -24.846296 0.83384109
5.5302501 -3.3690584 -1.4950247
5.5803571 -3.4009192 0.34248653
9.300951 -5.6684151 -2.1172168
5.5474467 -3.3821905 0.56842977
11.380122 -6.9410043 -2.1112397
5.5666223 -3.3965468 0.80068165
14.432705 -8.809761 -2.0761664
5.5550561 -3.3921518 1.0309032
5.5603881 -3.3954079 -0.56999856
5.5625644 -3.3994029 -0.34164914
5.5323377 -3.3835833 -0.11319631
6.7305617 -4.1277256 -2.115587
5.4874911 -3.3680108 -1.4864765
41.022377 -25.187811 2.5228026
9.2837753 -5.7002549 -2.1175983
11.346944 -6.9724984 -2.1093626
14.2377 -8.7556667 -2.0522799
5.5507951 -3.4148719 -0.57017285
5.5597644 -3.4230657 -0.3421725
5.5278964 -3.4061067 -0.11333593
45.716187 -28.17981 14.389822
6.7210417 -4.1542411 -2.1171398
5.4326115 -3.3604906 -1.4747791
9.2604828 -5.7305608 -2.1168351
11.325894 -7.0141449 -2.1099885
14.067005 -8.7185135 -2.0320497
5.5490007 -3.440526 -0.57121873
5.5545707 -3.4466646 -0.34259123
5.526166 -3.4317112 -0.11354536
45.460007 -28.24135 14.340129
6.7212567 -4.1868701 -2.1217985
5.3910813 -3.360877 -1.4666809
9.255415 -5.7722006 -2.1202698
11.299667 -7.0525913 -2.1096754
13.9321 -8.7023621 -2.0169377
5.543716 -3.4640982 -0.57191598
5.5425057 -3.4660327 -0.34259123
5.5311046 -3.4615891 -0.11389441
45.30875 -28.367058 14.323565
6.7147822 -4.2154417 -2.1243868
5.3001122 -3.3299124 -1.4450855
39.910866 -25.084597 2.4704666
9.2335472 -5.8034277 -2.1198881
11.286684 -7.0993538 -2.1118655
13.972197 -8.7953558 -2.0271747
5.5433917 -3.4908602 -0.57313615
5.5405107 -3.4917474 -0.34321922
5.5223699 -3.4830081 -0.11396421
6.6967611 -4.2367897 -2.1233516
37.496281 -23.731649 0.77457273
5.1896682 -3.2858455 -1.4180914
39.743092 -25.163391 2.4652333
9.2331371 -5.8482304 -2.1244676
11.258496 -7.1365924 -2.1112397
5.5345378 -3.5123239 -0.57348478
5.5384045 -3.5174909 -0.34384724
5.5141649 -3.5034471 -0.11403403
6.6819315 -4.2601395 -2.1233516
37.140846 -23.679558 0.7688483
5.1393118 -3.2778869 -1.4072938
39.786343 -25.385763 2.4733975
9.2110109 -5.8793683 -2.1240859
45.844994 -29.274017 4.7588778
11.261408 -7.1908975 -2.1162457
5.5289569 -3.5359151 -0.57418203
5.5368047 -3.5422962 -0.3444753
5.5221114 -3.5356131 -0.11445288
6.6807714 -4.2906256 -2.1274927
38.848026 -24.959141 0.80598706
5.0852156 -3.2684119 -1.3955964
9.1931152 -5.9109426 -2.1244676
11.2379 -7.2312326 -2.1165586
14.64528 -9.4310036 -2.1388073
5.5232797 -3.5595105 -0.57487923
5.5277629 -3.563766 -0.34468466
5.5231786 -3.5635397 -0.11473212
39.093029 -25.309774 0.81289822
5.0345197 -3.2607179 -1.3847986
9.1895103 -5.9563432 -2.1286652
11.221264 -7.2788224 -2.1184359
49.634048 -32.195789 7.2641449
5.524189 -3.5874503 -0.5762738
5.5180135 -3.586179 -0.34489399
5.5274711 -3.5936978 -0.11508117
45.94548 -29.882969 14.685911
5.0351539 -3.2848806 -1.6108898
5.0062175 -3.2684946 -1.3802997
39.638737 -25.879618 2.4809339
9.1653757 -5.986237 -2.127902
11.192481 -7.3157868 -2.11781
49.638657 -32.457886 7.2821813
14.532563 -9.5062208 -2.1322262
5.5333056 -3.6208935 -0.57853985
5.5204992 -3.6152663 -0.34583604
5.524929 -3.6195455 -0.1152906
45.226898 -29.640766 14.489208
4.9800711 -3.2737839 -1.5969136
37.855984 -24.885651 0.7907685
4.9855819 -3.2786531 -1.3776002
39.548161 -26.017828 2.4809339
9.1313047 -6.0095587 -2.1248491
11.164858 -7.3506899 -2.1171842
14.477754 -9.5390711 -2.1288137
5.5173059 -3.6379929 -0.57819116
5.5101476 -3.6346529 -0.34594071
5.4939032 -3.6266901 -0.11490664
4.9369721 -3.2689495 -1.5865607
4.9497399 -3.2798898 -1.3708518
9.0998707 -6.0322137 -2.1221778
11.122671 -7.3786969 -2.1140556
14.464213 -9.6027231 -2.1317387
5.4819756 -3.6408367 -0.57575083
5.48911 -3.6483374 -0.34541735
47.363808 -31.492271 13.131293
5.4812098 -3.6458454 -0.11490664
4.9174962 -3.2808025 -1.5839727
4.9269161 -3.289573 -1.3677025
39.199474 -26.182352 2.4704666
9.0934525 -6.0737543 -2.1256123
11.072212 -7.4010115 -2.1093626
14.364606 -9.609005 -2.1219893
5.4742012 -3.6632752 -0.5762738
5.473022 -3.6652522 -0.34520799
5.4850616 -3.6760893 -0.11525569
4.8899817 -3.2871704 -1.5787963
4.8798313 -3.2828207 -1.3578045
39.048191 -26.278883 2.4666986
9.0966263 -6.1219015 -2.1313365
11.023373 -7.4241667 -2.1049824
14.357313 -9.6768398 -2.1258888
5.461381 -3.6823609 -0.5762738
45.026348 -30.416414 14.559607
4.859283 -3.2912195 -1.5725845
12.027041 -8.1490431 0.25358346
4.863503 -3.2965546 -1.3564548
9.0654535 -6.1470075 -2.1290469
11.003929 -7.4670372 -2.1062338
14.215061 -9.6532936 -2.1098022
5.4885936 -3.7314448 -0.34782481
5.4642243 -3.7176669 -0.1153604
4.8206382 -3.289649 -1.5637847
11.906035 -8.1278381 0.25162879
4.8294363 -3.298125 -1.3501562
9.0390768 -6.1752911 -2.127902
10.935399 -7.4764156 -2.0980992
14.055129 -9.6165438 -2.0910344
17.852116 -12.219022 -1.8926741
5.4656482 -3.743809 -0.34719676
4.796391 -3.2977004 -1.5596437
11.791916 -8.1104221 0.24981375
4.8130784 -3.3116486 -1.3488065
39.32365 -27.066835 2.5018682
9.0239353 -6.2112589 -2.1294286
10.974306 -7.5593638 -2.1106141
48.346321 -33.314545 7.2090597
17.520676 -12.082192 -1.8619952
11.751659 -8.1099539 -0.74829954
4.775322 -3.3078229 -1.5565379
11.68957 -8.1002798 0.24824303
4.7854738 -3.3173273 -1.3443075
9.0086517 -6.2471948 -2.130955
10.921887 -7.5796061 -2.1056082
48.392799 -33.59631 7.2334337
13.821344 -9.5989313 -2.0661731
11.708986 -8.1349277 -1.247373
11.723279 -8.1509256 -0.74829954
48.450493 -33.699059 13.625285
11.673773 -8.1195278 -0.24820814
4.7494884 -3.3145211 -1.551879
11.59705 -8.0932236 0.24684684
7.6474233 -5.3388858 -2.1532316
8.9819622 -6.2752309 -2.1298101
10.872404 -7.5988088 -2.100915
13.755277 -9.6208181 -2.0610545
17.236765 -12.064828 -1.8407292
17.376581 -12.167213 -1.1117204
4.7305679 -3.3246987 -1.5492908
11.522924 -8.1014519 0.2458695
7.6064253 -5.349853 -2.1469328
39.892246 -28.067961 2.5562978
8.9643145 -6.3072414 -2.1305733
10.861966 -7.648087 -2.1040437
13.671307 -9.6333294 -2.0534985
17.007294 -11.992881 -1.8206835
17.216496 -12.144903 -1.1041842
4.7025862 -3.3308485 -1.5441145
11.408089 -8.0803652 0.24401954
7.5877042 -5.3763714 -2.1469328
8.9379349 -6.3377833 -2.1298101
32.863564 -23.311781 3.5251012
10.830639 -7.6855607 -2.1034181
13.775186 -9.7786636 -2.0742164
17.0238 -12.093714 -1.8269587
17.126289 -12.17552 -1.1012534
4.6673422 -3.3304121 -1.5363499
11.272603 -8.046608 0.24175073
7.5489173 -5.3905559 -2.1415341
8.9141598 -6.3678021 -2.1294286
32.837105 -23.465742 3.5310278
10.82303 -7.7371044 -2.1071725
13.786075 -9.8625822 -2.0812848
16.957178 -12.135672 -1.824344
17.025227 -12.193361 -1.0974851
4.6509829 -3.3433008 -1.534797
7.5347996 -5.4202871 -2.1428835
33.567059 -24.155928 2.1673369
8.8902845 -6.3977327 -2.1290469
32.866562 -23.660538 3.5430551
10.784735 -7.7667561 -2.1049824
13.81437 -9.9559088 -2.0907905
16.901577 -12.194285 -1.0922515
16.947115 -12.236137 -0.36486
4.6095548 -3.3379874 -1.5249618
7.5174122 -5.4477005 -2.1433337
33.401684 -24.21434 2.1621032
8.8631287 -6.4252696 -2.127902
10.755959 -7.8031945 -2.1046696
49.285187 -35.768364 7.4771724
13.667088 -9.9224319 -2.0737288
48.126896 -34.953403 9.4207973
16.646353 -12.089844 -1.7999403
16.697346 -12.135784 -1.0817842
16.742582 -12.177596 -0.36136955
42.912659 -31.223671 14.220037
4.5619783 -3.3278718 -1.5130562
11.079495 -8.0852327 0.23941211
7.4952016 -5.4716086 -2.1424339
33.21373 -24.255402 2.1554043
8.8501596 -6.4631162 -2.1301918
10.73663 -7.8465199 -2.1062338
48.182499 -35.225529 7.3284917
13.579492 -9.9314089 -2.0656855
16.607265 -12.15023 -1.8002889
16.574308 -12.135002 -1.0765507
42.902515 -31.422897 12.277379
4.5384622 -3.333832 -1.5089152
7.4832969 -5.5010509 -2.1442335
33.16851 -24.391439 2.157707
8.8239346 -6.4889398 -2.1290469
32.107613 -23.619915 3.4872754
10.688277 -7.8656888 -2.1018538
47.988689 -35.328629 7.316792
13.624804 -10.034065 -2.0776286
16.499512 -12.155602 -1.7929679
16.533978 -12.189898 -1.0765507
16.498392 -12.172555 -0.35787904
42.133358 -31.097456 14.031616
4.5097151 -3.337014 -1.503221
7.4624834 -5.52598 -2.1437836
33.288589 -24.659243 2.1711049
8.8059616 -6.5232067 -2.1301918
10.648061 -7.893539 -2.0993509
47.989452 -35.588154 7.335804
13.517954 -10.028341 -2.0666604
15.730609 -11.674063 -1.7138306
46.516193 -34.533379 11.261166
16.433601 -12.204669 -1.0727825
16.455801 -12.23007 -0.35787904
42.126877 -31.320417 14.065781
4.467061 -3.3296447 -1.4928683
16.1929 -12.074212 0.35257351
7.4212799 -5.5356822 -2.137485
32.984612 -24.612848 2.1568696
8.7894325 -6.5586023 -2.1317184
32.101597 -23.962671 3.5047066
10.580872 -7.9011121 -2.0915291
13.614849 -10.174094 -2.0868907
16.305735 -12.189373 -1.7811147
16.192589 -12.113605 -1.0598032
42.476818 -31.78828 12.248585
16.25293 -12.167596 -0.35438859
42.366749 -31.728989 14.182767
4.4399629 -3.3336179 -1.4876919
16.208214 -12.173894 0.35383007
7.4159341 -5.5720892 -2.1415341
33.058151 -24.847839 2.1673369
8.7649145 -6.5880628 -2.1313365
32.113304 -24.146427 3.5151653
10.540599 -7.9284987 -2.0890262
48.659824 -36.614571 7.4771724
13.57608 -10.219169 -2.0864034
15.986146 -12.037679 -1.7507845
16.086403 -12.121972 -1.0556163
16.108175 -12.147199 -0.35215467
4.419054 -3.3421044 -1.484586
16.12097 -12.196616 0.35285276
4.5466342 -3.4410877 -1.3164135
32.732365 -24.782246 2.1516361
8.7262125 -6.6067681 -2.1275203
32.022469 -24.253563 3.514468
10.520732 -7.9712076 -2.0905905
13.435925 -10.187338 -2.0703166
15.91228 -12.069326 -1.7472982
16.018536 -12.158731 -1.0539416
33.804276 -25.686747 11.376133
4.3643327 -3.3247304 -1.4700923
16.100561 -12.269782 0.3533414
4.5531917 -3.4711149 -1.3218124
8.6796808 -6.6193304 -2.1217961
10.475569 -7.9947009 -2.0871489
13.367153 -10.208876 -2.0651982
15.83839 -12.100606 -1.7438121
15.842719 -12.112673 -1.0451492
15.864163 -12.137845 -0.34866416
4.2515464 -3.2623262 -1.4359281
16.086189 -12.347828 0.35396972
4.5441384 -3.489361 -1.3227122
8.6752052 -6.663938 -2.1263754
10.450731 -8.0336266 -2.0877745
31.31333 -24.079702 4.8501563
13.336157 -10.259104 -2.0659294
15.698157 -12.080481 -1.7330047
15.695902 -12.087472 -1.0382408
15.764677 -12.149203 -0.34740758
4.1942768 -3.2417054 -1.4203991
31.363005 -24.248829 0.69198793
4.4995599 -3.4801641 -1.3132643
8.6518898 -6.6941795 -2.1263754
10.42731 -8.0736866 -2.0887132
31.37347 -24.300695 4.8725805
13.256327 -10.271548 -2.0591044
15.542514 -12.047322 -1.7204543
15.476862 -12.005084 -1.0265175
15.469429 -12.00797 -0.34182283
4.1707406 -3.2468326 -1.4162579
16.154207 -12.580236 0.35739037
4.4873843 -3.4958496 -1.3132643
8.6284704 -6.72434 -2.1263754
10.293143 -8.0274286 -2.0674381
31.022383 -24.202482 4.8311448
13.278295 -10.362948 -2.0681231
15.071631 -11.76678 -1.6728672
15.431714 -12.056577 -1.0263082
33.07753 -25.852297 9.6922417
15.351803 -12.002776 -0.34014741
4.1396184 -3.2458754 -1.4095285
16.169987 -12.683447 0.35871676
4.4920187 -3.524725 -1.3182131
32.844738 -25.781345 2.188271
8.5987692 -6.7495689 -2.1248491
10.386227 -8.1584873 -2.0918419
13.224873 -10.39574 -2.0654416
15.008541 -11.802075 -1.6704268
15.43662 -12.147423 -1.0294483
15.347517 -12.08598 -0.34098512
33.426708 -26.332575 11.402015
4.1146188 -3.2495296 -1.4048699
31.778931 -25.106493 0.70692718
4.5393147 -3.5875082 -1.3357594
8.5505152 -6.7600613 -2.1187432
32.201363 -25.467627 3.5918624
10.247694 -8.1076708 -2.0696282
13.185657 -10.435843 -2.0647106
15.0063 -11.88532 -1.6747848
15.315864 -12.139203 -1.0242147
15.178865 -12.034934 -0.3381229
4.0690417 -3.2355025 -1.3929642
34.415432 -27.375271 0.76759177
4.5487413 -3.6195288 -1.3420579
31.735321 -25.252459 2.1254683
8.5326586 -6.7920475 -2.1198881
10.217661 -8.1391478 -2.0690024
13.057829 -10.405285 -2.0500863
14.920071 -11.897751 -1.6695553
33.118393 -26.419142 8.2349348
15.119412 -12.065348 -1.0137476
15.12637 -12.075222 -0.33784369
4.0462251 -3.2393193 -1.388823
31.98632 -25.616713 0.71530432
4.5473599 -3.6431227 -1.3452073
31.4132 -25.17572 2.1097672
8.5453243 -6.8485441 -2.1286652
33.875374 -27.158707 3.7985959
10.071958 -8.0778217 -2.0449116
33.51115 -26.885923 5.2752371
13.018333 -10.448317 -2.0495987
14.858783 -11.929697 -1.667115
14.965687 -12.032721 -0.33519092
4.0348935 -3.2534232 -1.388823
31.675692 -25.549934 0.71034789
4.5361319 -3.6601965 -1.3456572
8.5228939 -6.8795648 -2.1290469
32.563515 -26.294216 3.6617615
10.115923 -8.1712704 -2.0596163
12.89996 -10.427555 -2.0366805
14.883669 -12.035362 -1.6746104
14.875466 -12.037319 -1.0028617
32.888023 -26.62269 9.7687244
14.901836 -12.067269 -0.33470225
4.0175138 -3.2626169 -1.3867525
4.5142536 -3.6686344 -1.3429577
32.188221 -26.167988 2.1740358
8.506444 -6.9154658 -2.130955
10.176215 -8.2788353 -2.0777628
12.858865 -10.468761 -2.0359495
33.036774 -26.905748 6.7482705
14.790586 -12.045722 -1.6688582
14.780718 -12.04627 -0.99930286
14.73875 -12.020631 -0.33197969
3.9866607 -3.2607207 -1.3800232
31.741077 -25.970522 0.71586281
7.1660805 -5.8653693 -2.1379349
8.4549122 -6.922729 -2.1240859
34.102379 -27.93236 3.8566418
10.080023 -8.2592201 -2.0639966
34.007679 -27.874636 5.399056
12.734747 -10.44184 -2.0220563
14.665262 -12.029046 -1.6594453
32.808659 -26.920578 8.2494364
14.658302 -12.031898 -0.99385995
14.625621 -12.013618 -0.33037403
3.9513969 -3.2549644 -1.3717409
31.702703 -26.124399 0.7170496
7.1515775 -5.8953056 -2.1397343
8.4458408 -6.9646893 -2.127902
10.198919 -8.4163132 -2.0943449
12.612505 -10.415445 -2.0084071
14.584216 -12.052256 -1.6552618
14.60082 -12.070265 -0.99281323
14.565104 -12.049302 -0.32995519
3.9394403 -3.2694249 -1.3717409
7.142951 -5.9301925 -2.1433337
32.428684 -26.932375 2.2092056
8.3930759 -6.9730163 -2.121033
10.072309 -8.3740768 -2.0746341
34.016796 -28.281427 5.4317174
12.565386 -10.450521 -2.0067008
13.555842 -11.282282 -1.5430052
14.433706 -12.021443 -0.98443943
32.122105 -26.76313 9.6526499
14.384688 -11.98487 -0.32681379
31.723343 -26.440269 11.06555
3.9250393 -3.2806783 -1.3707057
7.1226621 -5.9575825 -2.1437836
32.231724 -26.969023 2.2025068
8.4048214 -7.0325069 -2.1301918
10.126317 -8.4789343 -2.0918419
33.821602 -28.329433 5.4170928
12.466137 -10.445508 -1.9969513
13.60494 -11.403766 -1.5531154
14.305964 -11.999874 -0.97857773
14.325347 -12.024654 -0.32646471
3.9002624 -3.2831626 -1.366047
31.431955 -26.468163 0.71725905
7.1092749 -5.9886866 -2.146033
32.537537 -27.418566 2.2299306
8.3982382 -7.0769844 -2.1347711
36.717289 -30.951696 4.2014294
10.161592 -8.5689869 -2.1052952
43.921959 -37.051273 7.0555043
12.379536 -10.446712 -1.9889079
14.244064 -12.024389 -1.6308583
33.828785 -28.567305 8.6066313
14.227372 -12.018806 -0.9760657
14.161116 -11.971307 -0.32367235
3.878463 -3.2880125 -1.3624235
7.0942712 -6.018508 -2.1478326
32.068729 -27.205881 2.2039721
8.3794708 -7.1113381 -2.1362975
12.395935 -10.534854 -1.9974388
14.116999 -12.001767 -1.6210967
14.124484 -12.016627 -0.97187883
14.090882 -11.992279 -0.32297423
3.8522701 -3.2889867 -1.3572472
7.0846467 -6.0508599 -2.1509819
8.3695202 -7.1533003 -2.1401138
9.9919262 -8.542963 -2.0821428
12.288532 -10.513958 -1.9857392
13.757196 -11.778853 -1.5844914
14.084558 -12.0634 -0.97187883
13.988204 -11.98934 -0.32157803
3.834017 -3.2954471 -1.354659
7.070869 -6.0819073 -2.1532316
35.510799 -30.544107 2.454766
8.3621235 -7.1951008 -2.1443117
31.842329 -27.408064 3.6757064
9.9620447 -8.5777893 -2.0821428
43.435825 -37.413494 7.0389304
12.244236 -10.55031 -1.9845206
13.754279 -11.855628 -1.5886748
13.930448 -12.015956 -0.96413308
13.887808 -11.983405 -0.32018185
6.080637 -5.2634983 -2.1549275
28.416794 -24.598038 0.65603596
7.0432963 -6.0989432 -2.1509819
8.3236036 -7.2126741 -2.140877
31.523645 -27.325901 3.6499081
10.650014 -9.2318401 -2.2323201
12.18969 -10.573945 -1.981352
33.299191 -28.895565 6.9829221
13.676702 -11.872222 -1.5844914
13.851315 -12.028037 -0.9614116
13.791555 -11.98459 -0.31892526
6.0627604 -5.2870202 -2.1554451
28.240765 -24.635988 0.65415114
7.0212941 -6.1272235 -2.1514318
8.2838011 -7.231514 -2.1374426
31.498316 -27.506786 3.6586237
10.052151 -8.781415 -2.1140556
12.086229 -10.5658 -1.971115
13.603103 -11.896038 -1.5810052
33.715157 -29.494608 8.7073784
13.694287 -11.992664 -0.31773853
6.0428166 -5.3068752 -2.1549275
27.950285 -24.554924 0.64940405
6.9837618 -6.1375446 -2.1464829
8.2717772 -7.2720523 -2.140877
9.8137989 -8.6337795 -2.0702538
12.056722 -10.61448 -1.9723336
13.453837 -11.848639 -1.5684546
13.612933 -11.997192 -0.95094436
33.756695 -29.760525 10.389589
13.577353 -11.974258 -0.31599328
6.0257025 -5.3292165 -2.1554451
6.9681315 -6.1670508 -2.1482825
8.259573 -7.3125939 -2.1443117
9.0901585 -8.0536146 -1.9235184
12.040771 -10.67152 -1.9755023
13.419849 -11.902141 -1.5693263
33.21471 -29.468672 8.6310539
13.409644 -11.901454 -0.93963981
13.483737 -11.971421 -0.31473669
6.0137687 -5.3543081 -2.1575158
6.9461884 -6.1888285 -2.1478326
8.2484684 -7.3517003 -2.1477461
10.403455 -9.2789154 -2.2079163
12.009761 -10.715355 -1.9762335
13.363959 -11.93198 -1.5674089
13.420745 -11.991102 -0.94319874
13.348542 -11.930782 -0.31250277
6.01612 -5.392272 -2.1647625
28.450674 -25.509409 0.66699606
6.915472 -6.2027202 -2.1446834
8.2329836 -7.3896275 -2.1504176
10.377037 -9.3173227 -2.2088549
11.898454 -10.690875 -1.9640466
12.942945 -11.637529 -1.5227851
32.575459 -29.3002 8.5165691
13.301599 -11.968409 -0.93775576
32.005051 -28.797256 9.9396868
13.286009 -11.958577 -0.3120141
6.0020523 -5.4194651 -2.1668332
28.226398 -25.49556 0.66392446
6.8999219 -6.2345576 -2.1469328
8.1825438 -7.3986855 -2.1443117
35.029205 -31.673532 4.1317048
11.840057 -10.717095 -1.9608778
13.174774 -11.941967 -0.93189418
13.176908 -11.948091 -0.3104783
31.44685 -28.524263 11.376133
5.9921513 -5.4505267 -2.1704566
28.094307 -25.56385 0.66301692
6.8899951 -6.2716107 -2.1509819
28.238714 -25.713276 2.0015366
8.1624746 -7.4324899 -2.145838
9.2790737 -8.4551563 -1.9882823
11.78603 -10.747045 -1.9584407
13.094859 -11.944682 -1.550675
13.109406 -11.966337 -0.93021935
13.073969 -11.942359 -0.30908212
5.9702392 -5.4687996 -2.1694212
6.8781166 -6.304841 -2.1541312
28.128176 -25.792793 2.0000713
8.1191168 -7.445015 -2.1412585
10.090763 -9.259449 -2.1691206
11.776225 -10.813629 -1.9630717
12.469098 -11.453881 -1.4812989
13.067556 -12.012026 -0.93021935
13.032202 -11.987924 -0.30908212
5.9610543 -5.498776 -2.1730449
27.585964 -25.455595 0.65519828
6.8503389 -6.323525 -2.1523318
27.395275 -25.29734 1.9542247
8.0743284 -7.4559956 -2.1362975
30.843863 -28.491812 3.6736145
10.010504 -9.2503738 -2.1587958
11.751523 -10.8668 -1.9652653
12.897069 -11.930279 -1.5370787
12.914154 -11.954453 -0.92226434
12.872918 -11.924626 -0.30628973
5.9489002 -5.5261245 -2.175633
27.458853 -25.516338 0.65429074
6.8310781 -6.3500519 -2.1532316
27.403337 -25.482582 1.961133
8.0554419 -7.4908195 -2.1382058
9.9694767 -9.2771873 -2.1569188
11.658315 -10.856347 -1.9560032
12.83202 -11.953496 -1.5342896
12.790535 -11.923194 -0.91640264
12.839988 -11.977673 -0.30649915
5.9239311 -5.5415778 -2.1735625
27.287851 -25.535521 0.65233606
6.8174071 -6.3818488 -2.155931
27.245777 -25.505068 1.9558996
8.002017 -7.4933958 -2.130955
9.9701843 -9.3429976 -2.1641147
11.570112 -10.846073 -1.9472286
12.697218 -11.910975 -1.5231338
12.722626 -11.943161 -0.91451859
5.89849 -5.5545692 -2.1709743
27.127331 -25.554569 0.65052098
6.7806058 -6.389719 -2.1509819
26.745337 -25.203527 1.9259634
7.9785523 -7.5212364 -2.1313365
9.8874187 -9.3272114 -2.1528513
29.433636 -27.775677 4.969101
11.616375 -10.96204 -1.9611217
12.625781 -11.922922 -1.5192989
12.61037 -11.916697 -0.90928501
12.577168 -11.88948 -0.30210117
5.8940573 -5.5873885 -2.1761506
26.955383 -25.561827 0.64842671
6.7537251 -6.4068046 -2.1491826
26.784687 -25.417717 1.9351745
7.953567 -7.5476527 -2.1313365
8.8666353 -8.4200077 -1.9366589
29.989017 -28.488371 5.0787835
11.635598 -11.05722 -1.9708712
12.502419 -11.885105 -1.5091888
12.540393 -11.929541 -0.90708685
12.53559 -11.933311 -0.30210117
5.8731203 -5.6065955 -2.175633
26.915159 -25.702715 0.64961344
6.7172279 -6.4168792 -2.1446834
26.678471 -25.494501 1.9339186
7.9271722 -7.5753708 -2.1313365
9.7437534 -9.3178415 -2.1353307
28.994301 -27.736616 4.9266906
11.578286 -11.079926 -1.9677025
12.331326 -11.804678 -1.4935008
12.316949 -11.799156 -0.89389819
38.674042 -37.061165 12.366459
12.310528 -11.801249 -0.29766825
5.8507295 -5.6243844 -2.1745977
26.730145 -25.705027 0.64730972
6.6863618 -6.4321818 -2.141984
26.554779 -25.554234 1.9314064
7.8822908 -7.5852976 -2.1263754
28.965931 -27.903765 4.9383903
11.522388 -11.103745 -1.9647778
12.368291 -11.927243 -1.5032623
12.370559 -11.933599 -0.90080655
12.339756 -11.912201 -0.2993786
5.8384023 -5.6538548 -2.1777036
26.574177 -25.734186 0.64570415
6.6386733 -6.431076 -2.1338856
28.22098 -27.348028 2.0595248
7.8798103 -7.6387348 -2.1332448
28.34432 -27.48675 3.4543307
9.6456347 -9.3570671 -2.1284475
28.717319 -27.858187 4.9125538
11.549088 -11.207489 -1.9759897
33.970104 -32.976849 7.4985304
12.252256 -11.898168 -1.4941981
12.209284 -11.86472 -0.89222342
24.415194 -23.734447 7.8611398
12.266555 -11.924538 -0.29861069
5.8227801 -5.678246 -2.1792564
26.365164 -25.719702 0.64291173
6.6401634 -6.4798636 -2.141984
27.982401 -27.306881 2.0490575
7.7954998 -7.6099658 -2.1175983
28.156969 -27.496433 3.4431746
9.6129131 -9.3906803 -2.1284475
28.447489 -27.799541 4.8837924
11.439797 -11.183137 -1.9642901
33.826534 -33.067612 7.4922729
12.170763 -11.901858 -1.4893173
12.167795 -11.907267 -0.89222342
12.167696 -11.911329 -0.29721448
5.8001671 -5.6958299 -2.1782212
26.388165 -25.913475 0.6455645
6.6394911 -6.5223322 -2.1487324
27.898308 -27.41559 2.049895
7.7982893 -7.6660328 -2.1256123
28.182989 -27.714689 3.4581654
8.4507303 -8.3103104 -1.8772138
28.27873 -27.81855 4.8706307
11.406895 -11.225188 -1.9650215
12.046807 -11.863187 -1.4792072
12.094093 -11.913912 -0.88971132
12.111803 -11.939691 -0.29686543
5.7771258 -5.7109585 -2.1766684
28.376329 -28.061119 0.69659537
6.6374645 -6.5660257 -2.1554811
27.83367 -27.543713 2.0521977
7.7518921 -7.6711369 -2.1198881
28.096594 -27.813602 3.4588625
9.4968376 -9.4044657 -2.1168714
28.204018 -27.939444 4.8745303
11.312651 -11.210443 -1.9555157
11.96854 -11.86869 -1.4746751
12.03258 -11.936364 -0.88824588
12.035993 -11.948085 -0.29602769
5.7616305 -5.737546 -2.1787388
28.329214 -28.210794 0.6978519
6.6145043 -6.5891552 -2.1554811
27.666622 -27.570211 2.0469642
7.7070394 -7.6828651 -2.1153085
28.259691 -28.180885 3.4916332
9.4748907 -9.451767 -2.1196871
28.019182 -27.950802 4.8594184
11.32544 -11.301744 -1.964534
27.086649 -27.039415 6.0618358
11.881923 -11.865345 -1.4690971
11.898335 -11.89003 -0.88154691
23.27104 -23.262917 7.5965967
11.934813 -11.930647 -0.29456171
5.7415676 -5.7576227 -2.1787388
28.236921 -28.325768 0.6981312
6.5848069 -6.6078324 -2.1536813
27.556927 -27.662943 2.0463362
7.6843309 -7.7138934 -2.1164536
28.234255 -28.35277 3.5006974
9.4223289 -9.4651823 -2.1153071
11.303541 -11.362881 -1.9679463
11.803907 -11.870016 -1.464565
11.84268 -11.917324 -0.88050026
38.299736 -38.554596 12.54642
11.826189 -11.909041 -0.29295611
39.206604 -39.495056 14.911601
5.7282314 -5.7844934 -2.1813271
27.985939 -28.270679 0.69436145
6.565814 -6.6349335 -2.1550312
27.912485 -28.216169 2.0800405
7.650455 -7.7336912 -2.1145453
27.899757 -28.213152 3.4714131
