# .PCD v0.7 - Point Cloud Data file format
VERSION 0.7
FIELDS x y z
SIZE 4 4 4
TYPE F F F
COUNT 1 1 1
WIDTH 1556
HEIGHT 1
VIEWPOINT 0 0 0 1 0 0 0
POINTS 1556
DATA ascii
13.59685 25.304977 -1.5054963
3.9253514 7.2749486 -2.2149734
16.528772 30.620422 0.60737866
4.4483595 8.23738 -2.1613297
16.545904 30.626543 1.824327
5.5299582 10.235977 -2.2614682
6.2714062 11.598732 -2.0884004
7.6289926 14.097774 -1.9681902
9.9929285 18.458443 -1.8363715
13.704123 25.292486 -1.5075897
16.594213 30.600929 -0.60762298
3.9627228 7.2832637 -2.2217028
4.7082114 8.6462402 -2.2729053
5.5440512 10.176961 -2.252691
6.3260422 11.602783 -2.0930934
6.953608 12.743236 -1.7824612
10.048713 18.407707 -1.8348027
13.790418 25.240988 -1.5073804
3.9871912 7.2676935 -2.2211852
4.78901 8.7219954 -2.2972002
5.592772 10.181638 -2.2580338
6.3617439 11.571977 -2.0915291
7.7205362 14.031993 -1.966484
10.105216 18.358557 -1.8334082
13.880375 25.19619 -1.5075897
3.9592338 7.1573772 -2.1916797
4.8468003 8.7546663 -2.3102474
5.6710806 10.239339 -2.2752066
6.3714566 11.494411 -2.0815172
7.7636886 13.994543 -1.9650215
10.165376 18.3162 -1.832711
13.970176 25.151079 -1.507799
4.0368915 7.2379942 -2.2206676
4.8659306 8.7172756 -2.3048484
5.7163625 10.23662 -2.2790227
6.4211755 11.489346 -2.0846457
7.816371 13.974285 -1.9659963
10.219516 18.26322 -1.8309678
14.0657 25.1161 -1.5086365
20.379225 36.359974 -0.72755593
4.0394087 7.183444 -2.2082443
4.9144921 8.7325039 -2.3133967
5.7308736 10.178967 -2.2706273
6.5000334 11.5357 -2.0971608
7.8875208 13.986691 -1.9716024
10.274399 18.211817 -1.8293991
14.141483 25.045988 -1.5073804
20.446589 36.198166 -0.72567105
4.0511189 7.1457725 -2.2009974
4.950151 8.7280254 -2.316546
5.7731514 10.170853 -2.2732985
6.52947 11.498622 -2.0943449
7.9211116 13.938018 -1.9684337
10.337912 18.175838 -1.8293991
14.238297 25.023254 -1.5088458
20.428354 35.872864 -0.72057498
4.1083326 7.1910086 -2.2191145
4.9854221 8.7191525 -2.3187954
5.7815008 10.107346 -2.2633765
6.5676088 11.472329 -2.0937192
7.3105111 12.759705 -1.8056164
10.389208 18.1259 -1.8278301
14.325564 24.973396 -1.5088458
20.553425 35.801353 -0.72057498
4.1285901 7.1682534 -2.2165263
5.0051241 8.6831236 -2.3138466
5.7706552 10.007166 -2.2454405
6.6085992 11.451047 -2.094032
8.0063028 13.861755 -1.9655088
10.445434 18.07745 -1.82661
14.420654 24.937065 -1.5096831
20.712334 35.788227 -0.72176176
4.1225448 7.1003375 -2.1999619
4.9257483 8.4768858 -2.2634575
5.8479757 10.059947 -2.2618499
6.661447 11.450103 -2.0980992
21.51655 36.969162 5.2520814
8.0696278 13.859455 -1.9691651
10.50647 18.037432 -1.8262614
14.509608 24.890039 -1.5098926
20.802864 35.65699 -0.72057498
4.222446 7.214283 -2.23982
5.0203094 8.5706234 -2.2931509
5.8909998 10.053022 -2.2649028
6.687377 11.40293 -2.0937192
21.460644 36.578785 5.2072334
8.4525671 14.401294 -2.0503302
10.568349 17.998938 -1.8260871
14.610577 24.863342 -1.5113579
4.2201152 7.1529131 -2.2253263
5.0046206 8.4758549 -2.2724555
21.930857 37.127384 2.2598667
5.9030924 9.9935169 -2.2561257
6.6909533 11.318298 -2.0824559
21.711487 36.712101 5.2369699
8.5027819 14.371702 -2.0503302
10.627057 17.955076 -1.8253897
14.668769 24.764076 -1.508427
22.323929 37.657627 -0.76413614
4.25493 7.1547427 -2.2305026
4.9853382 8.3762808 -2.2504103
22.080734 37.084946 2.2619603
5.9007716 9.9104404 -2.2420058
6.7374969 11.306754 -2.0846457
8.5518837 14.340227 -2.0500863
10.688652 17.916159 -1.8252156
14.767416 24.733297 -1.5096831
3.8885438 6.4870033 -2.0265532
4.9303379 8.2184544 -2.2126186
5.9525065 9.9183979 -2.2484932
6.7850637 11.296712 -2.0871489
21.995867 36.607288 5.2437949
8.5937052 14.29668 -2.0481365
10.750094 17.877033 -1.8250412
14.876313 24.719252 -1.5119859
4.2738066 7.0736055 -2.2144558
5.0104232 8.2862396 -2.2355635
5.9667673 9.8639631 -2.2408609
6.8050213 11.240851 -2.0812044
22.209888 36.67292 5.2642689
8.6466455 14.271685 -2.0488675
10.806241 17.829174 -1.8239954
14.964587 24.670584 -1.5121952
22.457603 36.994461 -0.75540996
4.2251248 6.9381948 -2.1766684
4.8993621 8.0390606 -2.1734772
22.679977 37.199562 2.2833133
6.0144506 9.8648653 -2.245822
6.8421574 11.213656 -2.0805786
22.635639 37.083141 5.3344655
8.6953735 14.239725 -2.0486238
10.863214 17.782845 -1.8231238
15.079778 24.665913 -1.5151261
22.430065 36.659977 -0.75017422
4.2058635 6.8526063 -2.1544099
22.513775 36.667301 0.75104684
4.9630947 8.0800257 -2.1892235
6.0539913 9.8521729 -2.24773
6.849184 11.137542 -2.0708797
23.312082 37.893238 5.4626718
8.7335787 14.190689 -2.0459425
10.934627 17.760082 -1.8246926
15.178352 24.63353 -1.5163821
22.515921 36.513367 -0.74877805
4.2277269 6.8345971 -2.1533747
5.0538335 8.1637287 -2.2166677
6.0790386 9.8159599 -2.2442954
6.9109063 11.150509 -2.0777628
7.9690027 12.847682 -1.8563139
10.979742 17.694721 -1.8219036
15.207357 24.488773 -1.5107299
20.964937 33.734066 -0.69327945
4.3108368 6.9148803 -2.1833978
5.0668292 8.1212368 -2.2099192
6.1080713 9.7863512 -2.2423875
6.9267669 11.089457 -2.0708797
7.9864407 12.776023 -1.8499768
11.044607 17.661358 -1.8224266
15.265192 24.391523 -1.5080084
21.046484 33.60305 -0.69209266
4.3256931 6.8850708 -2.1787388
5.0578065 8.0441093 -2.1937227
6.1421885 9.7649755 -2.2423875
6.9601746 11.056849 -2.0693154
8.0827093 12.835139 -1.8624074
11.093448 17.602467 -1.8203349
15.304432 24.265444 -1.5035075
21.196207 33.59396 -0.69334918
4.3557358 6.8821139 -2.1823623
5.0729861 8.009182 -2.1887739
6.1829457 9.7578182 -2.2454405
6.9492006 10.958635 -2.0552363
8.9174442 14.057074 -2.0439928
11.150695 17.563898 -1.8201605
15.322689 24.116787 -1.4974365
21.176636 33.317589 -0.68909079
4.3151803 6.7682672 -2.1507864
5.0869331 7.9726048 -2.1833749
6.1715379 9.6650229 -2.2290308
6.973803 10.91722 -2.0517945
8.9589767 14.01415 -2.0422866
11.209777 17.521519 -1.8198119
15.288321 23.878128 -1.4859227
21.456724 33.499432 -0.69439638
4.353539 6.7735314 -2.1575158
5.064466 7.8735962 -2.1613297
6.2632384 9.7298317 -2.2492564
7.0533385 10.953037 -2.0633709
9.0016756 13.967872 -2.0403366
11.253417 17.448496 -1.8164999
15.369233 23.811867 -1.4852946
21.685688 33.585182 -0.69781703
4.3562779 6.7234817 -2.1466453
5.3869691 8.3079023 -2.2859526
6.2394729 9.6189661 -2.2286491
7.0697708 10.890662 -2.0564878
9.0441561 13.921471 -2.0383868
11.300129 17.387398 -1.814234
15.479478 23.799934 -1.4879115
21.828941 33.549522 -0.69865471
4.3976731 6.7357345 -2.1554451
5.316453 8.1398878 -2.2445617
6.1462603 9.4032145 -2.1836183
7.0982828 10.855583 -2.0542977
9.0924492 13.894723 -2.0388744
11.3553 17.33951 -1.8133624
15.526582 23.700018 -1.4848759
21.888912 33.386154 -0.69683969
4.3605418 6.6307254 -2.1264575
5.4583964 8.293829 -2.2922513
6.2313867 9.4647703 -2.2026992
7.1263537 10.815891 -2.0514817
9.1452627 13.869529 -2.0398493
11.412744 17.301756 -1.8133624
15.720344 23.81403 -1.4954478
22.089083 33.436356 -0.69949245
4.5106478 6.8070984 -2.1880562
5.447463 8.2146349 -2.2756047
6.2774129 9.4625921 -2.2072787
7.2066727 10.855135 -2.0636837
9.1826401 13.820986 -2.0374119
11.468652 17.255177 -1.8126651
15.83214 23.802242 -1.4981692
22.227833 33.39233 -0.70019054
4.5011253 6.7415066 -2.1720095
5.5237403 8.2668648 -2.2954006
6.364953 9.5222321 -2.2263594
7.242322 10.826631 -2.0630579
9.2297201 13.787201 -2.0371683
11.537687 17.228279 -1.8140596
15.852856 23.653927 -1.4923077
22.391052 33.384285 -0.70165658
4.5537467 6.7690306 -2.1859856
5.546032 8.2378349 -2.2927012
6.4376373 9.5585766 -2.2400978
7.3153973 10.853703 -2.0730698
9.2755737 13.751604 -2.0366805
11.577685 17.15818 -1.810922
16.012455 23.712652 -1.49953
22.585817 33.421906 -0.70409989
4.5188146 6.6667418 -2.1580334
5.5397491 8.1668177 -2.2783043
25.890379 38.168156 2.417084
6.4830923 9.553915 -2.2442954
7.2922049 10.738219 -2.0558619
9.3190527 13.712577 -2.0357056
11.62743 17.102831 -1.8093531
16.119843 23.692944 -1.5018327
22.629009 33.247639 -0.70200562
4.5376992 6.644547 -2.1559627
6.4543452 9.4404736 -2.2229249
7.3411593 10.733542 -2.0596163
9.3611078 13.676685 -2.0349743
11.676929 17.04734 -1.8077843
15.53336 22.668941 -1.440181
22.812788 33.267391 -0.70409989
4.6002164 6.688355 -2.1751153
5.3709121 7.8030596 -2.186974
6.4833922 9.415782 -2.2221618
7.3516846 10.668813 -2.0521076
9.3997803 13.630851 -2.0330245
11.734532 17.010162 -1.8079587
16.219469 23.493917 -1.4961804
22.99572 33.29686 -0.70633376
4.5982304 6.635735 -2.1632097
5.302392 7.6490712 -2.1487324
6.3382931 9.1366091 -2.1614842
7.4579687 10.746619 -2.0718184
9.4426699 13.596342 -2.0325372
11.793826 16.969105 -1.8079587
16.291592 23.431797 -1.4956571
23.187162 33.324738 -0.70863748
4.5770912 6.5586667 -2.1430218
5.4127474 7.7503409 -2.1824751
6.4101567 9.1750879 -2.1756043
7.5135493 10.746422 -2.0768242
9.4832335 13.553545 -2.0310745
11.838135 16.906612 -1.8056926
16.413376 23.432055 -1.4993206
23.275808 33.204296 -0.70779985
4.6099882 6.5544887 -2.1471629
5.3803372 7.6469278 -2.1586304
6.534162 9.279953 -2.2061336
7.5403681 10.701051 -2.0733826
9.5282021 13.517111 -2.0305872
11.894777 16.861935 -1.805344
16.48419 23.350515 -1.4979599
23.465393 33.227386 -0.71003371
4.6797509 6.6045585 -2.1689036
5.4455247 7.6796165 -2.1734772
6.5142679 9.1834269 -2.1885793
7.5662432 10.658554 -2.0702538
9.5707874 13.472387 -2.0291247
11.951262 16.81706 -1.8049954
16.533182 23.247263 -1.4950291
23.519773 33.046658 -0.70800918
4.6893063 6.569315 -2.1626918
5.3624201 7.5067487 -2.1298366
6.4115901 8.9721498 -2.1435483
7.6183438 10.652965 -2.0743213
9.6108217 13.429212 -2.0276623
12.024972 16.796295 -1.8072613
16.109388 22.484783 -1.4496015
23.937931 33.386902 -0.71708447
4.7189779 6.5623164 -2.1657977
5.480793 7.6161041 -2.1662786
6.4600782 8.9736128 -2.1492727
7.6173773 10.573417 -2.0639966
9.6437063 13.376262 -2.0247374
12.085856 16.757454 -1.8076102
16.177263 22.413836 -1.4486594
24.054337 33.303135 -0.71708447
4.7577209 6.567708 -2.1730449
5.5771151 7.693172 -2.1937227
6.4429517 8.8842583 -2.1332448
7.7783847 10.717828 -2.0974736
9.6868429 13.337697 -2.0240064
12.127879 16.6926 -1.8051698
16.243652 22.341078 -1.4476128
4.7031822 6.4449439 -2.1378453
5.5763507 7.6358876 -2.182925
6.4843497 8.8759804 -2.1366794
7.711987 10.548688 -2.0696282
9.733346 13.3038 -2.0240064
12.149591 16.600327 -1.7997661
16.323908 22.287458 -1.4478221
4.8286295 6.5685768 -2.184433
5.5232925 7.5080614 -2.1518817
6.5269275 8.8691053 -2.1404953
7.6562252 10.396046 -2.0449116
9.7809 13.271343 -2.02425
12.196828 16.543381 -1.7981973
16.4182 22.252846 -1.4492874
24.301981 32.914284 -0.71415246
4.790616 6.471787 -2.1575158
5.5319228 7.4677806 -2.1455832
6.5446124 8.8316402 -2.1366794
7.735373 10.430891 -2.0568006
9.8153887 13.226083 -2.0223
12.30388 16.573227 -1.805867
16.522867 22.239967 -1.452009
4.7935476 6.4286957 -2.1487157
5.5811238 7.4822001 -2.1550312
6.5577869 8.78514 -2.130955
7.7486439 10.376695 -2.0511689
9.8556337 13.18869 -2.021569
16.619265 22.215435 -1.4539977
25.279562 33.767284 -0.73628217
4.8275976 6.429759 -2.1544099
5.6013527 7.4548836 -2.1527817
6.5680079 8.7382364 -2.1248491
7.7491941 10.302226 -2.0417829
9.8956442 13.146275 -2.0203502
12.406089 16.469425 -1.8039496
16.708735 22.173233 -1.4550444
4.944376 6.5352716 -2.1958208
5.596766 7.3948836 -2.1410842
6.5976191 8.7109776 -2.1240859
7.8358254 10.338298 -2.0546105
9.9366674 13.105332 -2.0193753
12.421355 16.370464 -1.7978486
16.777809 22.09594 -1.4539977
4.9765272 6.5302629 -2.1999619
5.619103 7.3681231 -2.1392844
6.6398954 8.7035007 -2.127902
7.7903514 10.204117 -2.0333354
9.9774122 13.059351 -2.0179126
12.501407 16.357084 -1.8011605
16.961618 22.176844 -1.4632088
25.817482 33.731266 -0.74144804
5.0334039 6.5572944 -2.2149734
5.6578488 7.3654628 -2.1442335
6.6642528 8.6724882 -2.125994
7.7946172 10.136146 -2.0252008
10.019296 13.019731 -2.0171814
12.586386 16.349657 -1.8051698
17.099855 22.196621 -1.4684423
25.908216 33.606094 -0.74068016
5.0515375 6.5335698 -2.2129028
5.6847157 7.3472104 -2.1446834
6.6824708 8.633646 -2.1221778
7.8662386 10.155728 -2.0345869
10.050092 12.965848 -2.0142565
12.645819 16.308773 -1.8055184
17.250702 22.231468 -1.4747227
26.213261 33.769566 -0.74619508
5.037519 6.468646 -2.1968563
5.7090473 7.3283195 -2.1446834
6.6630797 8.5467844 -2.1065314
7.884078 10.109339 -2.0305195
10.094257 12.934011 -2.0145004
12.702666 16.264534 -1.8055184
17.329252 22.180429 -1.4751414
26.163448 33.463634 -0.74144804
5.0362926 6.4230218 -2.187021
5.7827139 7.3696699 -2.1626794
6.7180519 8.5586166 -2.1149271
7.986433 10.167192 -2.0477273
10.138115 12.897139 -2.0142565
12.76023 16.227016 -1.8060412
17.260822 21.934601 -1.4627901
26.527544 33.686302 -0.748429
5.0419173 6.3841782 -2.179774
5.7854481 7.3203893 -2.1541312
6.7929358 8.5920992 -2.1290469
7.9985909 10.109818 -2.0417829
10.180605 12.858561 -2.0137691
12.832881 16.202677 -1.8083073
17.33481 21.87108 -1.4625808
26.600227 33.537102 -0.74717242
5.0605664 6.3620033 -2.1782212
5.7429996 7.2147698 -2.1289368
6.8057661 8.5468311 -2.1237042
8.1261578 10.197701 -2.065248
10.209342 12.802767 -2.0106006
12.895569 16.165573 -1.8091789
17.251551 21.610647 -1.4491827
26.602314 33.300301 -0.74396122
5.0754943 6.3352547 -2.1751153
5.8205624 7.2600574 -2.1482825
6.7962513 8.4740162 -2.1114926
8.0529013 10.033703 -2.0377157
10.244022 12.754672 -2.0086505
12.963155 16.134438 -1.8107476
17.472048 21.730856 -1.4613247
26.505295 32.942371 -0.73802739
5.1266942 6.353581 -2.1875386
5.8776984 7.2791176 -2.1599801
6.8356614 8.4624567 -2.1145453
8.0891123 10.007073 -2.0380285
10.287239 12.717291 -2.0084071
13.009358 16.076708 -1.8093531
17.595566 21.728714 -1.4653022
5.1537161 6.3416414 -2.1896091
5.9301238 7.2918167 -2.169878
6.9642787 8.5603762 -2.1450748
8.196332 10.067625 -2.056175
10.331564 12.681307 -2.0084071
13.071695 16.038916 -1.8102247
17.787434 21.809561 -1.4749321
5.2039599 6.3580012 -2.201515
5.9407248 7.2529793 -2.164479
6.9567833 8.4904613 -2.1336262
8.3604336 10.196286 -2.0884004
10.364437 12.631349 -2.0062132
13.137718 16.005507 -1.8116193
17.868532 21.753506 -1.4753507
5.2371826 6.3532114 -2.2061737
5.8916006 7.1420031 -2.137485
6.8689203 8.3237848 -2.0977542
6.7746382 8.2036991 -1.6851122
10.400883 12.58591 -2.004751
13.199853 15.967232 -1.8124908
17.75849 21.466314 -1.4600686
5.2617946 6.3378663 -2.2072091
5.961328 7.175354 -2.1536813
7.0058503 8.4296083 -2.1305733
8.4288874 10.134633 -2.0877745
10.444744 12.549536 -2.004751
13.261887 15.92871 -1.8133624
17.884438 21.465586 -1.4642555
5.2801695 6.315012 -2.2056561
5.9913354 7.1604838 -2.1554811
7.0528755 8.4261761 -2.135916
7.9733248 9.5191069 -1.9666944
10.474463 12.496263 -2.0020697
13.319964 15.885377 -1.813711
17.782097 21.191883 -1.4498109
28.022636 33.372425 -0.76064569
5.2996936 6.2935858 -2.2046208
5.9836464 7.10078 -2.1437836
7.0999632 8.4225187 -2.1412585
10.525699 12.468727 -2.0035322
13.381758 15.846399 -1.8145826
18.008078 21.309696 -1.4621621
5.3316216 6.2868381 -2.2087619
5.9945278 7.0635047 -2.1388347
7.1178823 8.3842154 -2.1378241
8.5844316 10.104526 -2.0999765
10.562733 12.424344 -2.0023134
13.447319 15.811728 -1.815977
18.24287 21.435303 -1.4751414
29.421854 34.546127 -0.79206002
5.3723559 6.2902231 -2.2165263
5.9381137 6.9477286 -2.1100409
7.208343 8.4309464 -2.1561418
8.6504698 10.110524 -2.1074855
10.593129 12.372314 -1.999876
13.506316 15.769235 -1.8164999
18.156418 21.183449 -1.4621621
5.4056168 6.2846141 -2.2211852
6.0398803 7.0170517 -2.137485
7.2236362 8.38937 -2.1519439
8.6870022 10.081761 -2.1077983
10.628472 12.326246 -1.9984137
13.583406 15.747637 -1.8194633
18.219805 21.107849 -1.4613247
29.41918 34.058407 -0.7855677
5.436377 6.2759266 -2.2248087
6.0707183 7.0032897 -2.1397343
7.2541642 8.3655844 -2.1523256
8.7221384 10.051378 -2.1077983
10.671432 12.289072 -1.9984137
13.635676 15.697121 -1.8191147
18.432264 21.203905 -1.4724199
5.4417429 6.2379851 -2.2180793
6.0964117 6.9835234 -2.1401844
7.2678275 8.3224649 -2.1477461
8.7246771 9.9836817 -2.0999765
10.716874 12.254737 -1.9989011
13.691702 15.650924 -1.8192888
18.553524 21.193539 -1.4761882
29.274101 33.415993 -0.77544534
5.466033 6.2218556 -2.2191145
6.0757151 6.9109759 -2.1244378
7.2644191 8.2601891 -2.1382058
8.7477264 9.9398232 -2.0971608
10.754342 12.211294 -1.9979262
13.756784 15.614998 -1.8206835
18.479465 20.960846 -1.4644649
29.424955 33.352596 -0.77635282
5.48388 6.1983967 -2.2175617
6.0558801 6.8401189 -2.1091411
7.3114338 8.2553549 -2.1435483
8.7810574 9.9077501 -2.0968478
10.786366 12.161794 -1.9959762
13.823104 15.580299 -1.8222523
18.650652 21.006731 -1.4722105
5.4720654 6.1417179 -2.2041032
6.1147366 6.8582091 -2.1212883
7.2199755 8.0949936 -2.1084394
8.8050671 9.8652458 -2.0943449
10.818173 12.112228 -1.9940264
13.886702 15.542349 -1.8234724
18.822372 21.051682 -1.4799564
30.45117 34.04583 -0.79729575
5.4960527 6.1254535 -2.2051384
6.1257324 6.8248405 -2.1172395
7.3046021 8.1325455 -2.1248491
8.8364162 9.8345213 -2.094032
10.863586 12.082194 -1.9950013
13.9422 15.495265 -1.8236468
18.627514 20.695227 -1.4592313
30.837484 34.236504 -0.8042767
5.5085669 6.0985904 -2.2020326
6.1834893 6.8410091 -2.1289368
7.3723516 8.1534195 -2.1366794
8.8640575 9.796299 -2.0924675
10.903033 12.041253 -1.9945139
13.981491 15.430257 -1.8217293
18.745249 20.680386 -1.4627901
31.118034 34.306377 -0.80846524
5.5347815 6.0826468 -2.2035854
6.1719151 6.7804708 -2.1167896
7.4074721 8.1321507 -2.1382058
8.89991 9.7637377 -2.0924675
10.947671 12.006057 -1.9950013
14.040644 15.387243 -1.8224266
18.928658 20.729536 -1.4711639
31.307734 34.274315 -0.81028032
5.5520663 6.0590158 -2.2020326
6.2625756 6.8296194 -2.1392844
7.4743028 8.1481991 -2.1492727
8.9245806 9.7224312 -2.0902774
10.986831 11.964842 -1.9945139
14.114479 15.360152 -1.8250412
18.911682 20.566301 -1.4642555
5.5799866 6.0490932 -2.2051384
6.3195586 6.8460431 -2.1509819
7.4986157 8.1204853 -2.1485093
8.9621363 9.6985836 -2.0915291
11.019708 11.921056 -1.9932952
14.16399 15.311797 -1.824867
18.993343 20.518135 -1.4653022
5.5934443 6.0234756 -2.2025502
6.4032454 6.890717 -2.1716774
8.9942474 9.6688128 -2.0915291
11.059896 11.881066 -1.9930513
14.2174 15.267662 -1.8252156
19.153864 20.554401 -1.4724199
32.226334 34.55851 -0.82480073
5.6144347 6.0039153 -2.2025502
6.4512291 6.8939347 -2.1797757
9.0184927 9.627264 -2.089339
11.105379 11.84673 -1.9937826
14.259708 15.20631 -1.8238209
19.515244 20.796171 -1.4946103
32.360455 34.460392 -0.82514977
5.6366811 5.9856887 -2.2030678
6.4805984 6.877048 -2.1815755
7.5872221 8.0485544 -2.1500359
9.0466194 9.5899792 -2.0880876
11.142578 11.803558 -1.9930513
14.314067 15.157895 -1.8239954
19.697464 20.844049 -1.502984
5.6588683 5.9673786 -2.2035854
6.4980049 6.8498626 -2.1797757
7.6098628 8.0163269 -2.1485093
9.0919762 9.5742493 -2.0912163
11.17755 11.762237 -1.9923203
14.383369 15.125158 -1.8260871
19.782993 20.795986 -1.5042402
33.145779 34.818672 -0.83911169
5.6812959 5.9513741 -2.2046208
6.519186 6.8243189 -2.1788759
7.635088 7.9868751 -2.1477461
9.126709 9.5438786 -2.0915291
11.207562 11.71167 -1.9903703
14.442966 15.082057 -1.8269587
19.78723 20.648348 -1.4987972
5.7044115 5.9319024 -2.2051384
6.5482063 6.8045926 -2.1802256
7.6574984 7.9517674 -2.145838
9.1575146 9.5060968 -2.0905905
11.251788 11.671946 -1.9906142
14.503686 15.034753 -1.8276559
19.782316 20.492348 -1.4927263
5.7180481 5.9026303 -2.2020326
6.5758138 6.7833462 -2.1811254
7.6906781 7.9306254 -2.1473646
9.1867895 9.4668007 -2.089339
11.294501 11.630619 -1.9906142
14.563016 14.991181 -1.8285275
19.940048 20.511953 -1.499216
5.7413139 5.8854022 -2.2030678
6.5967312 6.7575603 -2.1802256
7.7183166 7.9037299 -2.1473646
9.2253036 9.4403238 -2.0905905
11.335023 11.59113 -1.9906142
14.620834 14.94595 -1.8292247
20.128872 20.562124 -1.5080084
5.7672396 5.8708363 -2.2051384
6.6120777 6.7261586 -2.1775262
7.7513628 7.8823404 -2.148891
9.2457237 9.3953991 -2.0877745
11.369223 11.549232 -1.9898828
14.691097 14.913271 -1.8314909
20.208944 20.500267 -1.5086365
5.7880335 5.8530531 -2.2056561
6.6425724 6.7125044 -2.1802256
7.7746949 7.8538036 -2.1481278
9.2865639 9.3745089 -2.0899646
11.406059 11.510058 -1.989639
14.737653 14.86165 -1.8311421
20.349976 20.506853 -1.5140795
34.380493 34.633469 -0.85181707
5.8087759 5.8351955 -2.2061737
6.664794 6.6904411 -2.1802256
7.7965207 7.8210535 -2.1466014
9.3092327 9.3352661 -2.0880876
11.440562 11.46455 -1.9886642
14.785222 14.805883 -1.8306192
19.314594 19.328087 -1.4320166
34.580357 34.592438 -0.85377175
5.8273869 5.8111391 -2.2051384
48.692379 48.539669 1.2000972
6.6892757 6.6659636 -2.1802256
7.8223491 7.7896562 -2.145838
9.3391886 9.2969007 -2.0871489
11.495168 11.435143 -1.9908577
14.852102 14.764238 -1.832188
20.465027 20.329739 -1.5117766
34.871498 34.628922 -0.85782063
5.8486452 5.7897425 -2.2051384
6.7122765 6.6400328 -2.1797757
7.8606625 7.7733455 -2.148891
9.364768 9.2542801 -2.0852716
11.534181 11.390142 -1.9903703
14.893627 14.702502 -1.8309678
20.456238 20.179636 -1.505915
5.8715763 5.7719989 -2.2061737
6.7412071 6.624568 -2.1820252
7.8905487 7.7486119 -2.1496544
9.4080896 9.23563 -2.0880876
11.567635 11.347663 -1.989639
14.961935 14.667157 -1.8330595
20.537304 20.125673 -1.5069616
5.8906865 5.7524948 -2.2061737
53.877144 52.594856 1.3142359
6.7684727 6.6050811 -2.1833749
7.9021492 7.7086921 -2.145838
9.4360256 9.1985998 -2.0871489
11.604335 11.304441 -1.9891516
15.019045 14.625811 -1.8341054
20.401318 19.853275 -1.4918889
5.9107289 5.7318988 -2.2061737
6.7889419 6.5812416 -2.182925
7.931829 7.683795 -2.1466014
9.4664803 9.1672554 -2.0871489
11.647461 11.271421 -1.9901265
15.08147 14.584373 -1.8354999
19.932852 19.269121 -1.452951
5.9259267 5.7106185 -2.2051384
6.8023043 6.5505829 -2.1802256
7.9601746 7.662921 -2.1477461
9.4925547 9.1317053 -2.0862103
11.681915 11.229981 -1.989639
15.118258 14.523232 -1.8341054
5.9356484 5.6781783 -2.2009974
6.8279471 6.5294905 -2.1811254
7.989624 7.6350517 -2.1481278
9.5259619 9.0968494 -2.0862103
11.726786 11.194621 -1.9906142
15.191931 14.492372 -1.8368943
20.81284 19.840595 -1.5069616
5.9582348 5.6600838 -2.2020326
6.8504181 6.5030808 -2.1806755
8.0205021 7.6111693 -2.1492727
9.5504894 9.0567484 -2.0846457
11.773499 11.15703 -1.991589
15.245311 14.442006 -1.8372431
21.116947 19.990253 -1.5239185
6.007463 5.6670938 -2.2129028
6.8716602 6.4777904 -2.1802256
8.0484438 7.5844779 -2.1496544
9.5863628 9.0274162 -2.0855846
11.802256 11.106339 -1.9898828
15.313046 14.405078 -1.8393347
21.358309 20.077847 -1.5362698
6.0187507 5.6381636 -2.2097969
6.89992 6.4590926 -2.1820252
8.0662708 7.5482864 -2.1473646
9.6134853 8.9898529 -2.0846457
11.842404 11.066424 -1.9901265
15.367601 14.355622 -1.8398577
21.422428 19.997711 -1.5358511
6.034153 5.6131711 -2.2082443
6.9224257 6.4349666 -2.1820252
8.0925722 7.5200815 -2.1473646
9.63902 8.9508619 -2.0833945
11.875134 11.019627 -1.9891516
15.424926 14.308662 -1.8407292
36.146858 33.484085 -0.86005461
6.0494509 5.5881414 -2.2066913
6.9419808 6.4081211 -2.1811254
8.1245422 7.4971147 -2.148891
9.6658506 8.9131403 -2.0824559
11.922289 10.986176 -1.9906142
15.483576 14.262828 -1.8417752
6.0817347 5.578743 -2.21135
6.9599962 6.3799014 -2.1797757
8.1506643 7.4687066 -2.148891
9.6983557 8.8806877 -2.0827687
11.948847 10.933774 -1.9886642
15.547958 14.222151 -1.8435181
21.722063 19.855835 -1.5423408
37.023472 33.818928 -0.87527311
6.1054549 5.5613837 -2.2129028
6.9865484 6.3595009 -2.1811254
8.1795883 7.4428549 -2.1496544
9.7351446 8.8520918 -2.0840201
11.986944 10.891995 -1.9886642
15.60636 14.175825 -1.8445642
21.711374 19.707405 -1.5366884
6.1162329 5.5322638 -2.2097969
7.0047102 6.3336821 -2.1802256
8.206974 7.4155746 -2.1500359
9.7629814 8.8184338 -2.0837073
12.023 10.852181 -1.9886642
15.661664 14.126605 -1.8452613
20.856956 18.806067 -1.471792
6.1316719 5.509367 -2.2087619
7.0354748 6.3170056 -2.182925
8.2271385 7.3843822 -2.148891
9.7922325 8.7829838 -2.0833945
12.080021 10.827373 -1.9918326
15.702491 14.069267 -1.8445642
20.952229 18.759798 -1.4738853
37.09256 33.187889 -0.86878079
6.1537485 5.4905038 -2.2097969
7.0574818 6.2924099 -2.182925
8.2587261 7.3608465 -2.1504176
9.8228331 8.7487478 -2.0833945
12.111809 10.779864 -1.9908577
15.770861 14.031584 -1.8468301
21.534029 19.14572 -1.5101019
37.073647 32.938667 -0.86563939
6.1728778 5.4689879 -2.2097969
7.0721054 6.2612786 -2.1806755
8.2917223 7.3384771 -2.1523256
9.8607044 8.7209558 -2.0849588
12.152341 10.740147 -1.9913452
15.821229 13.977777 -1.8470045
21.801365 19.247559 -1.5241278
36.942776 32.60384 -0.86005461
6.1948328 5.4499578 -2.2108324
52.875534 46.517708 1.2292777
7.0957589 6.240365 -2.1815755
8.3158159 7.3081908 -2.1519439
9.8895731 8.6882057 -2.0849588
12.172976 10.686689 -1.9889079
15.884905 13.935601 -1.8487476
21.180338 18.574652 -1.4763974
37.296978 32.685566 -0.86563939
6.2085056 5.4255724 -2.2092795
7.1175003 6.2155561 -2.1815755
8.3281708 7.270246 -2.148891
9.9228191 8.6562262 -2.0855846
12.205709 10.640227 -1.9881767
15.965581 13.912949 -1.8527567
21.94994 19.114466 -1.5253839
6.2171922 5.3950057 -2.2056561
7.1494613 6.1996088 -2.1847248
8.3594303 7.2462773 -2.1504176
9.9499912 8.618947 -2.0849588
12.266792 10.61834 -1.9920764
16.041172 13.880596 -1.8558943
22.125307 19.131781 -1.5329202
37.009811 31.97986 -0.85377175
6.2447686 5.3808351 -2.2087619
7.1666236 6.1708045 -2.1833749
8.3936033 7.2247357 -2.1527071
9.9755163 8.5803051 -2.0840201
12.309807 10.580628 -1.9930513
16.119741 13.850498 -1.8593806
22.091948 18.968554 -1.5260119
6.2664456 5.3615208 -2.2097969
7.1866403 6.1444831 -2.182925
8.427722 7.2030516 -2.1549969
10.009916 8.5492783 -2.0849588
12.330054 10.523422 -1.9903703
16.193762 13.816126 -1.8623439
21.936123 18.702143 -1.5107299
6.2969027 5.3496189 -2.2139382
7.2080441 6.1193609 -2.182925
8.4438334 7.1659656 -2.1527071
10.044215 8.5181189 -2.0858974
12.369744 10.482882 -1.9908577
16.214521 13.736335 -1.8592062
22.440296 18.997108 -1.5408753
37.712124 31.903103 -0.86221874
6.3066797 5.3201303 -2.2108324
7.2338309 6.097928 -2.1842747
8.4627924 7.1313844 -2.1511807
10.07389 8.4830036 -2.0858974
12.438154 10.466482 -1.9959762
16.271524 13.687343 -1.8602523
21.527992 18.096172 -1.4738853
37.83551 31.781548 -0.86249793
6.3192863 5.2931228 -2.2087619
7.2565699 6.0738902 -2.1847248
8.4996786 7.1118808 -2.1542337
10.100411 8.4452505 -2.0852716
12.474317 10.426455 -1.99622
16.276388 13.594694 -1.8553714
21.502092 17.946692 -1.4678143
37.986771 31.69433 -0.86354512
6.3397765 5.2746077 -2.2097969
7.2751679 6.0485506 -2.1842747
8.5141592 7.0761247 -2.1519439
10.129875 8.4129791 -2.0855846
12.504245 10.381224 -1.9954888
16.24931 13.480858 -1.8471787
22.59782 18.734438 -1.5383632
38.107052 31.580956 -0.86389416
6.3602099 5.2560182 -2.2108324
7.2921829 6.0219092 -2.1833749
8.5436316 7.0528522 -2.1534703
10.151624 8.3743095 -2.0843329
12.532473 10.334652 -1.9945139
16.313911 13.443376 -1.8494449
22.641317 18.644169 -1.5371071
17.094078 14.071246 -0.38646609
6.3865657 5.24225 -2.2139382
7.3211513 6.0051107 -2.1860743
8.5639381 7.0219903 -2.1527071
10.186976 8.3468618 -2.0858974
12.560534 10.288001 -1.993539
16.34144 13.375325 -1.8475275
22.591711 18.477936 -1.5295708
38.207283 31.238934 -0.86145073
6.396749 5.2114873 -2.2108324
35.128918 28.609636 0.79080343
7.3400908 5.9757752 -2.1851747
8.5896168 6.9905567 -2.1527071
10.219036 8.3107119 -2.0862103
12.593781 10.234691 -1.9925638
16.362518 13.292722 -1.8443898
22.786432 18.498236 -1.5381539
38.264843 31.041601 -0.86005461
6.4164042 5.1903396 -2.21135
34.828945 28.163704 0.78183287
7.3669662 5.955018 -2.186974
8.6109142 6.9580607 -2.1519439
10.249518 8.2762337 -2.0865231
12.635612 10.195651 -1.993539
16.411919 13.238031 -1.8447384
23.068571 18.594053 -1.552808
38.528709 31.03327 -0.86354512
6.4329739 5.1667061 -2.2108324
34.621426 27.79657 0.77499157
7.3877096 5.9292645 -2.186974
8.6412697 6.9328799 -2.1534703
10.275266 8.2379322 -2.0858974
12.689713 10.166379 -1.9964637
16.437815 13.164466 -1.8424724
23.198826 18.565834 -1.5572042
38.602448 30.871101 -0.86277717
6.4645648 5.155057 -2.2154911
34.71825 27.675539 0.77499157
7.4083605 5.9034419 -2.186974
8.6654196 6.9026723 -2.1534703
10.305503 8.2032471 -2.0862103
12.715805 10.114604 -1.9950013
16.454035 13.083451 -1.8391604
23.257242 18.479765 -1.5567856
38.587799 30.639202 -0.86005461
6.4779773 5.128861 -2.2139382
35.52964 28.120108 0.79090816
7.4273958 5.8763351 -2.1865242
8.692543 6.8748159 -2.1542337
10.348025 8.1782446 -2.0890262
12.7557 10.073856 -1.9957327
16.45895 12.993833 -1.8346283
23.258873 18.349005 -1.5525987
6.4943204 5.1050243 -2.2134204
35.363438 27.788338 0.78504413
7.4509296 5.8527784 -2.1874242
35.708607 28.039417 2.3794022
8.707221 6.8371587 -2.1519439
10.381174 8.1457291 -2.0899646
12.792351 10.03049 -1.9959762
16.471281 12.910486 -1.8309678
23.47373 18.385927 -1.5626471
35.654499 27.906506 -0.79031473
6.501442 5.0740027 -2.2097969
35.498051 27.694254 0.78588188
7.4728465 5.8279376 -2.1878741
35.818882 27.924417 2.3802395
8.7403269 6.8139634 -2.1542337
10.412655 8.1118774 -2.0905905
12.830421 9.9882107 -1.9964637
16.502087 12.841911 -1.8293991
23.528311 18.296515 -1.5620191
35.808544 27.82604 -0.79157138
6.5298014 5.0595608 -2.2134204
34.936852 27.060762 0.77136147
7.4900637 5.7994285 -2.186974
8.7640572 6.7834139 -2.1542337
10.445598 8.0791044 -2.0915291
12.87149 9.9482222 -1.9974388
16.56258 12.796406 -1.8311421
23.525633 18.163013 -1.5576229
35.90863 27.703308 -0.79164112
6.5535479 5.0414505 -2.2154911
35.142067 27.023966 0.77380478
7.5071707 5.7708745 -2.1860743
8.7907944 6.7551746 -2.1549969
10.459632 8.0317678 -2.0887132
12.904564 9.9020185 -1.9971949
16.603983 12.736092 -1.8307935
23.515978 18.024887 -1.552808
6.569572 5.0173693 -2.2149734
35.611286 27.187513 0.78204232
7.5334673 5.7493615 -2.1878741
8.8112001 6.7220635 -2.1542337
10.506458 8.0095758 -2.0924675
12.942207 9.8593225 -1.9976823
16.694311 12.713057 -1.8358486
23.461134 17.853195 -1.5450623
6.5808868 4.9897389 -2.2129028
7.5565987 5.7253819 -2.1887739
8.8283491 6.6865263 -2.1527071
10.543806 7.9800024 -2.0943449
12.976546 9.8140821 -1.9976823
16.738588 12.654701 -1.8358486
23.424511 17.696543 -1.5385725
6.5936351 4.9632502 -2.21135
35.832169 26.962305 0.78274041
7.573422 5.6966281 -2.1878741
8.8547764 6.6580257 -2.1534703
10.577912 7.9478979 -2.0955963
13.017072 9.7734957 -1.9986575
16.583471 12.446699 -1.8140596
23.601179 17.700953 -1.546109
40.330753 30.226198 -0.87974089
6.6263938 4.9517694 -2.2165263
35.772274 26.722162 0.77938956
7.5932627 5.670155 -2.1878741
8.885828 6.6329503 -2.1553786
10.581841 7.8932061 -2.0909033
13.057473 9.7327461 -1.9996324
16.583685 12.356591 -1.8093531
23.489805 17.489647 -1.5348045
6.648294 4.9320598 -2.2180793
7.6098738 5.6412992 -2.186974
8.9089289 6.6018901 -2.1553786
10.6252 7.8679838 -2.094032
13.092964 9.6882849 -1.999876
16.825331 12.44556 -1.8309678
23.814123 17.602236 -1.5519706
40.875359 30.191015 -0.8870011
6.668582 4.9111123 -2.2191145
36.418526 26.810837 0.78937238
7.6342297 5.618165 -2.188324
8.9271774 6.5672598 -2.1542337
10.657376 7.8343534 -2.0949705
13.125102 9.6413507 -1.9996324
16.645451 12.222833 -1.8067385
24.02356 17.627712 -1.5616004
6.6763239 4.8809681 -2.2160087
36.511898 26.683542 0.78937238
7.6616635 5.5972281 -2.1905735
8.9532127 6.5383797 -2.1549969
10.687853 7.7994313 -2.0955963
13.169907 9.6036606 -2.0013385
16.993923 12.387639 -1.8398577
24.230246 17.649572 -1.5710208
6.6995764 4.8621707 -2.2180793
7.6779976 5.5681624 -2.1896734
8.9823418 6.5116944 -2.1565235
10.716611 7.763237 -2.0959091
13.214608 9.5657759 -2.0030446
17.066113 12.349272 -1.8429954
24.288475 17.56254 -1.5708115
6.7133713 4.8364983 -2.2170439
7.6995826 5.544951 -2.1905735
9.0082026 6.4825959 -2.1572866
10.739087 7.7253523 -2.0952835
13.254311 9.5277042 -2.0042634
16.963484 12.185009 -1.8273073
23.434818 16.827223 -1.5119859
41.979881 30.121181 -0.90187055
6.7372279 4.8198309 -2.2196321
7.7157207 5.5157714 -2.1896734
9.0296478 6.4526896 -2.1572866
10.77242 7.6924076 -2.096535
13.289104 9.4825287 -2.0045071
17.109734 12.199754 -1.8384633
24.449736 17.42696 -1.5735331
6.743825 4.7872725 -2.2160087
48.708069 34.576641 1.0426418
7.7317486 5.4865508 -2.1887739
9.0596485 6.4240866 -2.158813
10.808599 7.658586 -2.0980992
13.312408 9.4291964 -2.0030446
16.98308 12.02025 -1.8203349
24.25906 17.157324 -1.5572042
42.241375 29.864334 -0.90298748
6.7589149 4.7625918 -2.2154911
29.023411 20.443432 0.61966515
7.7613678 5.4649053 -2.1914732
9.0723839 6.3856454 -2.1565235
10.838501 7.6230803 -2.0987251
13.363116 9.391757 -2.0054822
17.117865 12.026177 -1.8302706
24.606506 17.274504 -1.5756264
42.538525 29.852238 -0.90710628
6.7770796 4.740078 -2.2160087
29.061541 20.32645 0.61903685
7.78264 5.4413729 -2.192373
9.1042728 6.3606858 -2.158813
10.860482 7.5848308 -2.0980992
13.400697 9.3519382 -2.0064571
17.17281 11.975471 -1.831665
24.647268 17.181395 -1.5745798
28.980728 20.187187 -0.61648881
6.7943497 4.7186785 -2.2165263
29.299866 20.341211 0.62259716
7.7983856 5.4119487 -2.1914732
28.859148 20.027763 1.8409698
9.1253176 6.3304572 -2.158813
10.872281 7.5367489 -2.0952835
13.443048 9.3118887 -2.0079193
17.266485 11.955883 -1.8374174
24.877909 17.213438 -1.5854656
29.083698 20.115988 -0.6172567
6.8171406 4.6993208 -2.2185969
29.34411 20.228039 0.62210846
7.8162889 5.3860602 -2.1914732
28.899273 19.906517 1.8390858
9.1473579 6.2985678 -2.158813
10.908602 7.5084958 -2.0974736
13.480399 9.2717552 -2.0088944
17.483805 12.016292 -1.8560687
24.842663 17.067514 -1.579604
29.173529 20.02792 -0.6176756
6.8366923 4.6776752 -2.2196321
29.371843 20.088734 0.62113112
7.8359761 5.3573775 -2.1914732
28.972046 19.800455 1.8390858
9.1692905 6.2665963 -2.158813
10.94094 7.471807 -2.098412
13.527411 9.2312326 -2.0108442
17.512472 11.94621 -1.8546741
24.951265 17.007839 -1.5825348
29.778915 20.283348 -0.62891495
6.8417912 4.6461864 -2.2160087
28.660858 19.455975 0.60465604
7.859468 5.3332725 -2.1928227
29.15007 19.773209 1.8459941
9.1976061 6.2389622 -2.1603396
10.965322 7.4324594 -2.0980992
13.55462 9.1806211 -2.0101132
17.661308 11.957609 -1.8660045
24.993937 16.909452 -1.5814881
6.8515592 4.617959 -2.2139382
28.76177 19.378149 0.60535419
7.8748035 5.3036304 -2.1919231
29.354765 19.762802 1.8545771
9.2176991 6.2057242 -2.1599579
10.99284 7.3952374 -2.098412
13.588232 9.1343536 -2.0103569
17.709558 11.900327 -1.8667017
25.195414 16.91785 -1.5904899
30.228647 20.282207 -0.63540721
6.8676386 4.5940127 -2.2139382
28.879097 19.311003 0.60640132
7.8965096 5.2782731 -2.1928227
29.573036 19.760073 1.8639976
9.2474689 6.1789622 -2.1618662
11.028443 7.3634048 -2.1002893
13.639844 9.1000967 -2.0132816
17.931664 11.958936 -1.8857017
24.233841 16.149731 -1.5262213
28.495024 18.975096 -0.59757042
6.859489 4.5539861 -2.2061737
28.923008 19.19459 0.60591269
7.9051442 5.2442117 -2.1901233
29.618523 19.641275 1.8625321
9.2787971 6.1531568 -2.1641557
11.049142 7.3215876 -2.0993509
13.68808 9.063385 -2.0157192
17.896875 11.845679 -1.8776833
24.340033 16.098112 -1.5293615
6.8930902 4.5417037 -2.2118676
29.474142 19.412479 0.61603504
7.9331641 5.2230201 -2.1928227
29.793686 19.608034 1.8692313
9.2838202 6.1099343 -2.1603396
11.077927 7.2851515 -2.0999765
13.722955 9.0177259 -2.0162065
17.971415 11.805027 -1.8811696
25.01721 16.42074 -1.5682994
28.921095 18.968723 -0.60371369
6.8878837 4.5038686 -2.2051384
29.220341 19.099419 0.60933334
7.9513488 5.1952944 -2.1928227
9.3067369 6.0785618 -2.1607211
11.111562 7.2518339 -2.1015408
13.76266 8.975193 -2.0174253
18.044226 11.76289 -1.8844814
25.308668 16.485937 -1.5829536
30.495485 19.849426 -0.63512796
6.893836 4.4734926 -2.2020326
29.364008 19.047356 0.61093891
7.9677992 5.1664491 -2.192373
9.3278942 6.0460443 -2.1607211
11.13681 7.2129998 -2.1015408
13.797241 8.9292517 -2.0179126
18.008228 11.650044 -1.8764631
25.22517 16.306408 -1.5741611
29.627289 19.137426 -0.61565107
6.9110351 4.4504457 -2.2025502
29.416864 18.936087 0.61065972
7.992342 5.1428208 -2.1941726
9.3571997 6.0187554 -2.1626294
11.168566 7.1783552 -2.1027923
13.840015 8.8885479 -2.019619
25.318924 16.241974 -1.5764638
29.357204 18.818071 -0.60867018
6.9281549 4.4273362 -2.2030678
29.440651 18.806383 0.60978711
7.9954638 5.1054502 -2.1901233
9.3897343 5.9934516 -2.1653006
11.210212 7.1499462 -2.105921
13.87096 8.8401794 -2.019619
18.003424 11.469445 -1.8675733
25.725908 16.376589 -1.5982356
30.259594 19.247822 -0.62598288
6.9500942 4.4072628 -2.2051384
29.51963 18.712057 0.61006629
8.0198202 5.0816836 -2.1919231
9.4056253 5.9574852 -2.1641557
11.2351 7.110774 -2.105921
13.913476 8.7991371 -2.0213251
18.11071 11.449121 -1.8745457
25.826818 16.314428 -1.600957
30.350317 19.164446 -0.62654138
6.9474511 4.3716559 -2.1994443
8.0415745 5.0581746 -2.1932726
9.4263649 5.9246149 -2.1641557
11.263635 7.076632 -2.1068597
13.952671 8.7592793 -2.0227876
18.160694 11.392179 -1.8755915
25.999229 16.302959 -1.6082841
30.274691 18.969193 -0.62360942
6.9602685 4.3475742 -2.1989267
8.0624905 5.032135 -2.1941726
9.4426241 5.8912506 -2.1633925
11.289947 7.0383143 -2.1071725
13.991583 8.7157726 -2.0240064
18.188223 11.325579 -1.8745457
25.83213 16.072834 -1.5944674
30.374681 18.884521 -0.62430751
6.9737616 4.3222327 -2.1984091
8.0750341 5.000885 -2.1928227
9.4664717 5.8603187 -2.1641557
11.322844 7.0040593 -2.1087368
14.037121 8.6762695 -2.0262001
18.181879 11.233749 -1.8698392
25.748724 15.896523 -1.5858843
30.746756 18.967365 -0.63059032
6.983871 4.2948256 -2.1968563
8.0874624 4.969604 -2.1914732
9.4902172 5.8292909 -2.1649189
11.340492 6.9603577 -2.1074855
14.065623 8.6261892 -2.0259562
18.361971 11.256639 -1.8843071
26.229826 16.067381 -1.6120523
30.792316 18.847389 -0.63017148
7.0021172 4.2724347 -2.1978915
8.1064253 4.9423561 -2.1919231
9.5255938 5.8053255 -2.1683536
11.369781 6.9238086 -2.1084239
14.092259 8.5749712 -2.0254686
18.392643 11.187294 -1.8834355
26.053637 15.834641 -1.5978168
7.0103784 4.2439632 -2.1958208
8.1286259 4.9170604 -2.1932726
9.5340424 5.7649264 -2.1656821
11.407403 6.8922577 -2.1109269
14.135703 8.5339327 -2.0274186
18.382105 11.093183 -1.8783807
26.231903 15.817852 -1.6053532
7.0168662 4.2144971 -2.1932325
8.1524258 4.8926654 -2.1950724
9.5642052 5.7376781 -2.1679718
11.439864 6.8574719 -2.1124914
14.165404 8.4845409 -2.0274186
18.362598 10.994146 -1.8724539
26.300665 15.734397 -1.6061906
7.0298767 4.1889877 -2.1927149
8.1661053 4.8621864 -2.1941726
9.5774279 5.7002387 -2.1664453
11.446753 6.8074026 -2.1093626
14.206882 8.4421368 -2.0291247
18.250118 10.840445 -1.8571144
26.417263 15.679186 -1.6099588
7.0461202 4.1654043 -2.1932325
8.1880627 4.8366227 -2.1955223
9.6040306 5.6707625 -2.1679718
11.472148 6.7684054 -2.1096754
14.237973 8.3935051 -2.0293684
18.581375 10.949639 -1.8869219
26.595747 15.659847 -1.6174953
7.0589499 4.1398082 -2.1927149
8.1981726 4.8040686 -2.1937227
9.6237659 5.6372061 -2.1679718
11.509344 6.7362986 -2.1121783
14.27061 8.3457613 -2.029856
18.490482 10.809293 -1.8738486
26.881344 15.701909 -1.6315212
50.405849 29.419436 -1.0187318
7.0716891 4.1141686 -2.1921973
8.2165756 4.7764034 -2.1941726
9.6399918 5.6016035 -2.1672087
11.543036 6.7020359 -2.1140556
14.313394 8.3038616 -2.031806
18.455711 10.702706 -1.8665273
26.770094 15.511843 -1.6214728
7.0676003 4.0788383 -2.1865032
8.2399492 4.7515883 -2.1959722
9.6662874 5.5718422 -2.168735
11.559513 6.6577616 -2.1128042
14.34229 8.2538509 -2.031806
18.518862 10.653126 -1.8691421
27.00416 15.52182 -1.6323586
7.0801206 4.0531816 -2.1859856
8.2581758 4.7237663 -2.1964221
9.7027225 5.5478096 -2.1725514
11.586111 6.6193328 -2.1134298
14.391706 8.2155437 -2.0347307
18.709944 10.676305 -1.8846557
27.047771 15.421521 -1.6317306
7.0935216 4.0296826 -2.1859856
8.2653227 4.6915431 -2.1941726
9.7278967 5.5194812 -2.174078
11.613155 6.5837951 -2.1143684
14.420594 8.1687546 -2.0349743
18.311811 10.36877 -1.8410778
27.053568 15.306165 -1.6290091
7.1092277 4.0058432 -2.1865032
8.2850456 4.6645727 -2.1950724
9.7453938 5.4845252 -2.173696
11.644678 6.5480561 -2.1159329
14.464595 8.1271219 -2.0371683
18.424334 10.347711 -1.8487476
27.385502 15.368043 -1.6457566
7.1164222 3.9772346 -2.184433
45.368511 25.345219 0.90710628
8.3080826 4.6394267 -2.196872
9.7661924 5.4514332 -2.174078
11.677816 6.5131383 -2.11781
14.501549 8.0814095 -2.0383868
18.636141 10.381257 -1.866353
27.515772 15.315088 -1.6503623
7.1201253 3.9467483 -2.1813271
8.320816 4.608511 -2.1959722
9.7782927 5.4135032 -2.1725514
11.702204 6.4732995 -2.1181231
14.541835 8.0374594 -2.0400932
18.572851 10.261234 -1.8564173
27.348751 15.09732 -1.6371735
7.1338558 3.9218752 -2.1813271
8.336853 4.5794353 -2.1959722
9.8108931 5.3869038 -2.1756043
11.714339 6.4267077 -2.1162457
14.597651 8.0019197 -2.0439928
18.640009 10.213569 -1.8595549
27.576471 15.097681 -1.6476408
46.024754 25.187386 -0.91579759
7.149199 3.897872 -2.1818447
8.3519945 4.5517621 -2.1959722
45.980057 25.04834 2.7440791
9.833087 5.3544993 -2.1763675
11.756409 6.3991561 -2.1200001
14.611897 7.9468317 -2.0422866
19.149963 10.406246 -1.9067932
28.086205 15.255925 -1.6750647
7.1654844 3.8759789 -2.1828799
45.963436 24.852335 0.91206276
8.3764009 4.5272188 -2.1982217
45.951241 24.825018 2.7371707
9.8404274 5.3162608 -2.174078
11.78736 6.3627787 -2.1215644
14.637802 7.8948317 -2.042043
19.168581 10.334181 -1.9052244
46.093822 24.808596 -0.91370332
7.1687555 3.8454657 -2.179774
8.35952 4.4804592 -2.1896734
9.855464 5.2800217 -2.1733146
11.816468 6.3253202 -2.1228158
14.693276 7.8586707 -2.0459425
19.259008 10.296322 -1.9106282
27.057512 14.453444 -1.6076561
7.1770186 3.817699 -2.1782212
8.3819914 4.4549117 -2.1914732
9.8911695 5.2548056 -2.1771307
11.843707 6.2868152 -2.1237545
14.710099 7.8017492 -2.0444803
19.259628 10.210363 -1.907142
28.071463 14.869349 -1.664807
7.1885929 3.7917197 -2.1777036
45.470501 23.984026 0.89733297
8.3984432 4.4279985 -2.1919231
9.9129267 5.222074 -2.1778939
11.860997 6.2456617 -2.1231289
14.756968 7.7640204 -2.0474052
19.381565 10.188503 -1.9156833
28.205481 14.820779 -1.6698312
7.1977053 3.7660675 -2.1766684
8.4052124 4.3941422 -2.1896734
9.9406309 5.1946259 -2.1801836
11.879225 6.2023892 -2.122503
14.783979 7.7124648 -2.0474052
19.333975 10.077498 -1.9074906
19.280252 10.04523 -1.1393539
19.262943 10.027653 -0.37906629
7.2131739 3.7405519 -2.177186
8.4187708 4.3638773 -2.1892235
9.963088 5.1599646 -2.1809468
11.915913 6.1660738 -2.125006
14.803761 7.6571603 -2.0464303
19.261063 9.954154 -1.8968576
19.288549 9.9598303 -1.1376791
19.267618 9.9447641 -0.37847289
7.2244687 3.7144692 -2.1766684
8.4243097 4.3276467 -2.1865242
9.9705629 5.1197724 -2.1786571
11.946154 6.1289473 -2.1265705
14.83879 7.6064758 -2.0474052
19.283281 9.8804951 -1.8956374
19.303638 9.882432 -1.1365278
19.275513 9.8637762 -0.3779493
7.22018 3.6804528 -2.1714919
8.4420862 4.3014584 -2.1874242
9.9988689 5.0902829 -2.1809468
11.968171 6.0901971 -2.1268833
14.874551 7.5626202 -2.0488675
19.271467 9.7896662 -1.8911053
19.313156 9.8066044 -1.135167
19.283075 9.7828655 -0.37742576
7.2357922 3.6582344 -2.1725271
8.4518299 4.2693291 -2.1860743
10.012189 5.0553303 -2.1801836
11.985828 6.0466065 -2.1262577
14.922132 7.5213699 -2.0517924
19.278828 9.7088985 -1.8884906
19.318729 9.7247553 -1.1334922
19.295668 9.7047176 -0.37700689
7.243969 3.6290951 -2.1709743
8.4527426 4.2328181 -2.1824751
10.041183 5.0238729 -2.1824734
12.014978 6.006165 -2.1275089
14.950068 7.4701347 -2.0520363
19.285864 9.6281891 -1.8858758
19.30241 9.6280346 -1.1304567
19.299006 9.6221304 -0.37641349
7.263515 3.6072218 -2.1730449
8.4629622 4.1992121 -2.1811254
10.05866 4.9887891 -2.1824734
12.03941 5.9659457 -2.1281347
14.977352 7.4152789 -2.0520363
19.290783 9.5466757 -1.8830869
19.32337 9.5543966 -1.129724
19.298285 9.5336218 -0.37571543
7.2725949 3.5801404 -2.1720095
8.4758215 4.1687827 -2.1806755
10.076015 4.9536448 -2.1824734
12.074347 5.9308476 -2.1306376
15.008485 7.3655858 -2.0527673
19.286427 9.4608479 -1.8794264
19.342251 9.4798679 -1.1288867
19.299118 9.4503651 -0.37508711
7.2659507 3.5454118 -2.1663156
8.4955759 4.1417351 -2.1820252
10.093243 4.9184446 -2.1824734
12.080768 5.8817492 -2.1281347
15.044817 7.3183579 -2.0542297
19.290667 9.3795233 -1.8766375
19.357262 9.4035616 -1.1278399
19.32136 9.3819427 -0.37491259
7.2817612 3.5217075 -2.1673508
20.547615 9.9375257 0.39840353
8.4899626 4.1042118 -2.1770763
10.124495 4.8900108 -2.1855264
12.103761 5.8433752 -2.1287606
15.076157 7.271873 -2.0552046
19.463913 9.3757162 -1.1322361
19.490929 9.3803606 -0.37756535
7.2933989 3.4975424 -2.1673508
20.571358 9.8605595 0.39819413
8.4884224 4.0669713 -2.1730273
10.147738 4.8598042 -2.187053
12.125868 5.801939 -2.1290734
15.105028 7.2209182 -2.0556922
19.371855 9.2523575 -1.8782063
19.673155 9.3920488 -1.1424941
19.729313 9.4104033 -0.38154453
7.3026786 3.4691312 -2.1663156
20.593006 9.78269 0.39794978
8.5060892 4.0389857 -2.1739271
10.15661 4.8183732 -2.1851447
12.155975 5.7616901 -2.1306376
15.117582 7.1622019 -2.0539861
19.214943 9.0951824 -1.8599035
19.931335 9.4257526 -1.1554734
19.906673 9.4098501 -0.38433689
7.3025074 3.43786 -2.1626918
8.5190706 4.0069547 -2.1734772
10.182253 4.7870641 -2.187053
12.186743 5.7242579 -2.132515
15.167096 7.1177049 -2.0571547
19.206661 9.0052366 -1.8558943
20.134113 9.4357967 -1.1653125
20.143862 9.4317904 -0.38824624
7.3080564 3.4078045 -2.1606214
8.5135756 3.9681392 -2.1685281
10.199729 4.7497144 -2.187053
12.202267 5.6770558 -2.1315763
15.200848 7.0689063 -2.0583735
19.176544 8.9096003 -1.8499678
20.356972 9.4493885 -1.1761984
20.339916 9.4371681 -0.39138767
7.3280864 3.387603 -2.1632097
8.5309143 3.9400287 -2.1694279
10.220772 4.7183304 -2.1881976
12.228202 5.6398664 -2.1328278
15.240432 7.0259356 -2.0605671
19.120932 8.8067789 -1.8417752
29.804821 13.715008 -1.7194456
7.3322539 3.3600657 -2.161139
8.5297565 3.9052293 -2.1658287
10.241717 4.6868644 -2.1893425
12.246837 5.5992875 -2.1328278
15.260039 6.9737034 -2.0600796
19.15184 8.744154 -1.8419495
30.002783 13.685715 -1.7282382
7.3486323 3.3381269 -2.1626918
8.5408869 3.8761146 -2.1653788
10.257205 4.652873 -2.1893425
12.274335 5.5627184 -2.1343923
15.295133 6.9253168 -2.061542
19.269676 8.7208433 -1.8504907
29.815054 13.480827 -1.7148402
7.3531933 3.3092856 -2.1606214
8.5490313 3.8438861 -2.1640291
10.259056 4.6106038 -2.1862895
12.299085 5.5222635 -2.1353307
15.311972 6.8686304 -2.0605671
19.180014 8.5997219 -1.838986
29.748924 13.326041 -1.7083505
7.3470569 3.2757292 -2.1554451
8.5588369 3.812433 -2.1631293
10.290236 4.57936 -2.1893425
12.316478 5.4785037 -2.1350179
15.346735 6.8199792 -2.0620294
19.227793 8.5366468 -1.8405551
30.0203 13.315719 -1.7211205
7.3731518 3.2550223 -2.1595864
8.5691853 3.7794666 -2.1622295
10.303358 4.5400276 -2.1885793
12.329243 5.4301424 -2.1337664
15.39707 6.7748742 -2.0654416
19.341026 8.5022011 -1.8483989
30.266399 13.292343 -1.732425
7.3708696 3.2217882 -2.1554451
8.5722685 3.7433484 -2.1595302
10.326339 4.5071783 -2.1901057
12.374415 5.3959618 -2.1381464
15.424263 6.7226772 -2.0659294
19.355976 8.4282684 -1.8470045
30.404192 13.226442 -1.7376587
7.3956947 3.2034721 -2.1595864
8.5792694 3.7125812 -2.1581805
10.348436 4.4760299 -2.1916323
12.395867 5.3564672 -2.1387722
15.450114 6.6730685 -2.0664167
19.400282 8.3711433 -1.8485733
30.631294 13.2046 -1.7481257
23.701544 10.212404 -0.4504815
7.3991766 3.1758797 -2.1575158
8.5879488 3.6825762 -2.1572804
10.322492 4.4220958 -2.1828551
12.422644 5.3192163 -2.1403368
15.491567 6.6269002 -2.0688543
19.475183 8.3229504 -1.852931
29.902056 12.76664 -1.7039543
7.38943 3.1396749 -2.151304
8.599596 3.6503115 -2.1568308
10.309711 4.3719659 -2.1767492
12.440234 5.2728801 -2.1400237
15.543173 6.5816832 -2.0725102
19.468863 8.2359848 -1.8494449
29.120773 12.307088 -1.6568519
7.4044504 3.1140664 -2.1523392
8.6111202 3.6180148 -2.1563809
10.297757 4.3245511 -2.1710248
12.46312 5.2287807 -2.1406496
15.569021 6.5254407 -2.0727541
19.525055 8.1795273 -1.8520596
30.187935 12.634087 -1.7150494
7.4170585 3.0889454 -2.1528571
8.6075058 3.5811951 -2.1523318
10.296474 4.2817969 -2.1675904
12.488594 5.1882725 -2.141901
15.608207 6.4779 -2.0749476
19.592138 8.1273489 -1.85572
30.220787 12.524038 -1.7144215
7.4188666 3.0593517 -2.1502688
8.6235561 3.5526135 -2.1532316
10.300467 4.2413416 -2.1653006
12.521241 5.1506615 -2.1444039
15.624092 6.4238434 -2.0742164
19.533768 8.0233364 -1.8475275
