# .PCD v0.7 - Point Cloud Data file format
VERSION 0.7
FIELDS x y z
SIZE 4 4 4
TYPE F F F
COUNT 1 1 1
WIDTH 1479
HEIGHT 1
VIEWPOINT 0 0 0 1 0 0 0
POINTS 1479
DATA ascii
-13.135283 -3.499938 2.642323
-17.771566 -4.7319694 -0.96381903
-13.9408 -3.7119651 3.3306253
-17.881031 -4.7577782 -0.32297423
-12.040166 -3.20139 3.3382483
-7.5995626 -2.0093105 -2.1062696
-15.428152 -4.0762949 0.2785404
-8.8575039 -2.3386006 -2.1149898
-7.5327821 -1.9860287 -1.5142603
-16.755249 -4.4175453 1.5159869
-12.92818 -3.4061205 -2.1174972
-12.89638 -3.3953321 1.6374366
-16.141373 -4.2466588 -2.049355
-13.936773 -3.6640468 2.2823792
-17.91337 -4.7061672 -1.6203996
-15.168458 -3.982203 3.0483646
-17.935614 -4.7053194 -0.9717741
-13.907187 -3.6484814 3.3193777
-17.89835 -4.6922045 -0.32297423
-12.134046 -3.1787832 3.3610244
-7.6218314 -1.9853388 -2.1104105
-15.472016 -4.0272756 0.27906397
-8.8792181 -2.3095541 -2.118139
-7.6141191 -1.9776528 -1.5291433
-16.667194 -4.3290529 1.5065742
-12.944404 -3.3597059 -2.1181231
-12.916424 -3.3500378 1.6384115
-16.1453 -4.1844764 -2.0478926
-13.938636 -3.6099696 2.2805018
-18.050085 -4.6714334 -1.6312069
-15.162044 -3.92117 3.0441668
-18.07263 -4.6705379 -0.9782638
-11.650702 -3.0109091 2.7781456
-18.109045 -4.6765771 -0.32646471
-12.181157 -3.1434569 3.3708594
-7.5965652 -1.95188 -2.1016109
-15.742889 -4.0420914 0.28370631
-8.9019289 -2.2839711 -2.1217382
-15.770844 -4.0463309 0.85328549
-7.6640344 -1.9649385 -1.5379206
-16.733568 -4.287117 1.5112805
-12.95356 -3.316272 -2.11781
-12.965924 -3.3170264 1.6432863
-16.212214 -4.1475134 -2.0547173
-17.356525 -4.4370265 2.8374085
-18.24227 -4.6600714 -1.6472436
-16.27379 -4.1541891 3.2647421
-18.242037 -4.6532254 -0.98663753
-11.928239 -3.0426855 2.8420317
-18.220535 -4.6443586 -0.32820997
-12.093623 -3.08038 3.3439424
-7.6086144 -1.9281012 -2.1031637
-15.789162 -3.998208 0.2842997
-8.9075642 -2.2539601 -2.1212883
-15.859688 -4.0131178 0.85736769
-7.7123818 -1.9501004 -1.5463161
-13.096812 -3.3091421 1.1818318
-12.958739 -3.2718465 -2.1168714
-12.99995 -3.2798386 1.6462111
-16.360613 -4.1277213 -2.071779
-13.425332 -3.3846722 2.1928985
-18.307856 -4.6122065 -1.6517757
-11.939074 -3.0055354 2.3931265
-18.369709 -4.6209707 -0.9927085
-18.301773 -4.6004858 -0.32939672
-16.358828 -4.109055 4.5194983
-7.6018467 -1.899581 -2.0995402
-15.767411 -3.9371068 0.28367144
-8.9471331 -2.2324314 -2.1289368
-15.877478 -3.958699 0.85757709
-7.7572417 -1.9326613 -1.5539485
-13.080647 -3.2589498 1.1793915
-12.910094 -3.2140648 -2.1071725
-13.022314 -3.2395861 1.6476736
-16.45776 -4.0911784 -2.0822597
-30.602922 -7.6018057 4.9943271
-18.420527 -4.5722699 -1.6604911
-11.983791 -2.9723489 2.3999958
-18.50592 -4.5866094 -0.9991982
-12.022443 -2.9797082 2.8595779
-18.484652 -4.5779138 -0.33239853
-11.97929 -2.9645753 3.3066723
-7.6087575 -1.8717078 -2.0995402
-15.812808 -3.8869236 0.2842299
-8.9249754 -2.1921856 -2.1217382
-15.998561 -3.9266658 0.863334
-7.8100367 -1.9154381 -1.5631074
-13.020908 -3.1934221 1.1729419
-12.9333 -3.1695433 -2.1090496
-13.645314 -3.3415143 1.7249388
-16.567125 -4.0539494 -2.094203
-14.934398 -3.6516616 2.4350593
-18.630707 -4.5520177 -1.6779224
-12.030842 -2.937253 2.4072464
-18.59634 -4.5367384 -1.0031757
-12.027603 -2.934238 2.858228
-18.70336 -4.5593882 -0.33602864
-11.980692 -2.9183631 3.3040841
-7.6324649 -1.8478968 -2.1041989
-16.093224 -3.893363 0.28901187
-8.9215851 -2.1567097 -2.1190388
-12.900748 -3.1162519 0.69554496
-7.8395748 -1.8936957 -1.5676868
-12.922129 -3.1190333 1.1630062
-12.967875 -3.1276767 -2.1128042
-13.362205 -3.2203164 1.6876467
-16.65135 -4.0099359 -2.1029775
-14.17946 -3.4120402 2.3099115
-18.774334 -4.5177164 -1.6894269
-12.058202 -2.8993702 2.410681
-18.740232 -4.5025959 -1.010084
-11.98143 -2.876487 2.8447311
-18.770502 -4.5029349 -0.33693618
-11.88798 -2.8496666 3.2756138
-7.6369896 -1.820797 -2.1036813
-8.9252682 -2.1246517 -2.118139
-12.919319 -3.0730524 0.69596362
-7.8843369 -1.875407 -1.5753192
-12.915492 -3.0697606 1.1614374
-12.980635 -3.0828474 -2.113117
-13.124207 -3.1145289 1.6562046
-16.701946 -3.9604855 -2.1076086
-18.737644 -4.4397507 -1.6847205
-12.060606 -2.8554547 2.4091544
-18.742231 -4.4339294 -1.0093514
-11.966743 -2.8288181 2.8388824
-18.70826 -4.4190025 -0.33554
-11.879055 -2.8037119 3.2704377
-7.6395373 -1.7932447 -2.1026461
-8.9402199 -2.0952642 -2.1199389
-12.978053 -3.0415864 0.69858038
-7.9290652 -1.8568267 -1.5829515
-13.015369 -3.0455368 1.1694556
-12.968234 -3.0321236 -2.1093626
-13.140799 -3.0700524 1.6569357
-16.835524 -3.9301393 -2.1227205
-31.380611 -7.325592 5.1038318
-19.011086 -4.434516 -1.7079039
-12.074326 -2.814229 2.4099178
-19.03187 -4.4323554 -1.0241101
-11.929093 -2.7759895 2.8276348
-18.759817 -4.36555 -0.33620319
-11.980488 -2.7857423 3.2958016
-7.6363392 -1.764394 -2.1000578
-31.542076 -7.2878704 0.56507403
-8.937624 -2.0634136 -2.1176891
-29.783846 -6.8706698 1.6018991
-7.9680209 -1.8366339 -1.5894389
-13.076401 -3.0117152 1.1739877
-12.953193 -2.9833384 -2.1052952
-13.220549 -3.0424857 1.6657103
-16.892958 -3.8845198 -2.1283264
-16.512547 -3.7940147 2.6834772
-19.189568 -4.4055767 -1.7225461
-12.028099 -2.7614334 2.3988509
-19.241133 -4.4138751 -1.0345774
-12.150976 -2.7851791 2.8780239
-19.205719 -4.3987002 -0.34391713
-11.990139 -2.7439051 3.2958016
-7.6251955 -1.7352012 -2.0953991
-31.290438 -7.1147575 0.56011754
-8.9390707 -2.0309074 -2.1163394
-31.599539 -7.1734405 1.6981972
-8.0161877 -1.8197623 -1.5978346
-13.094089 -2.9700983 1.1746851
-12.97316 -2.9402881 -2.1068597
-13.761572 -3.116452 1.7324947
-16.987732 -3.8439329 -2.1385634
-14.822447 -3.3512592 2.4069009
-19.324556 -4.3691573 -1.7333534
-12.064476 -2.725487 2.4041934
-19.373316 -4.3730745 -1.0408576
-12.023752 -2.7118764 2.8456309
-19.35751 -4.362401 -0.34636045
-12.227689 -2.7533879 3.3584361
-7.6726794 -1.7178611 -2.1067872
-8.9175787 -1.993315 -2.109591
-13.161233 -2.9394724 0.70674485
-8.0454845 -1.7969046 -1.6024141
-13.388282 -2.9877291 1.2001345
-12.979489 -2.8941252 -2.1062338
-13.762678 -3.0662372 1.731276
-17.097929 -3.8061779 -2.1507504
-14.92661 -3.3200855 2.4219186
-19.538067 -4.3457994 -1.7511332
-12.131412 -2.696135 2.415642
-19.505451 -4.3313999 -1.047138
-11.987486 -2.6597581 2.8348331
-19.462427 -4.3147182 -0.3479661
-12.237225 -2.7106884 3.3584361
-7.6597633 -1.6869111 -2.1016109
-19.535582 -4.2987499 0.34915283
-8.888319 -1.9542258 -2.1010427
-13.159708 -2.8909416 0.7061168
-8.1015635 -1.7797618 -1.6123362
-14.009691 -3.0751042 1.2548684
-12.997231 -2.8504963 -2.1074855
-13.711247 -3.00458 1.7234763
-17.120808 -3.7485943 -2.151969
-14.868638 -3.2527635 2.4106555
-19.603722 -4.2886424 -1.7556653
-12.094718 -2.6437101 2.4064832
-19.653137 -4.2922649 -1.0542556
-12.013833 -2.6216366 2.8388824
-19.641487 -4.2825384 -0.35089809
-16.406836 -3.5742707 4.4993105
-7.6467237 -1.6560738 -2.0964344
-32.047287 -6.9347296 0.57233423
-8.9141359 -1.9273039 -2.1055419
-29.595753 -6.3934202 1.5868263
-8.1768093 -1.7663947 -1.6260743
-13.987231 -3.0190392 1.2519051
-13.007103 -2.8051066 -2.1074855
-13.657614 -2.9429014 1.715433
-17.149313 -3.6921549 -2.153919
-16.02317 -3.4467726 2.5958736
-19.73934 -4.2461643 -1.7664726
-12.142261 -2.6097257 2.4141154
-19.886703 -4.270607 -1.0659788
-12.059114 -2.5874519 2.8474305
-19.773632 -4.2391009 -0.35299239
-16.402214 -3.5133326 4.4946518
-7.6600156 -1.6309826 -2.098505
-32.106503 -6.8303099 0.57296252
-8.9379635 -1.899822 -2.109591
-13.155639 -2.7963161 0.70486069
-8.3096733 -1.7647612 -1.6512611
-13.613733 -2.8887243 1.2175657
-8.4079809 -1.7825704 -1.361293
-17.167288 -3.6364985 -2.1546502
-16.073166 -3.4017987 2.6021311
-19.960665 -4.2209277 -1.7849497
-12.20892 -2.5795033 2.4255641
-20.02656 -4.2275596 -1.0726779
-12.223979 -2.5804532 2.8843224
-19.944115 -4.2065196 -0.35578477
-16.389196 -3.4537499 4.4879222
-7.6464744 -1.6016114 -2.0933285
-32.09375 -6.7164292 0.57233423
-8.9384928 -1.8689754 -2.1082413
-13.16875 -2.7534924 0.70507008
-10.746514 -2.2450652 -2.1340079
-8.4389849 -1.759921 -1.3653603
-15.498251 -3.2292881 1.9438162
-17.122896 -3.5678067 -2.1475818
-14.47921 -3.0143192 2.3424499
-20.111099 -4.1831131 -1.7971513
-12.25393 -2.5465925 2.4328148
-20.110868 -4.1757479 -1.0764461
-12.385111 -2.5715997 2.9203146
-20.075434 -4.1647305 -0.35787904
-16.328676 -3.3844824 4.4682522
-7.6687717 -1.5797534 -2.0979872
-33.028572 -6.7978187 0.58859986
-8.9312792 -1.8365781 -2.105092
-9.3654318 -1.9241514 -1.8584797
-13.367162 -2.7438858 1.1938593
-8.4641256 -1.7358948 -1.3684888
-13.885061 -2.8451447 1.7402943
-17.168306 -3.5147822 -2.1517253
-14.2187 -2.9083352 2.2986481
-20.284922 -4.149138 -1.8114449
-12.285389 -2.5106592 2.4373941
-20.320295 -4.1489897 -1.0869132
-12.367281 -2.5228951 2.914016
-20.285789 -4.1345692 -0.36136955
-16.414221 -3.3424978 4.48844
-7.6553054 -1.5491431 -2.0928109
-33.020737 -6.6761441 0.58804137
-8.9414558 -1.8061625 -2.1059918
-13.297286 -2.6836193 0.71093172
-9.3566952 -1.8883408 -1.8554269
-13.255568 -2.6727922 1.1830521
-8.5320997 -1.7188243 -1.3785007
-13.844311 -2.7864754 1.7339572
-17.196039 -3.4579628 -2.1536753
-14.228765 -2.8586881 2.2986481
-20.455547 -4.109705 -1.8253897
-16.419052 -3.2957559 3.2552018
-20.491316 -4.109446 -1.095287
-12.431424 -2.4908152 2.9270632
-20.496178 -4.1029844 -0.36486
-16.918316 -3.3836827 4.6230259
-7.6417179 -1.5186458 -2.0876343
-36.131096 -7.1738205 0.64298159
-8.9457951 -1.7745607 -2.1055419
-9.394043 -1.8617748 -1.8615327
-13.274589 -2.6284401 1.1839236
-8.5613022 -1.6936312 -1.3822551
-13.869533 -2.7412117 1.7359071
-17.211901 -3.398685 -2.1541626
-12.211485 -2.4090822 1.9713873
-20.564304 -4.0531979 -1.8337568
-33.032345 -6.5106325 6.5443668
-20.642708 -4.064909 -1.102614
-12.41901 -2.4432681 2.9221141
-20.706591 -4.0699806 -0.36835051
-16.219154 -3.18501 4.4289117
-7.6718831 -1.495432 -2.0943637
-28.811287 -5.616004 0.51236778
-8.932806 -1.7395977 -2.1010427
-30.991541 -6.0297666 1.6546538
-9.3718958 -1.8217123 -1.8558085
-13.303692 -2.5835667 1.1856667
-8.6139927 -1.6712728 -1.389764
-29.014978 -5.6294384 3.6290257
-17.227556 -3.3393385 -2.1546502
-12.21982 -2.366441 1.9713873
-20.734818 -4.0116615 -1.8477017
-12.296001 -2.3767414 2.4343412
-20.826117 -4.02179 -1.1116159
-12.45467 -2.4028986 2.9284129
-13.993688 -2.6972942 3.8186164
-7.6770563 -1.4686428 -2.0943637
-33.286354 -6.361762 0.59153187
-8.919981 -1.7031908 -2.0965438
-31.017355 -5.9168768 1.6548631
-9.3550558 -1.7845721 -1.851229
-16.042873 -3.0574436 1.4288312
-8.662466 -1.6493202 -1.3966471
-29.733561 -5.6558475 3.716284
-17.23773 -3.2758074 -2.1544065
-14.196291 -2.6952507 2.2886364
-20.920946 -3.971967 -1.8630412
-12.867452 -2.4406359 2.5457737
-20.965618 -3.9728718 -1.1183149
-12.472555 -2.3612242 2.9306624
-20.982758 -3.968528 -0.37274852
-14.020565 -2.6492112 3.8232751
-7.6669459 -1.4389867 -2.0902226
-29.790218 -5.5858569 0.52905226
-8.9143791 -1.6698906 -2.0938444
-13.463464 -2.5196216 0.71784002
-9.4036818 -1.7598531 -1.8596245
-13.64455 -2.551043 1.2144281
-8.7108889 -1.6270516 -1.4035301
-14.778016 -2.7576261 1.8458333
-17.225643 -3.2112463 -2.1514816
-13.273462 -2.472074 2.1384594
-21.087463 -3.9273679 -1.8766375
-12.304574 -2.2894077 2.4328148
-21.175722 -3.9361582 -1.128782
-14.035425 -2.6013131 3.8248281
-7.6681232 -1.4115157 -2.0891874
-29.33359 -5.3943033 0.52060533
-8.8703203 -1.6296104 -2.0821469
-13.444674 -2.467562 0.71637464
-15.84042 -2.9044023 1.4089596
-8.7981243 -1.6115854 -1.4166707
-14.764119 -2.701736 1.8429084
-17.248463 -3.1532393 -2.1529438
-13.515197 -2.4683166 2.1760037
-21.23628 -3.8784385 -1.8886648
-13.361225 -2.4377832 2.6400332
-21.38582 -3.898031 -1.1392492
-12.835752 -2.3372805 3.0120945
-21.35228 -3.8842173 -0.37882194
-14.055825 -2.5543768 3.8279338
-7.6749043 -1.3850832 -2.089705
-29.954437 -5.4004526 0.53128618
-8.9239016 -1.6072726 -2.0933945
-13.472864 -2.4241498 0.71742135
-10.735451 -1.9316114 -2.1202698
-13.563978 -2.438103 1.2057126
-8.8814669 -1.5948293 -1.4291855
-15.592147 -2.7970414 1.9450349
-17.194885 -3.0814557 -2.1449006
-12.166496 -2.1781414 1.9576212
-21.277147 -3.8092015 -1.8911053
-13.303946 -2.3793771 2.6270583
-21.517265 -3.8444328 -1.1455295
-21.558634 -3.8440599 -0.38224259
-14.117908 -2.5147827 3.8424277
-7.6720829 -1.3569382 -2.0876343
-29.606836 -5.2311435 0.52479386
-8.9256182 -1.5754347 -2.0924947
-13.561888 -2.3913283 0.72171295
-10.749861 -1.8954918 -2.1217961
-13.672478 -2.4083679 1.2146025
-9.0114918 -1.5857272 -1.4492091
-15.621366 -2.7460339 1.9474722
-17.197716 -3.020046 -2.1439257
-12.302441 -2.1581833 1.9782705
-21.459084 -3.7645078 -1.906096
-13.140063 -2.3027613 2.5930946
-21.538422 -3.7706826 -1.1459483
-12.742338 -2.2284772 2.9864502
-21.690115 -3.7894316 -0.38433689
-13.79356 -2.4073648 3.7518408
-7.6843872 -1.3314686 -2.089705
-29.258423 -5.0643272 0.51830161
-8.9118624 -1.5409464 -2.0879958
-13.418607 -2.3177972 0.71365315
-10.771888 -1.8606291 -2.1248491
-13.722032 -2.3677416 1.2182629
-9.1707592 -1.5807674 -1.4739258
-15.668026 -2.6978922 1.9521034
-17.157286 -2.9512463 -2.1375885
-12.381931 -2.1276038 1.9898466
-21.458347 -3.6872163 -1.9048759
-13.107387 -2.249908 2.5850804
-21.870354 -3.7501588 -1.1629051
-12.757722 -2.1853001 2.9882498
-21.584944 -3.6934636 -0.38224259
-14.146546 -2.418113 3.8455336
-7.6849513 -1.3053316 -2.0886698
-29.121277 -4.9411817 0.51557899
-8.9342146 -1.5143198 -2.0920448
-13.414404 -2.2712855 0.71302515
-10.770257 -1.8235867 -2.1233225
-14.144314 -2.3923326 1.2550427
-9.261652 -1.564827 -1.4876919
-13.251657 -2.2365932 1.6501111
-17.127831 -2.8877335 -2.1327136
-12.392816 -2.0871878 1.9904724
-21.74748 -3.662693 -1.9294537
-12.28034 -2.0660439 2.420603
-22.122965 -3.7179966 -1.175675
-12.749525 -2.1404004 2.9846506
-22.090113 -3.7045476 -0.3909688
-13.647676 -2.2862887 3.7078416
-7.6894608 -1.2784979 -2.0886698
-30.696758 -5.0983372 0.54315382
-8.9452143 -1.484079 -2.0933945
-10.753314 -1.7821281 -2.1187432
-14.115232 -2.3367655 1.2517307
-9.3528099 -1.546671 -1.5014582
-13.300513 -2.1971166 1.6552296
-17.129972 -2.8266351 -2.1317387
-21.608765 -3.5618119 -1.9160318
-12.289414 -2.0234835 2.4209847
-22.234348 -3.6569517 -1.1809087
-12.826144 -2.1072598 3.0008471
-22.272615 -3.6552668 -0.39397064
-13.604101 -2.2301936 3.6938655
-7.6786222 -1.249169 -2.0845287
-29.407711 -4.7788196 0.52004683
-8.9503403 -1.452845 -2.0933945
-34.121948 -5.5387731 1.8116616
-10.74978 -1.7430124 -2.1168351
-14.009231 -2.2690003 1.2416207
-13.31594 -2.1519423 1.6562046
-17.176968 -2.7728333 -2.1363697
-12.295577 -1.9848433 1.9726388
-21.707611 -3.5003161 -1.9237015
-12.339045 -1.9874409 2.4293802
-22.467831 -3.6148548 -1.192632
-12.985423 -2.0869031 3.0363894
-13.561829 -2.17711 3.6804068
-7.6714892 -1.2205366 -2.081423
-29.300955 -4.6617918 0.5178827
-8.9493341 -1.4222387 -2.0920448
-33.983269 -5.3945804 1.8032879
-10.726713 -1.7008659 -2.1111107
-13.983613 -2.2147863 1.2386574
-9.5640802 -1.5148013 -1.5336838
-31.204647 -4.9367476 3.8791015
-17.14097 -2.708734 -2.1307638
-12.314138 -1.9437592 1.974516
-21.920443 -3.4561718 -1.9414812
-12.361082 -1.948958 2.4324331
-22.779583 -3.5875573 -1.208542
-22.818499 -3.5855243 -0.40318549
-13.634235 -2.1399415 3.6980069
-7.6716766 -1.1944954 -2.0803876
-30.613266 -4.7610679 0.54078031
-8.9253597 -1.3865036 -2.0852964
-10.741995 -1.6667902 -2.113019
-9.6122551 -1.4880552 -1.5405668
-17.111084 -2.6428194 -2.1258888
-12.471174 -1.9239535 1.998607
-22.0007 -3.394093 -1.9475821
-12.381392 -1.9078937 2.4351046
-22.934095 -3.5298951 -1.2160784
-29.94911 -4.6042585 6.9955277
-14.025435 -2.1512041 3.8020518
-7.685348 -1.1691616 -2.0829759
-29.874485 -4.539423 0.52744663
-8.9070244 -1.3518327 -2.0798974
-31.034357 -4.7045913 1.6450239
-10.738042 -1.6278119 -2.1111107
-32.039032 -4.8511653 2.8350017
-9.687705 -1.4651293 -1.5518301
-16.994583 -2.5641205 -2.1102896
-13.339228 -2.0102274 2.1365821
-21.754326 -3.2783864 -1.9247475
-12.36468 -1.8611529 2.4305251
-23.07268 -3.4688215 -1.2227774
-30.238649 -4.5407877 7.0594139
-14.122654 -2.1156847 3.8263807
-7.6874723 -1.1420417 -2.0824583
-29.530144 -4.3817029 0.52109396
-8.9001236 -1.319019 -2.077198
-30.935999 -4.5792618 1.638953
-10.722296 -1.587154 -2.1069131
-31.03087 -4.5877786 2.74436
-9.7474775 -1.4393836 -1.5605905
-30.630131 -4.5175986 3.8015926
-17.021105 -2.5073898 -2.1124835
-13.053013 -1.9205203 2.0896518
-21.816887 -3.2099695 -1.9292796
-12.404121 -1.8228328 2.4370127
-23.341539 -3.425972 -1.2363847
-29.833982 -4.3735795 6.9613352
-14.193033 -2.0756025 3.8434629
-7.6703811 -1.1121527 -2.0767641
-29.485889 -4.2699981 0.52004683
-8.9123888 -1.2890614 -2.0789976
-30.939934 -4.4695401 1.6383249
-10.719998 -1.5485963 -2.1053865
-30.95993 -4.4669132 2.7366903
-9.799367 -1.412109 -1.5680993
-30.665361 -4.4134865 3.8040299
-16.986525 -2.4417455 -2.1071212
-13.141762 -1.8867321 2.1027923
-21.90093 -3.1442654 -1.935729
-12.777707 -1.8321928 2.5091383
-29.775763 -4.2589269 6.9442391
-7.6990829 -1.0888879 -2.0834932
-29.488733 -4.1653681 0.51983738
-8.9380608 -1.2609355 -2.0839467
-31.002813 -4.3681993 1.6408371
-10.707842 -1.5087013 -2.1019521
-30.931929 -4.3527069 2.7328553
-9.8511848 -1.3844945 -1.5756081
-17.030331 -2.3873968 -2.1115084
-30.304985 -4.2429113 4.8466535
-22.12487 -3.0976377 -1.9545546
-12.358214 -1.7280381 2.4255641
-29.790445 -4.1549702 6.9442391
-29.40551 -4.0908122 7.9550629
-7.6932683 -1.0606871 -2.0809052
-29.245564 -4.0269461 0.51529974
-8.9134483 -1.2257457 -2.077198
-31.231569 -4.2893009 1.6521416
-10.744164 -1.4755886 -2.108058
-31.002205 -4.2522879 2.737736
-9.9107561 -1.3576052 -1.5843685
-31.120249 -4.257412 3.8566775
-17.036594 -2.327666 -2.1112647
-30.48402 -4.159534 4.8729343
-22.151342 -3.022543 -1.9559492
-12.338883 -1.6814429 2.420603
-30.225725 -4.108171 7.0423179
-29.006109 -3.9320943 7.8432527
-7.7064972 -1.0351136 -2.0834932
-29.073139 -3.8998446 0.51201868
-8.9138098 -1.1941067 -2.0762982
-10.760923 -1.4396397 -2.1103475
-31.115602 -4.1572351 2.7464516
-9.9780903 -1.3313617 -1.5943803
-31.115244 -4.1461334 3.8542402
-17.011164 -2.2637312 -2.1071212
-31.336445 -4.1644773 5.0068421
-22.061029 -2.9318151 -1.9470592
-12.529565 -1.6628996 2.4568567
-30.232155 -4.001615 7.0405183
-28.881763 -3.8126163 7.8059826
-7.7100635 -1.0082046 -2.0834932
-29.118299 -3.8024786 0.51257718
-8.946909 -1.1667663 -2.0830467
-10.752255 -1.4002906 -2.1076763
-10.064952 -1.3072113 -1.6075207
-31.161024 -4.0415802 3.85814
-17.028805 -2.2056117 -2.1083398
-31.276348 -4.0454454 4.9949532
-22.136335 -2.8632286 -1.9528115
-12.535294 -1.6191528 2.4568567
-24.229733 -3.1253953 -1.280347
-29.928963 -3.8552294 6.9667339
-24.214764 -3.114872 -0.42615286
-26.112707 -3.3543823 7.0543718
-7.7135363 -0.98128504 -2.0834932
-29.004435 -3.6846907 0.51034325
-8.9702606 -1.1379811 -2.0875459
-10.718125 -1.3578146 -2.100044
-10.179203 -1.2859321 -1.6250414
-31.320683 -3.9511683 3.8761766
-11.283414 -1.4214278 -1.396379
-31.367985 -3.9515815 5.0074677
-22.225269 -2.7958822 -1.959784
-12.527234 -1.5736734 2.4541855
-24.577389 -3.0830648 -1.2981411
-29.772078 -3.7294183 6.9271426
-24.363852 -3.0519533 -0.4285962
-29.029728 -3.6312816 7.8391118
-7.7149968 -0.95411831 -2.0829759
-29.139538 -3.603704 0.51250738
-8.9623795 -1.1067948 -2.0848465
-10.709159 -1.3187158 -2.0973725
-10.312812 -1.2680829 -1.6456908
-11.270333 -1.3818284 -1.3941854
-22.312021 -2.7277129 -1.9665822
-12.458331 -1.5230691 2.4396839
-24.611265 -3.0044494 -1.2993972
-29.819101 -3.6349134 6.9352412
-28.957844 -3.5196769 7.8163352
-7.7238727 -0.92922121 -2.0845287
-28.866039 -3.4676206 0.5074811
-8.9565144 -1.0743407 -2.0825968
-30.825077 -3.6920421 1.6270204
-10.672538 -1.2782923 -2.0893586
-11.276319 -1.3466146 -1.7986836
-11.265232 -1.3413054 -1.3929666
-22.502962 -2.6753478 -1.9826188
-31.448437 -3.7333052 6.15588
-25.153147 -2.9815276 -1.3274493
-29.812256 -3.5285118 6.9307418
-28.943096 -3.4154036 7.8090882
-7.7289882 -0.90247798 -2.0850463
-29.696301 -3.4622459 0.52186185
-8.9776306 -1.0451 -2.0866458
-30.853649 -3.5862639 1.6278578
-10.737388 -1.2480568 -2.1011887
-11.243669 -1.3029269 -1.7927393
-11.204771 -1.2944531 -1.3849233
-22.708109 -2.6193888 -1.9998757
-31.472982 -3.6248543 6.1581697
-29.990889 -3.4435496 6.9694338
-29.826212 -3.4140868 8.044096
-7.7532063 -0.87788391 -2.0907402
-29.45784 -3.3302598 0.51746386
-8.9812241 -1.0137556 -2.0866458
-10.702661 -1.2061712 -2.0935564
-13.199398 -1.4828836 -2.1037309
-11.189493 -1.2531265 -1.382486
-22.938883 -2.5649028 -2.0193987
-31.62575 -3.5194576 7.3464513
-29.791868 -3.3048406 8.0316725
-7.7485423 -0.84997392 -2.0886698
-29.835041 -3.2674687 0.52388632
-8.9982691 -0.98388165 -2.0897954
-10.685339 -1.1664633 -2.0893586
-13.210385 -1.4374406 -2.1046696
-11.181958 -1.2127756 -1.3810235
-23.108141 -2.5021882 -2.0335178
-29.737913 -3.1938198 8.0140734
-7.7514625 -0.82291925 -2.0886698
-29.277536 -3.1030266 0.51390356
-8.9648275 -0.94857174 -2.0812473
-10.744012 -1.1349293 -2.100044
-13.170138 -1.3865649 -2.0974736
-11.111101 -1.1658638 -1.3717614
-23.257423 -2.4362528 -2.0458939
-26.249126 -2.7403698 -1.3831348
-35.851662 -3.7365267 8.3218393
-30.171614 -3.1339035 8.1279535
-7.7619743 -0.79664522 -2.0907402
-29.375719 -3.0097845 0.51543939
-8.971962 -0.91766709 -2.0821469
-10.747909 -1.0974184 -2.100044
-13.180793 -1.3411803 -2.098412
-11.083505 -1.1238698 -1.3678616
-23.46203 -2.374913 -2.0631506
-26.588402 -2.6820066 -1.4005104
-29.205893 -2.9305835 7.8649936
-7.7531729 -0.76840448 -2.0876343
-31.021811 -3.0690544 0.54413116
-8.9557171 -0.88442796 -2.0776479
-10.691105 -1.053926 -2.0882137
-13.191293 -1.2957417 -2.0993509
-11.142678 -1.0905856 -1.3746864
-23.722012 -2.3176036 -2.0852883
-32.645489 -3.1721592 7.5723028
-30.161993 -2.9202111 8.1196718
-7.7365775 -0.73949784 -2.0824583
-8.9063702 -0.84817493 -2.0655005
-10.718173 -1.0188298 -2.0927932
-13.201635 -1.250249 -2.1002893
-25.812651 -2.4354675 -3.1834712
-23.9065 -2.2514098 -2.1008019
-26.876917 -2.5216866 -1.4147457
-29.350178 -2.748569 6.8056693
-26.832932 -2.5081115 -0.47041216
-30.075827 -2.8059347 8.0937891
-7.7256455 -0.71124762 -2.0788348
-34.34008 -3.1554141 0.60193348
-8.9519711 -0.82099605 -2.0753984
-10.711888 -0.98051512 -2.0908849
-13.162641 -1.2002125 -2.0934062
-24.178116 -2.1918762 -2.1239853
-29.165503 -2.6286144 6.7606788
-26.861441 -2.4162226 -0.47076121
-25.429085 -2.2829065 6.8411055
-7.7088375 -0.68257165 -2.0736582
-33.099953 -2.9249816 0.58001328
-8.9800177 -0.79196817 -2.0812473
-10.734803 -0.94483614 -2.0947013
-13.188396 -1.1561562 -2.0968478
-11.390795 -0.99456388 -1.403935
-24.322577 -2.1193986 -2.136013
-27.618147 -2.396852 -1.4528463
-29.248278 -2.5331738 6.7777753
-26.514732 -2.2871058 7.1309829
-7.730423 -0.65729517 -2.0788348
-31.165247 -2.6444111 0.54594618
-8.9477758 -0.75765526 -2.073149
-10.736079 -0.90719587 -2.0943196
-13.235657 -1.1137537 -2.1037309
-11.504975 -0.96407896 -1.4175844
-24.290117 -2.031157 -2.1325266
-29.167608 -2.4236391 6.7570801
-29.318048 -2.425843 7.8825932
-7.7288194 -0.62999284 -2.0777996
-31.170303 -2.5352905 0.54587638
-8.9542494 -0.72673416 -2.0740488
-10.731354 -0.86908025 -2.0927932
-13.231587 -1.0669135 -2.1024795
-11.658653 -0.93598318 -1.4361085
-24.305004 -1.9469979 -2.133224
-29.35461 -2.3360391 6.798471
-25.476631 -2.0184748 6.8478346
-7.7367492 -0.60346264 -2.0793524
-30.923773 -2.4066021 0.54140854
-8.9722748 -0.69668025 -2.0776479
-10.71279 -0.82994968 -2.0885954
-30.867662 -2.385977 2.708626
-13.187961 -1.0170742 -2.0949705
-11.938947 -0.91655654 -1.4702318
-24.407007 -1.8694487 -2.1415908
-29.712345 -2.2601628 6.8794532
-25.627657 -1.9449437 6.8866577
-7.7368817 -0.57630897 -2.0788348
-30.931581 -2.3040481 0.54140854
-9.0134029 -0.66981125 -2.0866458
-10.711706 -0.79226011 -2.0878322
-13.136101 -0.96926522 -2.0862103
-12.159694 -0.89295232 -1.4970431
-24.445177 -1.786564 -2.1443799
-29.626387 -2.1548343 6.8578582
-29.341475 -2.123816 7.8825932
-7.7445316 -0.55106044 -2.0803876
-33.281193 -2.3622701 0.58238685
-9.0040245 -0.63751858 -2.0839467
-10.739734 -0.75853217 -2.0927932
-13.133494 -0.92299002 -2.0852716
-12.293434 -0.8596406 -1.5131298
-24.459217 -1.7017819 -2.1450772
-25.513412 -1.7572268 6.8524933
-7.7368622 -0.52201945 -2.0777996
-33.388988 -2.2528126 0.58413202
-8.9867506 -0.60477817 -2.0794475
-10.740483 -0.71903014 -2.0924115
-13.115107 -0.87340301 -2.08183
-12.431049 -0.82566899 -1.5297042
-24.494829 -1.6183566 -2.147692
-29.501038 -1.9336007 6.8254647
-25.490473 -1.6662666 6.8447285
-7.7270703 -0.49427128 -2.0746937
-35.839687 -2.286248 0.62685555
-9.0044651 -0.57282346 -2.0830467
-10.727253 -0.68054235 -2.0893586
-13.212707 -0.83358723 -2.0968478
-12.532915 -0.78850639 -1.5418911
-24.518227 -1.5339628 -2.1492605
-29.578142 -1.8401682 -1.5531219
-29.4645 -1.8330981 6.815567
-29.616543 -1.8373684 -0.5179525
-25.330313 -1.5670252 6.8002119
-7.703598 -0.46712428 -2.0679643
-34.872997 -2.1084909 0.60982198
-9.0121517 -0.54331195 -2.0843966
-10.705934 -0.64355165 -2.0847793
-13.237088 -0.79106349 -2.1002893
-12.63454 -0.75284469 -1.554078
-24.53511 -1.453355 -2.1503065
-30.110449 -1.7730746 -1.5807555
-25.750866 -1.5163577 5.9553542
-7.6993184 -0.44124374 -2.0664113
-33.877583 -1.9355741 0.59229976
-9.0197401 -0.51375782 -2.085746
-10.717811 -0.60860211 -2.0866873
-13.251472 -0.74783385 -2.1021667
-12.720334 -0.71340555 -1.564315
-24.52014 -1.366599 -2.1485631
-28.806953 -1.5954262 6.6608005
-29.022724 -1.5972222 7.788383
-7.6893101 -0.41240048 -2.0633056
-33.776302 -1.8115233 0.59041494
-9.0175867 -0.48206159 -2.0848465
-10.739573 -0.57035619 -2.0905035
-13.238343 -0.69842696 -2.0996637
-12.845652 -0.67546135 -1.5794269
-24.528742 -1.2812066 -2.148912
-28.6647 -1.4821912 6.6266084
-29.035841 -1.4962943 7.7904539
-7.6964903 -0.38584906 -2.0648584
-33.730793 -1.6851201 0.58950734
-8.9842596 -0.44726303 -2.0767481
-10.723851 -0.53198892 -2.087069
-13.244646 -0.65240628 -2.1002893
-12.92735 -0.63225377 -1.5891764
-24.481323 -1.1930553 -2.1443799
-28.482836 -1.3731145 6.5834174
-29.156906 -1.3954098 7.8215117
-7.6977906 -0.3589789 -2.0648584
-33.888279 -1.5744194 0.59216011
-8.9877119 -0.41599134 -2.077198
-10.698187 -0.4932861 -2.0817263
-13.236976 -0.60572112 -2.0987251
-13.024665 -0.59144706 -1.6008759
-24.405725 -1.1039902 -2.1374075
-30.084383 -1.3503417 -1.5782433
-28.351179 -1.2675819 6.5519242
-32.033375 -1.4210173 8.5917578
-7.7086473 -0.33252248 -2.0674467
-34.520893 -1.4830759 0.60312027
-8.989109 -0.38461345 -2.077198
-10.674344 -0.45485264 -2.0767653
-13.205459 -0.55809033 -2.0934062
-13.217052 -0.55396187 -1.6242748
-24.158607 -1.0083222 -2.1154442
-30.00909 -1.2420219 -1.5740564
-28.803265 -1.1870726 6.6554022
-32.53228 -1.3293905 8.7242727
-7.7020392 -0.30530778 -2.065376
-34.841568 -1.3750248 0.60863519
-8.9826088 -0.352927 -2.0753984
-10.652326 -0.41667086 -2.0721858
-13.189561 -0.51130217 -2.0905905
-14.928794 -0.57350612 -1.8343775
-23.946959 -0.91576344 -2.0966187
-32.116844 -1.2169642 -1.6843807
-28.234707 -1.0649287 6.5231304
-32.204407 -1.2090331 -0.56252599
-7.6972666 -0.27821124 -2.0638232
-34.842159 -1.2532437 0.60856545
-9.0032597 -0.32226864 -2.0798974
-10.689032 -0.38074243 -2.0790551
-13.145861 -0.46366024 -2.0833945
-14.972366 -0.52284586 -1.839496
-23.882307 -0.82982004 -2.0906918
-32.188766 -1.1071817 -1.6879395
-28.374584 -0.97103614 6.5546236
-31.822338 -1.0834575 8.5317116
-7.7117062 -0.25178212 -2.0674467
-33.710899 -1.1006386 0.58873945
-8.9731159 -0.29139864 -2.0726991
-10.69422 -0.3435542 -2.0798182
-13.090069 -0.41823456 -2.0743213
-14.970049 -0.47306681 -1.8390086
-23.829298 -0.74470699 -2.0858111
-32.387897 -1.0065124 -1.6981972
-27.742664 -0.85730702 6.4079556
-7.7202229 -0.22643405 -2.0695171
-8.9896612 -0.26052621 -2.0762982
-10.699225 -0.30820164 -2.0805814
-13.126991 -0.37355018 -2.079953
-14.945814 -0.42008686 -1.83584
-29.771145 -0.83158743 4.7171254
-23.751974 -0.66345596 -2.0788388
-32.870373 -0.90666717 -1.7233186
-28.832476 -0.79026061 6.6590009
-31.211163 -0.84454775 8.3660669
-7.7132416 -0.19928612 -2.0674467
-8.9203835 -0.22735712 -2.0601017
-10.704162 -0.2709516 -2.0813446
-13.126241 -0.3276765 -2.0796399
-17.026936 -0.41910458 -2.0912783
-14.962362 -0.3656739 -1.3094279
-32.977165 -0.79443085 -1.7287614
-27.892138 -0.66706026 6.4412484
-31.306625 -0.73778653 8.390914
-7.7061653 -0.17218599 -2.065376
-8.9055367 -0.19587684 -2.0565026
-10.712893 -0.23375644 -2.082871
-13.056208 -0.28033161 -2.0683768
-16.968756 -0.35840884 -2.0839658
-29.23904 -0.61246592 4.6320248
-23.668381 -0.49577814 -2.0711691
-28.902685 -0.6003809 5.6193252
-33.259293 -0.68507147 -1.7434155
-27.820259 -0.56817496 6.4241519
-34.277752 -0.69408023 -0.59844303
-29.841097 -0.59903365 7.997509
-7.7183084 -0.14550367 -2.0684819
-8.9022703 -0.16471505 -2.0556028
-10.721496 -0.19650365 -2.0843976
-13.094632 -0.23542641 -2.0743213
-16.944099 -0.29872334 -2.0807974
-23.586298 -0.41170159 -2.0638478
-27.982016 -0.48354435 5.4399648
-33.489136 -0.57286406 -1.7553481
-28.126034 -0.47621298 6.4943366
-34.327953 -0.57522744 -0.59928071
-29.267393 -0.48531228 7.8432527
-7.7129741 -0.11847347 -2.0669291
-8.896945 -0.13355133 -2.0542529
-10.741746 -0.15937094 -2.0882137
-13.095374 -0.18971582 -2.0743213
-16.887478 -0.23875724 -2.0737288
-23.559702 -0.32897744 -2.0614076
-27.956049 -0.38548625 5.4346223
-33.466969 -0.45563453 -1.7540921
-30.42683 -0.40893358 7.0252213
-29.218685 -0.38249579 7.8297939
-7.726862 -0.091709718 -2.0705523
-8.897357 -0.10249626 -2.0542529
-10.746163 -0.12191854 -2.0889771
-13.066328 -0.14368021 -2.0696282
-16.802855 -0.17889825 -2.0632482
-23.552738 -0.24665263 -2.0607104
-28.711073 -0.29566815 5.5811634
-33.735973 -0.34151843 -1.768118
-28.042934 -0.27899164 6.4745412
-29.115528 -0.27949902 7.8018417
-7.7290678 -0.064753354 -2.0710702
-8.9015589 -0.071469113 -2.0551529
-10.719039 -0.084187955 -2.0836341
-13.056873 -0.097994857 -2.0680637
-16.811317 -0.12030061 -2.0642233
-29.703016 -0.20737569 4.7046108
-23.637133 -0.16502587 -2.0680313
-28.963221 -0.19714881 5.6300101
-33.780899 -0.22404635 -1.770421
-28.004761 -0.18085605 6.4655428
-29.568371 -0.18062577 7.9229689
-7.7195878 -0.037726052 -2.0684819
-8.9075994 -0.040422712 -2.0565026
-10.711414 -0.04673646 -2.0821078
-13.094667 -0.052567571 -2.0740085
-16.797741 -0.061570037 -2.0625172
-29.26108 -0.10213911 4.6345282
-15.548513 -0.054273844 -1.3603268
-34.061089 -0.10701323 -1.7850749
-28.574253 -0.084780969 6.5969148
-28.471531 -0.074545063 7.6289506
-7.7196727 -0.010779219 -2.0684819
-8.9135332 -0.0093328906 -2.0578523
-10.705622 -0.0093434723 -2.0809629
-13.06119 -0.0068372698 -2.0686896
-16.776016 -0.0029303236 -2.0598357
-28.992607 2.5346142e-06 4.5919781
-25.263498 2.2086051e-06 -2.2102695
-27.911589 0.0048669833 5.4254632
-34.189075 0.011928358 -1.7917739
-30.484138 0.015963161 7.0378184
-29.503227 0.025747456 7.9053688
-7.723526 0.016175838 -2.0695171
-8.8959723 0.021736471 -2.053803
-10.6997 0.028011059 -2.0798182
-13.090764 0.038839996 -2.0733826
-16.795774 0.055699211 -2.0622733
-28.794891 0.10050999 4.5606909
-25.20756 0.087988235 -2.2053888
-36.253979 0.13920939 -1.9000047
-27.564709 0.11064816 6.3638654
-28.139084 0.12278246 7.539917
-7.7330818 0.043188196 -2.0721054
-8.9016895 0.052824024 -2.0551529
-10.711316 0.065432064 -2.0821078
-13.06487 0.084369592 -2.0693154
-16.789522 0.114283 -2.061542
-29.584532 0.20137614 4.6858382
-15.962635 0.11144051 -1.3965836
-36.281231 0.26595587 -1.9014701
-27.583641 0.20701328 6.3683643
-28.347155 0.21769768 7.5958219
-7.7348156 0.070199169 -2.072623
-8.9092588 0.082415238 -2.0569522
-10.67176 0.10244454 -2.0744755
-13.084271 0.12788737 -2.0724442
-16.733471 0.16939643 -2.0547173
-29.239954 0.30110571 4.6313992
-16.392483 0.17166685 -1.434235
-28.907335 0.30272603 5.6193252
-36.260178 0.38605607 -1.9004234
-30.178373 0.32657149 6.9676337
-28.377129 0.31698567 7.6041036
-7.7306771 0.09580078 -2.0715878
-8.9186602 0.11363824 -2.059202
-10.681177 0.13795744 -2.0763836
-13.107448 0.17387399 -2.0761983
-16.750641 0.22804977 -2.056911
-29.080708 0.40099233 4.60637
-16.577097 0.2285807 -1.4504458
-27.751823 0.38751265 5.3949342
-36.234646 0.51228762 -1.8991674
-30.099108 0.43079698 6.9496379
-29.360991 0.43048304 7.8680992
-7.7245007 0.12269346 -2.0700347
-8.9143124 0.14470434 -2.0583022
-10.617814 0.17421305 -2.0641718
-13.059359 0.21882941 -2.0686896
-16.716002 0.28594232 -2.0527673
-28.873722 0.49894482 4.5738316
-16.612057 0.28706032 -1.4535835
-29.226444 0.51014912 5.6819105
-36.284557 0.63968331 -1.9018887
-28.768591 0.51219505 6.6428046
-29.320677 0.53226894 7.8577461
-7.7278891 0.14973317 -2.0710702
-8.9040108 0.17562832 -2.0560527
-10.571995 0.21037698 -2.0553946
-13.046665 0.26417416 -2.0668125
-29.252176 0.59742421 3.5924647
-16.704979 0.34408242 -2.0515487
-23.066895 0.47915548 -2.018527
-36.242172 0.76548511 -1.8997954
-7.7369747 0.17692682 -2.0736582
-8.9091883 0.20684613 -2.0574024
-10.56531 0.2471389 -2.0542498
-13.097009 0.31093639 -2.0749471
-29.404705 0.70322549 3.6114764
-16.70566 0.40243983 -2.0517924
-23.057114 0.55947834 -2.0178297
-27.761944 0.67848194 5.3979869
-36.303173 0.89356285 -1.903145
-28.320137 0.70202148 6.5402269
-89.668411 2.2384074 -1.5656555
-27.222784 0.6843273 7.296627
-7.7382417 0.20398395 -2.0741758
-8.9103603 0.23799388 -2.0578523
-10.566344 0.28407028 -2.0546315
-13.117564 0.35724038 -2.0783885
-29.362387 0.80477589 3.6066017
-16.650578 0.45927766 -2.0452116
-29.005138 0.80511612 4.5957322
-22.889715 0.63536602 -2.0033619
-32.469379 0.90694648 6.31387
-36.279865 1.0197277 -1.9020982
-28.987612 0.8198185 6.694993
-29.413912 0.84215707 7.8846636
-7.718173 0.23041795 -2.0689995
-8.9153185 0.26927215 -2.059202
-10.580987 0.32142913 -2.0576842
-13.120187 0.40314877 -2.0790143
-16.672684 0.51813269 -2.0481365
-22.83359 0.71358246 -1.9986554
-29.173302 0.91681081 5.6735148
-36.32 1.1477419 -1.9044009
-28.587234 0.90837425 6.6032133
-29.854891 0.959086 8.0037203
-7.7269754 0.2576783 -2.0715878
-8.9143248 0.30039102 -2.059202
-10.575876 0.3582291 -2.056921
-13.110803 0.44867444 -2.0777628
-16.726322 0.57824892 -2.0549612
-22.76326 0.79093051 -1.9927288
-36.307789 1.2742362 -1.9039823
-26.83186 0.95574051 7.1941347
-7.7298899 0.28479323 -2.072623
-8.911274 0.33143169 -2.0587521
-10.586333 0.39558381 -2.0592108
-13.099287 0.49406192 -2.0761983
-16.724203 0.63663161 -2.0549612
-22.736469 0.86947131 -1.9906371
-29.150497 1.1198467 5.6704621
-36.283161 1.400197 -1.9029355
-27.929802 1.0827224 6.4529457
-26.812916 1.048792 7.1899934
-7.728848 0.31177405 -2.072623
-8.9159031 0.36277583 -2.0601017
-10.592733 0.43285549 -2.0607371
-13.091561 0.53954339 -2.0752599
-16.692125 0.693766 -2.0513051
-22.775101 0.9505766 -1.9942977
-29.166023 1.222417 5.6742783
-36.270073 1.5264969 -1.9025168
-27.84408 1.1767473 6.4340501
-7.7335029 0.33900306 -2.0741758
-8.9165306 0.39398226 -2.0605516
-10.575468 0.46913013 -2.0576842
-13.059997 0.58391505 -2.0705669
-16.671755 0.75122839 -2.0491114
-28.777494 1.3017449 4.5625682
-22.825382 1.0325022 -1.999004
-29.138042 1.323143 5.6696987
-36.236591 1.6518302 -1.9010514
-27.045546 1.2375901 6.2504902
-7.720695 0.36544815 -2.0710702
-8.9170475 0.42519528 -2.0610015
-10.581611 0.50641823 -2.0592108
-13.069718 0.63006735 -2.0724442
-16.678944 0.809901 -2.0503302
-28.157427 1.3672764 4.4649529
-22.889301 1.115464 -2.0049307
-33.380577 1.6325828 6.4962835
-36.226616 1.7781146 -1.9008422
-27.009918 1.3304559 6.2432919
-7.7251596 0.3926906 -2.072623
-8.9175348 0.45486253 -2.0614514
-10.583699 0.54355609 -2.059974
-13.047829 0.67238855 -2.0693154
-16.739605 0.86849785 -2.0581295
-28.428659 1.4799269 4.5087547
-22.99271 1.2009683 -2.0143435
-28.500978 1.4886793 5.5475812
-36.21653 1.898029 -1.9006327
-28.7675 1.5227453 7.7190194
-7.7296019 0.41861969 -2.0741758
-8.9100542 0.48566976 -2.0601017
-10.593599 0.57929093 -2.0622637
-13.059209 0.71869004 -2.0715053
-16.774132 0.92900693 -2.0627606
-28.462767 1.581345 4.5150123
-23.024406 1.2791985 -2.0174811
-28.472084 1.5868537 5.5430017
-36.201706 2.0239918 -1.9002141
-28.947172 1.6336035 7.7687125
-7.7319512 0.44582117 -2.0752113
-8.9199781 0.51744616 -2.0628011
-10.587594 0.61603826 -2.0615005
-12.90872 0.75561386 -2.0480404
-16.743042 0.98592067 -2.0593483
-23.089417 1.363673 -2.023582
-36.138596 2.1470227 -1.8972833
-28.895012 1.731858 7.7562895
-7.7284203 0.47269028 -2.0746937
-8.9181175 0.54857767 -2.0628011
-10.567742 0.6519044 -2.0580659
-12.894175 0.79993862 -2.0461631
-16.739498 1.0443592 -2.0593483
-23.09247 1.4447657 -2.0242794
-28.558283 1.7917274 5.5620828
-36.075069 2.2696464 -1.8943526
-28.719128 1.8219472 7.7107372
-7.7170835 0.49904147 -2.0721054
-8.9200373 0.57995963 -2.0637012
-10.583035 0.68993855 -2.0615005
-12.887362 0.84468168 -2.0455372
-16.745655 1.1034337 -2.0605671
-23.063429 1.5237836 -2.0221875
-36.023083 2.3926556 -1.8920496
-7.7210765 0.52636862 -2.0736582
-8.9179583 0.6110931 -2.0637012
-10.596231 0.72795027 -2.0645535
-12.876451 0.88911796 -2.0442858
-16.711996 1.1598231 -2.056911
-23.032129 1.6024834 -2.0199213
-36.146008 2.5275724 -1.898958
-24.445972 1.7180018 -0.42775846
-28.597795 2.0147972 7.6817498
-7.7153387 0.55304098 -2.072623
-8.9079962 0.64165694 -2.0619013
-10.589709 0.76465106 -2.0637903
-12.87918 0.93448895 -2.0452244
-16.680128 1.2161314 -2.0534985
-28.466295 2.0804436 4.5206437
-23.103893 1.6885353 -2.0267196
-36.140949 2.6540241 -1.8991674
-24.423874 1.8021473 -0.42747924
-28.486549 2.106916 7.6537967
-7.7229934 0.58069551 -2.0752113
-8.9018164 0.67245442 -2.0610015
-10.571314 0.80042833 -2.0607371
-12.87978 0.97973692 -2.0458503
-16.681719 1.2748028 -2.0542297
-23.161428 1.7740368 -2.0322976
-36.027912 2.7721965 -1.8937244
-24.277872 1.8766046 -0.42503592
-28.525248 2.2099216 7.6662202
-7.7189937 0.6074971 -2.0746937
-8.9091282 0.70429158 -2.0632513
-25.194365 1.9961156 1.3245184
-10.568456 0.83732456 -2.0607371
-12.880219 1.0250065 -2.0464759
-16.712788 1.3358686 -2.0586171
-23.168995 1.8559943 -2.0335178
-36.105618 2.9049809 -1.8983301
-24.259214 1.960373 -0.42482647
-28.852407 2.3366077 7.7562895
-7.7112699 0.63127136 -2.0731406
-8.9029875 0.73195797 -2.0623512
-10.5736 0.87116492 -2.0622637
-12.880873 1.0657892 -2.0471017
-16.736202 1.3906727 -2.0620294
-28.664257 2.3868494 4.555685
-23.166685 1.9331421 -2.0338664
-36.163979 3.0240641 -1.9018887
-24.225039 2.0342345 -0.4243378
-28.925776 2.4340501 7.7780304
-7.7069798 0.65936583 -2.072623
-24.608343 2.1053514 0.43110937
-8.9139681 0.7641961 -2.0655005
-10.582071 0.91092378 -2.0645535
-24.596365 2.121624 2.1598935
-12.874912 1.1128261 -2.0467887
-16.782665 1.4535344 -2.0683665
-23.187584 2.0164196 -2.0363066
-24.522921 2.141161 -1.2900815
-24.213806 2.1184351 -0.42426801
-28.859365 2.5299377 7.7625008
-7.7123289 0.68695003 -2.0746937
-24.522781 2.1885931 0.42974806
-8.9014034 0.7959947 -2.0632513
-10.582738 0.94820726 -2.0653167
-24.533247 2.2024808 2.1550128
-12.874884 1.1581123 -2.0474145
-16.719893 1.5098592 -2.0612984
-23.176435 2.0969832 -2.0359581
-24.561045 2.2309108 -1.2924889
-24.202282 2.2025766 -0.42419821
-7.7137308 0.71422148 -2.0757289
-8.9006548 0.82568872 -2.0637012
-10.579364 0.98514235 -2.0653167
-12.888675 1.2024525 -2.0502305
-16.671312 1.5612247 -2.0559361
-23.147156 2.1758208 -2.0340407
-27.504389 2.5902414 -1.4478221
-24.901186 2.3538523 -0.43658939
-7.7093968 0.7396149 -2.0752113
-24.565041 2.3610122 0.43076029
-8.8957796 0.85656631 -2.0632513
-24.556154 2.3688147 1.2929076
-10.566268 1.0192773 -2.0634086
-12.886365 1.2476258 -2.0505433
-16.651928 1.6180655 -2.0542297
-23.141403 2.2568004 -2.034215
-27.473314 2.6840985 -1.4466707
-24.894808 2.4409552 -0.43662432
-7.6989446 0.76710016 -2.0731406
-8.8927345 0.88761342 -2.0632513
-24.54376 2.4541147 1.2926983
-10.562461 1.0579979 -2.0634086
-24.576237 2.466032 2.1609395
-12.881705 1.2948455 -2.0505433
-24.679363 2.4807246 3.0455153
-16.579025 1.66942 -2.0459425
-23.065987 2.33075 -2.0282884
-7.6942983 0.79377186 -2.072623
-8.8913603 0.92039961 -2.0637012
-10.576279 1.0966841 -2.0668433
-12.873178 1.3393977 -2.0499175
-24.527948 2.5563526 3.0279658
-16.568848 1.7297581 -2.0454552
-24.572495 2.5653245 3.9130523
-23.016098 2.4069057 -2.0246279
-7.6857185 0.8200087 -2.0710702
-24.483295 2.6121845 0.42978296
-8.8766336 0.94863719 -2.0610015
-10.568481 1.1331745 -2.0660799
-12.87063 1.3822877 -2.0502305
-16.559072 1.7842683 -2.0449677
-24.518217 2.646208 3.9058561
-23.096693 2.4968691 -2.0324719
-7.6963987 0.8469705 -2.0746937
-8.8848886 0.98090208 -2.0637012
-24.475498 2.7021236 1.2905002
-10.564666 1.1682152 -2.0660799
-12.881432 1.428952 -2.0527334
-16.552744 1.8420597 -2.0449677
-23.032843 2.5672679 -2.0275912
-36.037655 4.0295262 -1.9004234
-7.6933956 0.87383097 -2.0746937
-24.47687 2.7801309 0.42999238
-8.8873959 1.011019 -2.0650506
-24.459967 2.7868593 1.290186
-10.556623 1.2046407 -2.0653167
-24.494373 2.7994404 2.1569302
-12.892324 1.4734524 -2.0552363
-24.510675 2.8056374 3.0291846
-16.538658 1.896037 -2.0439928
-23.186047 2.6663115 -2.0418847
-36.047909 4.1517534 -1.9016795
-7.6789422 0.89799231 -2.0715878
-8.8838129 1.0420359 -2.0650506
-24.469925 2.8745544 1.2912328
-10.546505 1.240795 -2.0641718
-24.471106 2.8790226 2.15571
-12.879255 1.5175219 -2.0539849
-16.543766 1.9551543 -2.0454552
-24.489666 2.8985405 3.9058561
-23.235954 2.754266 -2.0471141
-36.024517 4.2829051 -1.9012609
-7.6775174 0.92636073 -2.0721054
-8.8818684 1.074824 -2.0655005
-10.547732 1.2801512 -2.0653167
-12.867723 1.5640014 -2.0530462
-24.48209 2.9800003 3.0282097
-16.568016 2.0196207 -2.049355
-24.484764 2.9889989 3.9067948
-23.24548 2.8418298 -2.0488572
-36.040291 4.4188023 -1.9029355
-7.6702366 0.95401913 -2.0710702
-8.8701344 1.1064057 -2.0637012
-10.558784 1.318909 -2.0683696
-12.877585 1.6131181 -2.0555491
-16.548685 2.0788436 -2.0478926
-24.472221 3.0741973 3.906482
-23.231464 2.9224577 -2.0485086
-36.00087 4.5415893 -1.9016795
-7.680274 0.98250186 -2.0746937
-8.8528872 1.1340814 -2.0605516
-10.554116 1.3557558 -2.0683696
-12.870206 1.6555613 -2.0552363
-16.533827 2.1326945 -2.0469177
-23.236929 3.005578 -2.0499029
-36.163876 4.684021 -1.9111
-50.6409 6.5771008 -0.89136422
-7.6750569 1.0077139 -2.0741758
-8.8643303 1.1670119 -2.0641508
-10.541778 1.389721 -2.0668433
-12.872182 1.7015125 -2.0564878
-16.538086 2.1919646 -2.0483801
-23.195232 3.0784249 -2.0471141
-36.365082 4.8392177 -1.9226137
-7.6657495 1.0337243 -2.072623
-8.8623428 1.1966616 -2.0646007
-10.531025 1.4257205 -2.0656981
-12.868425 1.7444545 -2.0568006
-16.530727 2.2467916 -2.0483801
-23.148813 3.1545253 -2.0439765
-36.475487 4.9770565 -1.9293129
-7.6622796 1.0591395 -2.072623
-8.8561821 1.2273203 -2.0641508
-10.530129 1.4611748 -2.0664616
-12.860302 1.7890881 -2.0564878
-16.538511 2.3066788 -2.0503302
-22.980364 3.2092335 -2.0300317
-36.521183 5.1132207 -1.9326624
-92.911224 13.024753 -1.6376292
-7.6642733 1.0866933 -2.0741758
-8.836628 1.254491 -2.0605516
-10.532739 1.4990296 -2.0679879
-12.848432 1.8308891 -2.0555491
-16.538633 2.3626297 -2.0513051
-22.961132 3.2882955 -2.0293343
-36.484261 5.2314587 -1.9316156
-7.6663637 1.1129359 -2.0757289
-8.8437653 1.2870129 -2.0632513
-10.529652 1.5342327 -2.0683696
-12.851735 1.8771552 -2.0571134
-16.530283 2.4203503 -2.0513051
-22.902792 3.3574846 -2.0251508
-36.434162 5.3541451 -1.9299409
-7.6547885 1.1385511 -2.0736582
-8.8411465 1.3181632 -2.0637012
-10.514525 1.5695274 -2.0664616
-12.84315 1.9217126 -2.0568006
-16.506031 2.475678 -2.049355
-22.914576 3.4409606 -2.0272424
-36.375748 5.475338 -1.9278475
-7.6450386 1.164392 -2.0721054
-8.8326387 1.3484263 -2.0628011
-10.499278 1.60474 -2.0645535
-12.846128 1.968025 -2.0583651
-16.497288 2.5332801 -2.049355
-22.874855 3.5166888 -2.0248022
-36.387997 5.6071472 -1.9295222
-7.6371098 1.1904781 -2.0710702
-8.8336544 1.3801526 -2.0641508
-10.507191 1.6435035 -2.0672247
-50.786713 7.9529753 4.4974103
-12.829421 2.0113251 -2.0568006
-16.500113 2.5927002 -2.0508175
-22.878185 3.5989931 -2.0261967
-7.6443539 1.2189529 -2.0741758
-8.8191605 1.4094439 -2.0619013
-10.513021 1.6820292 -2.0695145
-12.820372 2.0557864 -2.0564878
-16.506639 2.6527967 -2.0527673
-22.893023 3.6832623 -2.0286369
-36.359795 5.8629456 -1.9301503
-7.6476793 1.2468729 -2.0762465
-8.8218803 1.4414773 -2.0637012
-10.497398 1.717132 -2.0676064
-12.828713 2.1030824 -2.0589907
-16.477692 2.7071857 -2.0503302
-22.903618 3.7670321 -2.0307288
-36.311516 5.985291 -1.9286848
-7.6413746 1.2732434 -2.0757289
-8.8148727 1.4719399 -2.0632513
-10.483594 1.7524698 -2.0660799
-12.8135 2.1465418 -2.0577393
-16.483801 2.7673171 -2.0522799
-22.890329 3.8469532 -2.0307288
-36.325855 6.1179771 -1.9305689
-7.6273613 1.2982866 -2.0731406
-8.8135233 1.5033562 -2.0641508
-10.483219 1.790048 -2.0672247
-12.803983 2.1909235 -2.0574262
-16.466215 2.823494 -2.0513051
-22.861052 3.9241357 -2.0293343
-36.367268 6.255568 -1.9339186
-7.6227827 1.324905 -2.0731406
-8.8139811 1.5351131 -2.0655005
-10.484643 1.8279768 -2.0687513
-12.786528 2.2339048 -2.0558619
-16.464081 2.882324 -2.0522799
-22.862215 4.010654 -2.0307288
-36.404224 6.3928399 -1.9370586
-7.6216798 1.3535107 -2.0741758
-8.8008938 1.5645084 -2.0637012
-10.481738 1.8670813 -2.0695145
-12.787977 2.2824905 -2.0574262
-16.461739 2.9411743 -2.0532548
-22.848076 4.0904341 -2.0307288
-36.372688 6.5248151 -1.9366399
-7.6207113 1.3807945 -2.0752113
-8.8008528 1.5977991 -2.0650506
-10.482883 1.9050624 -2.0710409
-12.776045 2.3264077 -2.0568006
-16.443035 3.0000646 -2.0522799
-22.829739 4.1694489 -2.0303802
-36.416485 6.6639643 -1.9401988
-7.617744 1.4077405 -2.0757289
-8.7952223 1.6285083 -2.0650506
-10.468448 1.9402121 -2.0695145
-12.771731 2.3717089 -2.0574262
-16.412947 3.0538127 -2.0498426
-22.815046 4.2491145 -2.0303802
-36.400856 6.7925067 -1.9406174
-7.6089873 1.4336077 -2.0746937
-8.8009729 1.6613708 -2.06775
-10.473186 1.9789295 -2.0718043
-12.780843 2.4195864 -2.0602422
-16.42169 3.1147816 -2.0522799
-22.79616 4.3279858 -2.0300317
-36.412239 6.9262385 -1.9425015
-7.6020389 1.4597932 -2.0741758
-8.7877607 1.6890734 -2.0659504
-10.462359 2.0147309 -2.0710409
-12.757231 2.4589622 -2.0577393
-16.403475 3.1677158 -2.0513051
-22.761353 4.4037485 -2.0282884
-36.463585 7.061379 -1.9464791
-7.5990529 1.4853655 -2.0746937
-8.7779856 1.7189916 -2.0650506
-10.465254 2.0513029 -2.0729489
-12.756324 2.5050044 -2.0589907
-16.404001 3.2272546 -2.0527673
-22.773991 4.4845939 -2.0307288
-36.470066 7.1948047 -1.9481539
-7.6032939 1.5137682 -2.0772817
-8.7719326 1.7496201 -2.0650506
-10.459955 2.0882056 -2.0733306
-12.745565 2.5491269 -2.0586779
-16.380959 3.2821605 -2.0513051
-22.742569 4.5609236 -2.0293343
-36.444729 7.3220744 -1.9481539
-7.5998578 1.5406836 -2.0777996
-8.7753201 1.7821687 -2.0673003
-10.43721 2.1215765 -2.0702777
-12.74046 2.5943904 -2.0593035
-16.369402 3.3393171 -2.0513051
-22.730417 4.6410804 -2.0296829
-36.422859 7.4500375 -1.9483631
-7.5811896 1.5644679 -2.0741758
-8.7709551 1.8131843 -2.06775
-10.433586 2.1587923 -2.0710409
-12.735194 2.6396492 -2.0599291
-16.349873 3.3948231 -2.0503302
-22.694571 4.7163424 -2.0279398
-36.392727 7.5763197 -1.9481539
-7.5794635 1.5917178 -2.0752113
-8.7645731 1.8437878 -2.06775
-10.427909 2.1956041 -2.0714226
-12.718173 2.6824539 -2.0586779
-16.337921 3.4518745 -2.0503302
-22.681866 4.7963629 -2.0282884
-36.346516 7.6991696 -1.9471072
-7.5795283 1.6193764 -2.0767641
-8.7561769 1.8739649 -2.0673003
-10.42594 2.2332246 -2.0725675
-12.712594 2.7276645 -2.0593035
-16.329657 3.5097144 -2.0508175
-22.684465 4.8796935 -2.0300317
-36.393616 7.8419752 -1.9510847
-7.585156 1.6482838 -2.07987
-8.7400608 1.9024462 -2.0650506
-10.425755 2.2712739 -2.0740941
-12.718434 2.7753925 -2.0618064
-16.317305 3.5666986 -2.0508175
-22.632257 4.9511833 -2.0268939
-36.436253 7.9843645 -1.9548528
-7.5699248 1.672667 -2.0772817
-8.745122 1.933944 -2.06775
-10.410095 2.3059545 -2.0725675
-12.705304 2.8166986 -2.0611808
-16.29376 3.6182036 -2.049355
-22.642065 5.0362115 -2.0293343
-36.409576 8.1051493 -1.9548528
-7.5549126 1.6956457 -2.0746937
-8.7421198 1.9653113 -2.0686498
-10.402391 2.3404632 -2.0725675
-12.712738 2.8649371 -2.0639966
-16.284904 3.6759362 -2.0498426
-22.643782 5.1196051 -2.0310774
