# .PCD v0.7 - Point Cloud Data file format
VERSION 0.7
FIELDS x y z
SIZE 4 4 4
TYPE F F F
COUNT 1 1 1
WIDTH 1499
HEIGHT 1
VIEWPOINT 0 0 0 1 0 0 0
POINTS 1499
DATA ascii
-3.8424923 7.0711031 1.2746283
-5.9560614 10.965137 -1.0917128
-3.8336153 7.057703 1.5611992
-5.9524989 10.963138 -0.65378082
-3.8167722 7.0325456 1.8472981
-5.9530678 10.973319 -0.21791075
-3.7865219 7.0030236 -2.1331868
-5.9415293 10.99321 0.21812017
-4.2626939 7.8902659 -2.0704496
-5.9333043 10.98716 0.65440887
-4.9190087 9.1089096 -2.0122719
-5.8307362 10.806246 -1.9447935
-3.7909906 7.0288701 0.98056084
-5.9130869 10.968026 -1.5299479
-3.7999823 7.0514317 1.2686837
-5.913053 10.972548 -1.0904927
-3.8313031 7.1125236 1.5703582
-5.907568 10.971539 -0.65304816
-3.8208327 7.09902 1.8612449
-5.9043036 10.974663 -0.21752679
-3.7565777 7.0059819 -2.1300809
-5.8927259 10.994498 0.21773623
-4.2342072 7.9033794 -2.0699997
-5.8883133 10.99548 0.65367615
-4.8908882 9.1329489 -2.0137982
-5.7892494 10.819568 -1.943542
-3.7598767 7.029808 0.97885466
-5.8635306 10.967594 -1.527023
-3.7660327 7.0472317 1.2655549
-5.8512363 10.949192 -1.0861349
-3.823101 7.1570258 1.5772274
-5.8664088 10.986809 -0.6527341
-3.8162141 7.1501374 1.871143
-5.8527827 10.970504 -0.21703814
-3.7330046 7.0207591 -2.1305985
-5.8336673 10.976151 0.21696831
-4.2056775 7.9163918 -2.0695498
-5.8330369 10.984215 0.65179205
-4.8589802 9.1499653 -2.0137982
-5.7495975 10.836219 -1.9429164
-3.731596 7.0358739 0.97787964
-5.8159156 10.970455 -1.5245856
-3.738637 7.0550976 1.2646164
-5.8167143 10.97659 -1.086832
-3.8210707 7.2136984 1.5867676
-5.8083987 10.97015 -0.650536
-3.8103771 7.1995845 1.8805909
-5.8060393 10.974957 -0.21672398
-3.7120802 7.0405822 -2.1326692
-5.7906585 10.987601 0.21679381
-4.1771078 7.9293008 -2.0690999
-5.7900033 10.995673 0.65126866
-4.8343267 9.180769 -2.0168512
-5.7117343 10.856225 -1.9429164
-3.6940761 7.024261 0.97446734
-5.7683516 10.973117 -1.5221483
-3.704797 7.0506196 1.2614876
-5.7626061 10.966847 -1.0838689
-3.8068194 7.2478504 1.5913471
-5.7598605 10.970906 -0.64938462
-3.8033316 7.247354 1.889589
-5.7602601 10.980992 -0.21644475
-3.6910594 7.0603452 -2.1347394
-5.7374477 10.979391 0.21623531
-4.1457963 7.936923 -2.0673003
-5.7276192 10.965245 0.6483379
-4.8040695 9.201067 -2.0176144
-5.6728921 10.874342 -1.9426033
-3.6603572 7.0195103 0.97202998
-5.7116594 10.957981 -1.5172734
-3.6841366 7.068121 1.2624264
-5.7114034 10.962156 -1.0814284
-3.7824051 7.2628355 1.5917287
-5.7040043 10.957287 -0.64739585
-3.7177439 7.1447611 1.8594455
-5.7136626 10.980518 -0.21606079
-3.6672821 7.0749006 -2.135257
-5.695488 10.987704 0.21602589
-4.1221409 7.9558191 -2.0686498
-5.6883922 10.983397 0.64823323
-4.7701197 9.2142925 -2.0168512
-5.6816812 10.979835 1.0816028
-5.6395211 10.89836 -1.943542
-3.6315889 7.0210295 0.97056752
-5.6625285 10.952172 -1.5138612
-3.644022 7.051105 1.2571075
-5.6630468 10.962553 -1.079511
-3.7510929 7.2613835 1.5886757
-5.6621413 10.965492 -0.6467678
-3.6993911 7.1674414 1.8621449
-5.6606312 10.971961 -0.21550232
-3.635849 7.0715613 -2.1305985
-5.6479616 10.989732 0.21567684
-4.0970182 7.9753594 -2.0699997
-5.6381555 10.98009 0.64687246
-4.7413287 9.2335548 -2.0176144
-5.637053 10.98266 1.0800339
-5.5996437 10.914463 -1.9429164
-5.6188273 10.961274 -1.5123987
-3.6094797 7.0444431 1.2536659
-5.6130314 10.954676 -1.0768963
-3.7293012 7.2814236 1.5902023
-5.6156359 10.969192 -0.64582574
-3.6494942 7.1317353 1.8495475
-5.6131887 10.973852 -0.21515328
-3.6085119 7.0790458 -2.1290457
-5.5914059 10.973747 0.21497875
-4.0718093 7.9948211 -2.0713491
-5.590734 10.981903 0.64582574
-4.7161956 9.2640429 -2.0206673
-5.5941668 10.993391 1.0791624
-5.554348 10.919855 -1.9404132
-5.5715404 10.963123 -1.5099612
-5.5711513 10.967095 -1.0761991
-3.68786 7.2628884 1.5833331
-5.5682745 10.970916 -0.64477903
-5.5567565 10.95771 -0.21445516
-3.5872662 7.0984945 -2.1311162
-5.5404401 10.96821 0.21449009
-4.0368485 7.99507 -2.06775
-5.5469642 10.990656 0.64519775
-4.686481 9.2857094 -2.0218122
-5.5458846 10.993285 1.077245
-5.5179734 10.942707 -1.9410391
-3.6963553 7.3334351 1.008347
-5.5278754 10.971869 -1.5084988
-3.7005947 7.3482265 1.3030992
-5.5310397 10.982919 -1.0758505
-3.6607215 7.2722092 1.58257
-5.5128856 10.956388 -0.64279026
-5.5175776 10.975252 -0.21442026
-3.5659256 7.1178837 -2.1331868
-5.4940643 10.971389 0.21417592
-4.0124068 8.0160828 -2.0695498
-5.4933758 10.979585 0.64341831
-4.6496487 9.293231 -2.0199041
-5.4994588 10.996539 1.0756762
-5.4806275 10.963667 -1.941352
-3.6654122 7.335638 1.0068846
-5.4718056 10.955579 -1.5036241
-3.6802175 7.3717027 1.3049763
-5.4722018 10.961158 -1.0718412
-3.6283035 7.2708902 1.579517
-5.4719353 10.970203 -0.64247626
-5.4729915 10.981916 -0.21417592
-3.5444925 7.1372089 -2.135257
-5.4521794 10.983335 0.21403632
-3.9843986 8.0300407 -2.0695498
-5.4507189 10.985219 0.64268559
-4.6154337 9.3058891 -2.019141
-5.4513083 10.996032 1.0737587
-5.4396896 10.977423 -1.9404132
-3.6309707 7.3306007 1.0044472
-5.4229631 10.953263 -1.5006992
-3.6312125 7.3342972 1.2962161
-5.4365554 10.985551 -1.0723642
-3.5924532 7.2623944 1.5749376
-5.420332 10.962379 -0.64090616
-5.4170489 10.960567 -0.21340802
-3.5152931 7.1408715 -2.1326692
-5.4095421 10.988798 0.21379198
-3.9594703 8.0467043 -2.0704496
-5.4079347 10.995215 0.64216226
-4.5846562 9.3254662 -2.0199041
-5.3988285 10.986383 1.0709697
-5.4058733 11.000719 -1.941352
-3.6048925 7.339036 1.0039597
-5.3866081 10.971188 -1.5006992
-3.5968845 7.3291969 1.2930875
-5.3692217 10.945432 -1.066612
-3.6306059 7.4011745 1.6024141
-5.3795505 10.971329 -0.64038283
-5.3734803 10.968634 -0.2131986
-3.4932902 7.1559606 -2.1337044
-5.3544917 10.973466 0.21312879
-3.9356272 8.0692348 -2.0726991
-5.3563952 10.987096 0.64059216
-4.5537086 9.3406162 -2.0199041
-5.3588781 10.997062 1.0702726
-5.3622479 11.008868 -1.9394747
-5.3361197 10.964932 -1.4972868
-5.3266287 10.955147 -1.0657405
-5.3324871 10.972078 -0.63933611
-5.321187 10.958541 -0.21264012
-3.468719 7.172195 -2.1347394
-5.3004804 10.959688 0.2125005
-3.9023492 8.0723963 -2.0699997
-5.3041039 10.976954 0.63891739
-4.5220027 9.3625498 -2.021049
-5.3081388 10.995099 1.0681808
-5.3201475 11.024888 -1.9388491
-5.289186 10.965615 -1.4948496
-5.2874875 10.97188 -1.0655661
-5.2757764 10.957356 -0.63734734
-5.2802973 10.971644 -0.21253541
-3.4444988 7.1860003 -2.135257
-5.2602777 10.97904 0.2125005
-3.8744209 8.0901585 -2.0708995
-5.2500405 10.967496 0.63724267
-4.486752 9.372963 -2.0199041
-5.2551093 10.983006 1.0652174
-5.2679968 11.014876 -1.933843
-5.2344117 10.954476 -1.490706
-5.2388487 10.968697 -1.0634743
-5.2331977 10.966692 -0.63682395
-5.2323012 10.974681 -0.21222126
-3.422708 7.2049613 -2.1373277
-5.2167721 10.986499 0.21229108
-3.8478265 8.1071558 -2.071799
-5.2074418 10.976735 0.63671929
-4.4506388 9.3814745 -2.0183775
-5.2082 10.983282 1.0634743
-5.214283 11.00107 -1.9282113
-5.1782975 10.935007 -1.4855874
-5.1920071 10.968907 -1.0617312
-5.1914663 10.977672 -0.63640529
-5.1820035 10.967565 -0.2117326
-3.3950701 7.2116213 -2.1357749
-5.1690264 10.984736 0.21190712
-3.8228233 8.1275911 -2.0735989
-5.1599641 10.970447 0.63535857
-4.4178662 9.3969517 -2.0183775
-5.1571212 10.974347 1.0608597
-5.2044072 11.079994 -1.9388491
-5.1462278 10.961102 -1.4868062
-5.1418438 10.961709 -1.0592909
-5.1378565 10.963175 -0.63452119
-5.1371241 10.966578 -0.21138355
-3.3695006 7.2193389 -2.1347394
-5.121583 10.978257 0.21145335
-3.7958481 8.1402245 -2.0735989
-5.1168008 10.973018 0.63452119
-4.3850193 9.4079924 -2.0176144
-5.1156549 10.980551 1.0598139
-5.1709685 11.104356 -1.9401004
-5.1048217 10.96731 -1.4853437
-5.0920205 10.949797 -1.0565019
-5.0981092 10.972906 -0.63410246
-5.0864081 10.952723 -0.21079017
-3.3471661 7.2339792 -2.1357749
-5.0691986 10.960698 0.21079017
-3.7688351 8.1527672 -2.0735989
-5.0801444 10.994436 0.63473052
-4.3554473 9.4303703 -2.019141
-5.0725279 10.982986 1.0584193
-5.1399145 11.133995 -1.9422905
-5.0590277 10.968839 -1.4831501
-5.0470991 10.953028 -1.0551075
-5.0455794 10.959791 -0.63232309
-5.0489831 10.972226 -0.21082507
-3.3214359 7.2479544 -2.1362925
-5.0298214 10.981024 0.21082507
-3.7373075 8.1629801 -2.0726991
-5.0231943 10.976659 0.63263708
-4.3224845 9.4498415 -2.0199041
-5.0231194 10.981574 1.0565019
-5.0974317 11.149166 -1.9416648
-5.0031171 10.953001 -1.4785191
-5.0019546 10.960577 -1.0540615
-4.9995732 10.965492 -0.63159037
-5.0012679 10.974282 -0.21051092
-3.2948468 7.2600799 -2.1362925
-4.9845858 10.988457 0.21061565
-3.7081664 8.1784 -2.073149
-4.9774222 10.977757 0.63169503
-4.2846117 9.4541426 -2.0176144
-4.9787283 10.990836 1.0556303
-5.0581603 11.171374 -1.9422905
-4.9525785 10.94327 -1.4748629
-4.9546371 10.958 -1.0521441
-4.9555125 10.970134 -0.63085771
-4.9448285 10.951577 -0.20974302
-3.2675846 7.2639179 -2.1342218
-4.9391012 10.984862 0.21023169
-3.6874177 8.2048702 -2.0767481
-4.9360809 10.983271 0.63106704
-4.254848 9.47188 -2.0183775
-4.9275661 10.974567 1.0524927
-5.0243192 11.195296 -1.943542
-4.9162593 10.959635 -1.4748629
-4.905232 10.945281 -1.0493551
-4.910131 10.966455 -0.62970626
-4.9076648 10.966089 -0.20970812
-3.2426898 7.2729506 -2.1337044
-4.8912482 10.975612 0.20974302
-3.6609797 8.2188339 -2.077198
-4.890398 10.984014 0.63012499
-4.225009 9.4895248 -2.019141
-4.8846626 10.976287 1.0510982
-4.9839573 11.204675 -1.9422905
-4.8723321 10.964029 -1.4731567
-4.8678069 10.964157 -1.0495294
-4.8696847 10.97355 -0.62918293
-4.8588219 10.959388 -0.20925435
-3.2175734 7.2883201 -2.1347394
-4.8399873 10.963347 0.20918456
-3.6212556 8.2066021 -2.0708995
-4.8391337 10.971778 0.62845021
-4.1965375 9.5193176 -2.0221939
-4.8387733 10.981356 1.049878
-4.9444523 11.226482 -1.9429164
-4.8268352 10.964618 -1.4709631
-4.8190799 10.957372 -1.0472634
-4.8173776 10.963898 -0.62761283
-4.8189311 10.972619 -0.20918456
-3.1959846 7.3083568 -2.1373277
-4.7957649 10.971853 0.20901002
-3.5958321 8.2305355 -2.0735989
-4.789608 10.962981 0.62698483
-4.1617141 9.5303097 -2.0214307
-4.7900529 10.97444 1.047612
-4.90839 11.250916 -1.9441677
-4.7766275 10.954107 -1.4673071
-4.7776165 10.966822 -1.0465661
-4.7711086 10.962332 -0.62656611
-4.7718225 10.969203 -0.2088006
-3.1694252 7.3135986 -2.1357749
-4.7537928 10.974851 0.20876569
-3.5700686 8.2459898 -2.0744987
-4.7508488 10.973305 0.62667084
-4.126966 9.5368519 -2.0199041
-4.7536364 10.990263 1.047612
-4.8749757 11.276196 -1.9457321
-4.7245297 10.933441 -1.4624323
-4.7325387 10.962481 -1.0446488
-4.7307777 10.968923 -0.62604278
-4.7219658 10.953748 -0.2082072
-3.1398203 7.3116412 -2.1321514
-4.7086987 10.970339 0.20838173
-3.5442393 8.2613668 -2.0753984
-4.708919 10.976151 0.62593812
-4.0968671 9.5540924 -2.0206673
-4.7022543 10.97117 1.0443001
-4.8398862 11.297749 -1.9466707
-4.6929321 10.959998 -1.4638947
-4.6820517 10.945144 -1.0415112
-4.6802468 10.951493 -0.62415868
-4.6801143 10.956475 -0.20796287
-3.1170678 7.3255701 -2.1331868
-4.6652474 10.969334 0.2080676
-3.5153005 8.2694864 -2.0744987
-4.6701527 10.986191 0.62562406
-4.0682306 9.5748549 -2.0221939
-4.6588345 10.970201 1.0427313
-4.7993097 11.306462 -1.9454193
-4.648035 10.955398 -1.4612136
-4.6418447 10.951437 -1.0406395
-4.6423488 10.963274 -0.62394935
-4.6351843 10.951677 -0.20757893
-3.0916986 7.3405051 -2.1342218
-4.6125941 10.956871 0.20750912
-3.4864814 8.2859077 -2.0753984
-4.6155481 10.974584 0.62394935
-4.0376782 9.6005583 -2.0244837
-4.6147323 10.978019 1.0418597
-4.7609005 11.331261 -1.9466707
-4.6013231 10.962183 -1.4597511
-4.5985937 10.961026 -1.0399423
-4.5944118 10.961797 -0.62290263
-4.5915513 10.965706 -0.20750912
-3.0675418 7.3548188 -2.135257
-4.5750914 10.97475 0.20754401
-3.4575348 8.298028 -2.0753984
-4.5664592 10.964817 0.62248397
-4.0056486 9.6182194 -2.0252469
-4.5649014 10.96647 1.0392451
-4.7251091 11.356931 -1.948235
-4.5516038 10.950681 -1.4560951
-4.5511293 10.954934 -1.0378506
-4.5469356 10.95563 -0.62164652
-4.5478868 10.968736 -0.20726478
-3.0433264 7.3690529 -2.1362925
-4.5291271 10.972168 0.20719497
-3.4300323 8.3136492 -2.0762982
-4.5289207 10.982536 0.62258863
-3.9735494 9.6357727 -2.02601
-4.5250773 10.978652 1.0388964
-4.6839294 11.369702 -1.9476093
-4.4974875 10.927951 -1.4509765
-4.5033727 10.953113 -1.0361074
-4.5048718 10.962197 -0.62112319
-4.4966631 10.953095 -0.2066714
-3.0133717 7.3730054 -2.1342218
-4.4892836 10.984211 0.20712517
-3.4046781 8.3345919 -2.0785477
-4.4762092 10.963146 0.62059987
-3.9374614 9.6484547 -2.0256283
-4.4735174 10.967491 1.0362817
-4.6437197 11.390452 -1.948235
-4.4615593 10.9491 -1.4517077
-4.4538412 10.941087 -1.0334928
-4.4548793 10.954585 -0.61976248
-4.4538817 10.957611 -0.20646198
-2.9876184 7.3834782 -2.1342218
-4.430253 10.954245 0.20625255
-3.3733788 8.3452063 -2.0780978
-4.4409094 10.98611 0.62101847
-3.906702 9.6694212 -2.0271549
-4.4337168 10.979344 1.0359331
-4.5943222 11.382776 -1.9441677
-4.4154625 10.95065 -1.4497578
-4.4133906 10.951021 -1.0329698
-4.4128861 10.960804 -0.61923909
-4.4073906 10.952685 -0.20607802
-2.9661355 7.404623 -2.1373277
-4.3857203 10.948456 0.20586859
-3.3442352 8.3527298 -2.077198
-4.3951163 10.983002 0.61997181
-3.8736522 9.684823 -2.0275364
-4.3872261 10.974405 1.0340157
-4.4304242 11.082462 -1.8903543
-4.3747034 10.954171 -1.4482955
-4.3684902 10.949707 -1.031401
-4.3654151 10.94755 -0.61766905
-4.363214 10.953141 -0.20579877
-2.941566 7.4144177 -2.1373277
-4.3474784 10.963697 0.20586859
-3.3143423 8.3625402 -2.0767481
-4.3383589 10.951855 0.61735499
-3.8429627 9.7012653 -2.0282996
-4.3434777 10.970368 1.0322726
-4.3321123 10.947244 -1.8646991
-4.3254952 10.941684 -1.4446392
-4.3284969 10.954867 -1.0305295
-4.3264432 10.960863 -0.61756432
-4.3220215 10.960862 -0.20565915
-2.9156647 7.4246416 -2.1373277
-4.3069921 10.973222 0.20576388
-3.287976 8.3813171 -2.0785477
-4.3008299 10.968793 0.61745965
-3.8069229 9.7091379 -2.0271549
-4.3007979 10.974332 1.0312268
-4.2866654 10.943906 -1.8615704
-4.2843843 10.94932 -1.4436644
-4.2865992 10.960633 -1.0296578
-4.2772565 10.947992 -0.61599427
-4.2764616 10.957255 -0.20531012
-2.8883321 7.4311719 -2.1362925
-4.260694 10.967687 0.20537992
-3.2594068 8.3945589 -2.0789976
-4.2538466 10.961393 0.61620361
-3.774431 9.7260265 -2.0279181
-4.2538157 10.966988 1.029135
-4.239872 10.9367 -1.8578159
-4.2403998 10.949401 -1.4417145
-4.2353702 10.942084 -1.0265204
-4.2375712 10.959132 -0.61578494
-4.2295432 10.949731 -0.20489125
-2.8637636 7.4448142 -2.1373277
-4.2130518 10.958229 0.20492616
-3.2279892 8.4004259 -2.0776479
-4.2148447 10.974311 0.61609894
-3.7453873 9.7519712 -2.0305893
-4.2133627 10.976192 1.0286121
-4.1938882 10.931145 -1.8543743
-4.2007298 10.960429 -1.441227
-4.1950135 10.951219 -1.0259974
-4.1935778 10.958936 -0.61494756
-4.180583 10.936411 -0.20436768
-2.8391314 7.4583764 -2.1383629
-4.1626883 10.941094 0.20433277
-3.199337 8.4134655 -2.0780978
-4.1694131 10.970288 0.61505222
-3.7127163 9.7686577 -2.0313528
-4.1672421 10.970342 1.0266947
-4.1514964 10.934639 -1.8524972
-4.1554079 10.956465 -1.4387896
-4.1482835 10.943439 -1.0239056
-4.1468134 10.951092 -0.61369151
-4.1445069 10.956547 -0.20447239
-2.8137619 7.4700489 -2.1388805
-4.1251788 10.95743 0.20436768
-3.1678922 8.4191103 -2.0767481
-4.1226597 10.962341 0.61379617
-3.6785967 9.7815571 -2.0313528
-4.1205134 10.962441 1.0246029
-4.1112199 10.943515 -1.8515586
-4.1059799 10.941165 -1.4348897
-4.1100607 10.957852 -1.0239056
-4.1043591 10.954277 -0.61306345
-4.0985227 10.950348 -0.20408843
-2.7903659 7.4870667 -2.1409512
-4.0827141 10.96052 0.20415826
-3.1378021 8.4282904 -2.0762982
-4.084888 10.97221 0.61358684
-3.6437428 9.7924986 -2.0309711
-4.0766635 10.96182 1.0232084
-4.0674863 10.942986 -1.8490556
-4.0663781 10.95171 -1.4344022
-4.0655446 10.955322 -1.0223368
-4.0626225 10.959175 -0.61254007
-4.0510736 10.933876 -0.20352997
-2.7608743 7.4876981 -2.1383629
-4.0401211 10.957111 0.2038441
-3.116576 8.4569349 -2.0807972
-4.0362105 10.958288 0.61201674
-3.6136098 9.8162117 -2.0332606
-4.0314975 10.957283 1.0214653
-4.0298138 10.952707 -1.8484299
-4.0225081 10.944637 -1.4317211
-4.0121741 10.928299 -1.018502
-4.0207562 10.957586 -0.61170274
-4.0121965 10.946073 -0.20349507
-2.736027 7.4968128 -2.1383629
-3.9956841 10.954239 0.20352997
-3.087702 8.469594 -2.0812473
-3.9999828 10.977942 0.61233073
-3.5830519 9.8336763 -2.0344057
-3.9917336 10.961231 1.0205938
-3.9807441 10.937008 -1.843424
-3.9815693 10.95115 -1.4307462
-3.9779506 10.947163 -1.019025
-3.9722633 10.943393 -0.61013263
-3.9616911 10.926172 -0.20286678
-2.7111552 7.5099521 -2.1393983
-3.9506323 10.94931 0.20318091
-3.0541544 8.4693213 -2.0785477
-3.9501278 10.959894 0.6105513
-3.5467091 9.8405819 -2.0332606
-3.9487171 10.961976 1.0193735
-3.9385302 10.939684 -1.8415467
-3.9332387 10.936963 -1.4270902
-3.9329772 10.942231 -1.0172819
-3.929312 10.944035 -0.60939997
-3.9309556 10.960639 -0.20325074
-2.6875241 7.5266457 -2.1414688
-3.9083526 10.951735 0.20297149
-3.024574 8.4799299 -2.0785477
-3.9016867 10.939071 0.60866719
-3.5129988 9.8547506 -2.0336425
-3.9077511 10.968187 1.0186763
-3.8936956 10.934755 -1.8384181
-3.8869674 10.921892 -1.423434
-3.8920851 10.948385 -1.0165845
-3.8897467 10.95392 -0.60919058
-3.8845513 10.945348 -0.20272715
-2.663835 7.5391612 -2.1425042
-3.8706841 10.960863 0.20290168
-2.9964347 8.4899139 -2.0785477
-3.8687108 10.961368 0.60919058
-3.4737666 9.8478327 -2.0298262
-3.8647356 10.962295 1.0169332
-3.8547843 10.940156 -1.8371665
-3.8494058 10.930978 -1.4229466
-3.8517931 10.949954 -1.0155387
-3.8441336 10.940377 -0.6077252
-3.8416107 10.939301 -0.20237811
-2.630533 7.5242457 -2.1357749
-3.8270617 10.952872 0.20251772
-2.9701936 8.5053215 -2.0798974
-3.8231876 10.954062 0.6080392
-3.4449744 9.8704185 -2.0321159
-3.8191774 10.948712 1.0144928
-3.8132787 10.937958 -1.8346636
-3.8027418 10.919977 -1.419778
-3.8004577 10.925696 -1.0120524
-3.8058622 10.947407 -0.60741121
-3.7975004 10.935642 -0.20206398
-2.6060936 7.5429649 -2.1383629
-3.7835841 10.951043 0.20223849
-2.9411204 8.5174809 -2.0803473
-3.7790604 10.950349 0.60709715
-3.4068513 9.8774109 -2.0309711
-3.7764227 10.955104 1.0137956
-3.7667313 10.933183 -1.8315349
-3.7645977 10.933185 -1.419778
-3.761646 10.937013 -1.0118781
-3.7546833 10.92917 -0.60563177
-3.7593019 10.948833 -0.20206398
-2.5816193 7.5575018 -2.1399159
-3.7363114 10.944022 0.20185454
-2.907367 8.5208263 -2.0785477
-3.7376132 10.960345 0.60688782
-3.372988 9.8911009 -2.0313528
-3.731734 10.94936 1.0120524
-3.7240884 10.933175 -1.8293447
-3.7219453 10.939391 -1.418803
-3.7228017 10.948192 -1.0117038
-3.7139435 10.934644 -0.60521305
-3.7127247 10.943599 -0.20171492
-2.557075 7.5719581 -2.1414688
-3.6916943 10.938048 0.20150548
-2.8788493 8.5346155 -2.0794475
-3.68593 10.933581 0.60468972
-3.3403199 9.9083967 -2.0324974
-3.6928573 10.96043 1.0118781
-3.6840079 10.940493 -1.8284062
-3.6774058 10.933503 -1.4163656
-3.6813905 10.951676 -1.0108323
-3.6757486 10.947542 -0.60521305
-3.6706841 10.945117 -0.20150548
-2.5300186 7.5790052 -2.1409512
-3.6553869 10.956561 0.20161021
-2.8502753 8.5483093 -2.0803473
-3.6477447 10.94638 0.60468972
-3.3001289 9.9032335 -2.029063
-3.6426108 10.937338 1.0085663
-3.6433027 10.945787 -1.8271548
-3.6367157 10.938738 -1.4153906
-3.6374879 10.947442 -1.0092635
-3.6299655 10.937559 -0.603957
-3.6255369 10.936984 -0.20112152
-2.499917 7.5767822 -2.1378453
-3.6146111 10.961658 0.20147058
-2.8222461 8.5637598 -2.0816972
-3.6076403 10.953355 0.60437566
-3.2655423 9.9146919 -2.029063
-3.6050303 10.95188 1.0087405
-3.5976622 10.935922 -1.8234003
-3.59355 10.936279 -1.4134407
-3.5917895 10.937359 -1.0071718
-3.5954962 10.961551 -0.60458505
-3.5817318 10.932471 -0.20080739
-2.4777718 7.5942144 -2.1404335
-3.5701842 10.948869 0.20101681
-2.7944379 8.5749245 -2.0821469
-3.5706761 10.96336 0.60427099
-3.2344668 9.9310665 -2.0302079
-3.5637615 10.948618 1.007346
-3.5540471 10.92525 -1.819646
-3.5535855 10.936808 -1.4119784
-3.542521 10.915717 -1.0040342
-3.5455723 10.931616 -0.60228223
-3.5429957 10.936678 -0.20066777
-2.4493268 7.6014071 -2.1399159
-3.5264213 10.944136 0.20070268
-2.7615035 8.5753508 -2.0798974
-3.5256565 10.954843 0.60311961
-3.1968412 9.9391184 -2.0294447
-3.5211723 10.954019 1.0066488
-3.5091484 10.923156 -1.817143
-3.5117433 10.937805 -1.4105159
-3.5098693 10.945091 -1.005603
-3.5048754 10.942636 -0.60217756
-3.4962597 10.922317 -0.2001791
-2.4233656 7.6117511 -2.1404335
-3.4826498 10.945553 0.20049325
-2.7294621 8.5835581 -2.0794475
-3.4812441 10.954367 0.60238689
-3.1621299 9.9502153 -2.0294447
-3.4780867 10.951053 1.0052543
-3.4709954 10.93534 -1.817143
-3.4632344 10.92411 -1.4071035
-3.4710426 10.955377 -1.0054286
-3.4618335 10.93957 -0.60134023
-3.4610281 10.950312 -0.20045835
-2.3956232 7.6164775 -2.1393983
-3.4414253 10.948104 0.20031872
-2.7012372 8.5986099 -2.0807972
-3.437603 10.949302 0.6014449
-3.122087 9.944334 -2.02601
-3.4362576 10.951721 1.0042084
-3.4292586 10.936079 -1.8152657
-3.4238915 10.932344 -1.4066161
-3.4286165 10.954116 -1.0042084
-3.4248152 10.955401 -0.60154951
-3.4126534 10.929875 -0.19986497
-2.3655808 7.6137247 -2.1362925
-3.4002206 10.950501 0.2001442
-2.6729367 8.6135721 -2.0821469
-3.3975847 10.955514 0.6011309
-3.0867717 9.9532967 -2.0256283
-3.3879828 10.931296 1.0012451
-3.3875544 10.936663 -1.8133886
-3.3845389 10.940436 -1.4061285
-3.3821168 10.939369 -1.0017681
-3.3783054 10.940573 -0.60008413
-3.3727095 10.935988 -0.19976024
-2.3389914 7.6219349 -2.1362925
-3.3543553 10.937449 0.19969043
-2.6417129 8.6191225 -2.0812473
-3.3563993 10.957757 0.60060751
-3.0525863 9.965888 -2.02601
-3.3498075 10.943055 1.0012451
-3.3401136 10.918196 -1.8083826
-3.3440108 10.94459 -1.4051536
-3.3375125 10.930146 -0.99985063
-3.3412626 10.956118 -0.60029346
-3.3327694 10.941956 -0.19965553
-2.3162916 7.6429958 -2.1399159
-3.3132551 10.939523 0.19951591
-2.6116123 8.6282911 -2.0812473
-3.3136811 10.947799 0.59945607
-3.0200517 9.9840002 -2.0275364
-3.3075502 10.941333 1.000025
-3.3014128 10.927897 -1.8080698
-3.3042533 10.944218 -1.4036912
-3.2976103 10.936008 -0.99932772
-3.2903247 10.925642 -0.59799069
-3.2883952 10.926142 -0.19916686
-2.2903812 7.6487842 -2.1393983
-3.2781088 10.954282 0.19958572
-2.5824246 8.6350374 -2.0807972
-3.2722056 10.941506 0.59851408
-2.9874909 9.9958401 -2.0279181
-3.2763832 10.96942 1.0015938
-3.2640233 10.935 -1.8074441
-3.2600009 10.928482 -1.4002789
-3.2624669 10.950702 -0.99967635
-3.2546475 10.938406 -0.59809536
-3.2527168 10.938901 -0.19920176
-2.2628138 7.6489267 -2.1373277
-3.2355258 10.943998 0.19920176
-2.5532253 8.6416845 -2.0803473
-3.2306013 10.941368 0.59788603
-2.9482138 9.9849806 -2.0237205
-3.2343471 10.961117 0.99985063
-3.2249525 10.936291 -1.8058797
-3.2207088 10.935987 -1.3997915
-3.2219706 10.954379 -0.99897915
-3.2149742 10.937643 -0.5974673
-3.2094407 10.932921 -0.19888763
-2.2342207 7.6553149 -2.1368101
-3.1950657 10.947547 0.19906214
-2.5257707 8.6598988 -2.0825968
-3.1895916 10.942991 0.59736264
-2.9143395 10.005144 -2.0256283
-3.1846871 10.940377 0.99688739
-3.1820858 10.938554 -1.8043153
-3.1758683 10.924289 -1.3968666
-3.1742713 10.933031 -0.99601579
-3.1737542 10.945516 -0.59725797
-3.1668079 10.928692 -0.19860838
-2.2048125 7.6537843 -2.1342218
-3.1499431 10.941888 0.19874801
-2.4950926 8.672842 -2.0834966
-3.1461535 10.94309 0.59673464
-2.8804846 10.01903 -2.0263917
-3.1431746 10.939939 0.9958415
-3.1329827 10.911621 -1.7980579
-3.1347101 10.932039 -1.396379
-3.1333466 10.934466 -0.99514425
-3.1327775 10.946928 -0.59673464
-3.1245356 10.932533 -0.19846877
-2.1801937 7.6688676 -2.1362925
-3.1079013 10.939353 0.19850367
-2.4632051 8.6758766 -2.0821469
-3.1046619 10.942478 0.59610659
-2.8454914 10.029024 -2.0263917
-3.1038835 10.947009 0.99549288
-3.0975649 10.931993 -1.7996223
-3.0922093 10.927634 -1.3944291
-3.0897348 10.926167 -0.99340117
-3.0847778 10.923198 -0.59485054
-3.0863519 10.943375 -0.19846877
-2.1534126 7.6764307 -2.1362925
-3.0670002 10.940506 0.19832915
-2.43133 8.678791 -2.0807972
-3.0640502 10.937327 0.5952692
-2.8104684 10.038895 -2.0263917
-3.0613601 10.942427 0.99409837
-3.0583248 10.938934 -1.7989967
-3.0538206 10.930181 -1.3934542
-3.0563979 10.954156 -0.9949699
-3.0471685 10.935822 -0.59495521
-3.0420017 10.924653 -0.19794521
-2.1279464 7.6835294 -2.1362925
-3.0248332 10.929419 0.19794521
-2.404093 8.6924429 -2.0821469
-3.0235019 10.93203 0.59443188
-2.7735038 10.034913 -2.0237205
-3.0234625 10.946758 0.99357545
-3.0178251 10.933783 -1.7964935
-3.0138597 10.926851 -1.391748
-3.0142326 10.943104 -0.99305254
-3.0103543 10.943942 -0.59485054
-3.005224 10.932752 -0.19791028
-2.0999057 7.6812267 -2.1337044
-2.9912102 10.949033 0.19811971
-2.374743 8.6984854 -2.0816972
-2.9821715 10.930955 0.59380382
-2.7407255 10.04595 -2.024102
-2.97719 10.9202 0.99026352
-2.9779184 10.930388 -1.7943035
-2.9736178 10.929644 -1.3907731
-2.971839 10.938175 -0.99165797
-2.9750955 10.957721 -0.59505987
-2.9633772 10.929666 -0.19766594
-2.0722392 7.6907372 -2.1342218
-2.9467268 10.936238 0.19770086
-2.3438604 8.7048407 -2.0812473
-2.9424427 10.935512 0.59348977
-2.7028646 10.052136 -2.0233386
-2.936631 10.929114 0.99008924
-2.9316864 10.918337 -1.790549
-2.9354451 10.939958 -1.3907731
-2.9315739 10.940786 -0.99096078
-2.9261343 10.935751 -0.59328043
-2.9257264 10.941875 -0.19770086
-2.0463746 7.7016573 -2.135257
-2.903034 10.933434 0.19745652
-2.3099384 8.7058392 -2.0794475
-2.9008038 10.940431 0.59317577
-2.6667554 10.057714 -2.0225754
-2.8999913 10.945076 0.99061215
-2.891031 10.918956 -1.7889848
-2.8877196 10.921855 -1.387117
-2.8872604 10.927835 -0.98886907
-2.8833601 10.928517 -0.59233844
-2.8800015 10.931254 -0.19731691
-2.018501 7.7050157 -2.1342218
-2.8638356 10.939634 0.19738671
-2.2795372 8.7138481 -2.0794475
-2.8595686 10.938896 0.59254777
-2.6346126 10.078357 -2.0248652
-2.8587439 10.943567 0.98956627
-2.854892 10.936626 -1.7902362
-2.8475718 10.924186 -1.386142
-2.8455791 10.924353 -0.9876489
-2.8376503 10.909521 -0.59076834
-2.83831 10.927692 -0.19707258
-1.992557 7.7157559 -2.135257
-2.8251345 10.947627 0.19735181
-2.2505636 8.7274141 -2.0807972
-2.8157945 10.919311 0.59097767
-2.5945151 10.068482 -2.021049
-2.8165538 10.938044 0.98817176
-2.8152242 10.940786 -1.7892977
-2.8059447 10.928429 -0.98712587
-2.8010423 10.925165 -0.59108233
-2.7980835 10.921548 -0.19679335
-1.9627545 7.711431 -2.1321514
-2.7804322 10.923991 0.19675842
-2.223053 8.7404947 -2.0821469
-2.7806156 10.940685 0.59160572
-2.5622504 10.088895 -2.0233386
-2.7759075 10.938152 0.98730022
-2.7769861 10.942402 -1.7880461
-2.7736347 10.945239 -1.3863858
-2.7628951 10.918841 -0.9853828
-2.762836 10.926648 -0.59066367
-2.7584715 10.925431 -0.19668862
-1.9357624 7.7122765 -2.1305985
-2.7471454 10.953026 0.19710748
-2.1934745 8.7519817 -2.0830467
-2.741926 10.948387 0.59150106
-2.5278335 10.093526 -2.0225754
-2.7376826 10.939568 0.98660302
-2.7334988 10.930949 -1.7846047
-2.7349334 10.952929 -1.386142
-2.7257042 10.924078 -0.98503423
-2.7266173 10.943976 -0.59108233
-2.7174234 10.92335 -0.19647919
-1.9097551 7.7227373 -2.1316338
-2.7060194 10.9509 0.19689806
-2.1577702 8.7387753 -2.0780978
-2.7056029 10.965649 0.59191972
-2.4925823 10.102288 -2.0225754
-2.7004356 10.952925 0.98695159
-2.6920154 10.926999 -1.7824146
-2.6909957 10.939276 -1.3832171
-2.6913571 10.949005 -0.98642868
-2.6812549 10.924334 -0.58951229
-2.6792796 10.932769 -0.19647919
-1.8841558 7.7349882 -2.1331868
-2.663991 10.944737 0.19661881
-2.1295617 8.7557201 -2.0803473
-2.6583443 10.938151 0.58993095
-2.4577644 10.112836 -2.0229571
-2.6538641 10.936328 -1.7824146
-2.6471817 10.925452 -1.3802923
-2.650316 10.946712 -0.9853828
-2.6412253 10.92586 -0.58909357
-2.6392217 10.93428 -0.19633958
-1.8571495 7.7415166 -2.1331868
-2.6276374 10.961747 0.19675842
-2.0998912 8.7668915 -2.0812473
-2.6229334 10.95902 0.59055901
-2.4174197 10.100352 -2.0187593
-2.6110787 10.926312 -1.7792858
-2.6035025 10.911455 -1.3773675
-2.6065409 10.93264 -0.98329109
-2.6026108 10.93307 -0.5889889
-2.5982602 10.931754 -0.19613016
-1.8283544 7.7344728 -2.1295633
-2.5875971 10.95483 0.19647919
-2.0725956 8.7813931 -2.0830467
-2.5847514 10.959882 0.59014034
-2.3866231 10.119777 -2.021049
-2.5748284 10.934912 -1.7792858
-2.5673068 10.920028 -1.3773675
-2.5628963 10.918397 -0.98119932
-2.5622385 10.924139 -0.58804685
-2.5583494 10.924732 -0.19585089
-1.7991166 7.7373586 -2.1285279
-2.5448098 10.94432 0.19613016
-2.0414953 8.7866755 -2.0825968
-2.5500889 10.984402 0.59097767
-2.3504009 10.132281 -2.0218122
-2.5276039 10.913485 -1.77428
-2.5327506 10.944395 -1.3793174
-2.521631 10.913688 -0.97997916
-2.5221794 10.933457 -0.58804685
-2.5193036 10.929699 -0.1957811
-1.7742538 7.7530079 -2.1311162
-2.502008 10.941876 0.19592072
-2.0071001 8.7846012 -2.0803473
-2.5001609 10.942612 0.58825624
-2.3158944 10.144251 -2.0225754
-2.4903684 10.926093 -1.7749057
-2.4882181 10.934249 -1.3768799
-2.4830751 10.920481 -0.97980487
-2.4804642 10.926614 -0.58720946
-2.4793639 10.930627 -0.19564149
-1.7480266 7.7629232 -2.1321514
-2.4621923 10.934507 0.19564149
-1.9788154 8.7950106 -2.0812473
-2.4514375 10.904505 0.58574408
-2.2787466 10.144612 -2.021049
-2.452394 10.92658 -1.7736541
-2.4484699 10.926945 -1.37493
-2.4436378 10.923248 -0.97928184
-2.4402926 10.917237 -0.58626747
-2.4394538 10.931407 -0.19550186
-1.7214396 7.764905 -2.1311162
-2.4196861 10.923512 0.19529243
-1.9464204 8.7942533 -2.0794475
-2.4176738 10.932497 0.5867908
-2.2425516 10.140611 -2.0187593
-2.413389 10.931217 -1.7730285
-2.4077458 10.923793 -1.3734676
-2.4091177 10.939074 -0.97997916
-2.4013088 10.921788 -0.58605814
-2.394424 10.908604 -0.19494337
-1.6918567 7.759541 -2.1280103
-2.380687 10.927984 0.19522263
-1.9181956 8.8124199 -2.0821469
-2.3752551 10.921351 0.58574408
-2.2092288 10.157968 -2.0206673
-2.3726995 10.927993 -1.7711512
-2.3653975 10.912731 -1.3710303
-2.3650119 10.920156 -0.97753882
-2.3623281 10.9262 -0.58584875
-2.3588598 10.928624 -0.1951528
-1.6643536 7.7635112 -2.1274927
-2.3408537 10.928406 0.19508299
-1.8874247 8.8190613 -2.0821469
-2.3423665 10.944794 0.58658141
-2.1733444 10.163698 -2.0202856
-2.328768 10.909163 -1.7667711
-2.3291986 10.920515 -1.3710303
-2.3243916 10.916653 -0.97649294
-2.3225155 10.926564 -0.58543009
-2.3217776 10.932474 -0.19508299
-1.6397938 7.7746592 -2.1290457
-2.3021238 10.924368 0.19487357
-1.8545573 8.8081083 -2.0780978
-2.3052385 10.948592 0.58637214
-2.1404338 10.174694 -2.021049
-2.2860391 10.89515 -1.3668866
-2.2877717 10.922351 -0.9763186
-2.2821782 10.914657 -0.58438331
-2.2838778 10.932282 -0.19494337
-1.6132196 7.7762704 -2.1280103
-2.26264 10.916277 0.19459434
-1.8257313 8.8161192 -2.0785477
-2.2661946 10.952662 0.58616281
-2.1054902 10.175966 -2.0199041
-2.2675521 10.978534 -1.7755314
-2.2495999 10.910841 -1.3678616
-2.2483201 10.914266 -0.97492415
-2.2443593 10.91434 -0.58396471
-2.244494 10.934313 -0.19483867
-1.584524 7.7742825 -2.1259398
-2.2261198 10.931946 0.19473396
-1.7941666 8.8186188 -2.0776479
-2.2215855 10.929189 0.58448797
-2.0683944 10.175558 -2.0183775
-2.4366181 12.008552 -1.9407262
-2.2390871 11.054817 -1.3849233
-2.2386584 11.062651 -0.98747456
-2.2113957 10.947556 -0.58532542
-2.1956379 10.889155 -0.19389623
-1.555858 7.7721887 -2.1238692
-1.763379 8.8248262 -2.0776479
-2.1787267 10.913373 0.58323193
-2.0328598 10.182716 -2.0183775
-2.3919916 12.003421 -1.938536
-2.2144239 11.132656 -1.393698
-2.2035313 11.09814 -0.98991495
-2.2042551 11.111937 -0.59369916
-2.1875241 11.047796 -0.19658391
-1.5281074 7.78163 -2.1249044
-2.1613059 11.006087 0.1957811
-1.733312 8.834754 -2.0785477
-2.1436894 10.936593 0.58406937
-1.9966588 10.195879 -2.0195224
-2.3464563 12.004355 -1.9372847
-2.2322431 11.430614 -1.430015
-2.1975574 11.273945 -1.0049057
-2.1696181 11.151308 -0.59537387
-2.1607718 11.116217 -0.19766594
-1.5002017 7.7831235 -2.1238692
-2.1304028 11.063027 0.19665372
-1.6972395 8.8219099 -2.0740488
-2.1318669 11.091478 0.59191972
-1.9610537 10.202787 -2.0195224
-2.1104603 10.990454 0.97910756
-2.3049195 12.014412 -1.9375975
-2.2276633 11.633687 -1.454389
-2.2034962 11.51833 -1.0259974
-2.1801229 11.417774 -0.60919058
-2.1447248 11.253708 -0.19996966
-1.4740996 7.7940083 -2.1254222
-2.1225908 11.233484 0.19955082
-1.6671555 8.8316116 -2.0749483
-2.0938745 11.102777 0.59212905
-1.9254246 10.209571 -2.0195224
-2.0883174 11.083903 0.98677731
-2.2622333 12.018502 -1.9369718
-2.2284598 11.861849 -1.4819313
-2.2018635 11.731563 -1.0443001
-2.1788692 11.63144 -0.62018114
-2.1498942 11.498969 -0.20419316
-1.4465373 7.7972054 -2.1249044
-2.1274569 11.478736 0.2037743
-1.6370288 8.8412094 -2.0758483
-2.1068697 11.37871 0.60646909
-1.8883533 10.208506 -2.0179961
-2.0843692 11.279211 1.0035112
-2.2213397 12.032154 -1.9379103
-2.2312407 12.097576 -1.5104488
-2.1980474 11.941004 -1.0622542
-2.1779492 11.855059 -0.63169503
-2.1482117 11.704685 -0.20771854
-1.4192864 7.7943578 -2.122834
-2.1276772 11.69624 0.20750912
-1.607002 8.8427544 -2.0749483
-2.106976 11.593932 0.61756432
-1.8548384 10.216644 -2.0183775
-2.0860684 11.501704 1.0226854
-2.181782 12.041397 -1.9382232
-2.2275262 12.306105 -1.5355538
-2.1974013 12.163899 -1.0814284
-2.1779621 12.080394 -0.64331365
-2.1455374 11.912485 -0.21127884
-1.3927535 7.795217 -2.1217985
-2.126121 11.911901 0.21120901
-1.5776713 8.8480349 -2.0749483
-2.1050231 11.817511 0.62907827
-1.8219833 10.228538 -2.0195224
-2.0779316 11.677255 1.0376762
-2.13873 12.031061 -1.9354074
-2.2272038 12.554218 -1.5655338
-2.2008631 12.418307 -1.1033916
-2.1775415 12.311757 -0.65524626
-2.147393 12.166059 -0.21564195
-1.3658658 7.8019352 -2.1223164
-2.1224246 12.135928 0.21504855
-1.5447617 8.8419714 -2.0722492
-2.1042759 12.056953 0.64142954
-1.784915 10.227098 -2.0179961
-2.0970566 12.040401 -1.9357203
-2.2129445 12.732067 -1.5867389
-2.1973763 12.655588 -1.1237862
-2.1730859 12.541659 -0.66707414
-2.1464818 12.413875 -0.21990032
-1.3396047 7.812367 -2.1238692
-2.1229291 12.393579 0.21948145
-1.5125709 8.8396263 -2.0704496
-2.0991962 12.280783 0.65294349
-1.7480822 10.237443 -2.0187593
-2.0838914 12.204071 1.0831715
-2.0560081 12.053489 -1.9366589
-2.186805 12.847348 -1.6001446
-2.165993 12.751946 -1.1316301
-2.1678205 12.789781 -0.67984414
-2.1438663 12.661831 -0.22415872
-1.3109636 7.817224 -2.1238692
-2.1158123 12.630054 0.22353043
-1.4814506 8.8527994 -2.0722492
-2.0920429 12.514935 0.66498071
-1.7086055 10.232162 -2.0164697
-2.0762253 12.433692 1.1028687
-2.013119 12.068737 -1.9379103
-2.1758831 13.072631 -1.6271995
-2.151881 12.956347 -1.1490613
-2.1682811 13.083344 -0.69502157
-2.1333671 12.886617 -0.22799824
-1.2810473 7.8143516 -2.1217985
-2.1092579 12.880453 0.22782372
-1.4483662 8.8543224 -2.0713491
-2.0912235 12.784313 0.67890209
-1.6738254 10.243878 -2.0176144
-2.0659466 12.657518 1.122043
-1.9669666 12.064337 -1.9360331
-2.4176993 14.861552 -1.8487581
-2.1462722 13.207639 -1.170676
-2.1657503 13.356988 -0.70915228
-2.1401677 13.213767 -0.23365282
-1.2537678 7.8187747 -2.1217985
-2.1111782 13.165776 0.23274529
-1.4199184 8.8648491 -2.0726991
-2.0866551 13.042002 0.69219542
-1.6377543 10.247718 -2.0172329
-2.0481308 12.829923 1.1366851
-1.9263228 12.066892 -1.9354074
-2.3705919 14.883211 -1.8504643
-2.1448693 13.496429 -1.1956024
-2.162787 13.624474 -0.722969
-2.1331291 13.468042 -0.23801592
-1.2284299 7.8267074 -2.122834
-2.1060877 13.43384 0.23735273
-1.3862498 8.8524246 -2.0686498
-2.0869596 13.327073 0.70695418
-1.6052769 10.262791 -2.019141
-2.0474041 13.104361 1.1603916
-1.8838822 12.071591 -1.9350946
-2.3192322 14.895318 -1.8509518
-2.1487808 13.816496 -1.223318
-2.1556361 13.892461 -0.73678571
-2.1304109 13.745769 -0.24279788
-1.1990498 7.8175817 -2.1192105
-2.1051798 13.725379 0.24237902
-1.3568883 8.8569727 -2.0686498
-2.0839393 13.618572 0.72202694
-1.5685506 10.26251 -2.0179961
-2.0419369 13.37535 1.1837493
-1.8471224 12.099252 -1.938536
-2.2674296 14.887228 -1.8490019
-2.1400576 14.083922 -1.2463272
-2.1512086 14.17401 -0.75133508
-2.1243379 14.029922 -0.24768455
-1.1729043 7.82936 -2.1212809
-2.0971794 14.015811 0.24737041
-1.3255708 8.8695955 -2.0704496
-2.0741162 13.894769 0.73626232
-1.5304066 10.252388 -2.0149431
-2.0387218 13.674045 1.2095473
-1.801603 12.098125 -1.9372847
-2.214895 14.909183 -1.850708
-2.140007 14.422403 -1.2756114
-2.1483796 14.513721 -0.76891994
-2.1152484 14.32446 -0.25274575
-1.1438882 7.821938 -2.118175
-2.0941916 14.33766 0.25292027
-1.2943226 8.8722401 -2.0699997
-2.0638983 14.164784 0.75018364
-1.4940408 10.253783 -2.0141799
-2.0311441 13.957107 1.233951
-1.7587959 12.10043 -1.9366589
-2.1648288 14.930575 -1.8524141
-2.1421945 14.7926 -1.3076848
-2.1436751 14.839388 -0.78577214
-2.1131599 14.664271 -0.25860977
-1.1160297 7.8220587 -2.1171398
-2.0870209 14.645795 0.2582258
-1.2630681 8.8747759 -2.0695498
-2.0658777 14.515608 0.76839662
-1.4601706 10.272543 -2.0168512
-2.0305824 14.3034 1.2639326
-1.7162664 12.10454 -1.9363459
-2.1143692 14.949835 -1.8538766
-2.1328988 15.099854 -1.3341801
-2.1406305 15.192882 -0.80408967
-2.1118863 15.007829 -0.26454359
-1.0881883 7.8220797 -2.1161046
-2.0852799 14.989342 0.26415962
-1.2312192 8.8615417 -2.0655005
-2.0646043 14.878826 0.78723752
-1.424306 10.277576 -2.0168512
-2.0199792 14.594595 1.2890334
-1.6758484 12.108208 -1.9360331
-2.0661426 14.966596 -1.8550954
-2.1290934 15.462486 -1.3655562
-2.1405783 15.565944 -0.82345402
-2.1067643 15.35983 -0.27061701
-1.0632805 7.8333025 -2.118175
-2.0804868 15.347267 0.27033779
-1.2000154 8.8638554 -2.0650506
-2.0629511 15.237888 0.80586916
-1.3899506 10.280297 -2.0164697
-1.6343615 12.119858 -1.9369718
-2.0122952 14.961913 -1.8536329
-2.126081 15.828849 -1.3972809
-2.1368766 15.951421 -0.84344637
-2.1067321 15.747283 -0.27731875
-1.0359323 7.836966 -2.118175
-2.0814712 15.746607 0.27724892
-1.1718922 8.8774462 -2.0673003
-1.3525219 10.273408 -2.0141799
-2.0787563 15.811019 1.3951892
-1.5949365 12.131086 -1.9379103
-1.9626716 14.968503 -1.8536329
-2.117835 16.195726 -1.4290055
-2.0806777 15.976629 -0.28122807
-1.0084553 7.8288617 -2.1150692
-2.0601733 16.015581 0.28185639
-1.141143 8.8834162 -2.06775
-1.3189433 10.281731 -2.0149431
-2.0260634 15.815848 1.3950148
-1.5518261 12.130702 -1.9369718
-1.9119203 14.987078 -1.8550954
-2.1130807 16.610172 -1.4649137
-2.106034 16.577829 -0.87579
-0.97903675 7.826755 -2.1135163
-2.0665507 16.520714 0.29061747
-1.110129 8.8873453 -2.06775
-1.2817376 10.290392 -2.0157063
-1.5051659 12.118665 -1.9341559
-1.8613001 15.00745 -1.8568015
-2.1061993 17.030708 -1.5013449
-2.0897355 16.946207 -0.8948403
-0.95217431 7.8339605 -2.1145515
-2.0527296 16.913292 0.297389
-1.0756699 8.8758783 -2.0641508
-1.2453351 10.290906 -2.0149431
-2.0117884 16.648834 1.4671798
-1.4628515 12.123845 -1.9341559
-1.8051004 15.004317 -1.8555828
-2.1127956 17.587889 -1.5498035
-2.0776105 17.346046 -0.91556531
-2.0775807 17.371542 -0.30538222
-0.92437184 7.8333993 -2.1135163
-2.0524015 17.392654 0.30569634
-1.0457762 8.8755255 -2.0632513
-1.2094078 10.29519 -2.0149431
-1.4228718 12.130591 -1.9344687
-1.7553303 15.010221 -1.8555828
-2.0719194 17.771286 -1.5653172
-2.0674162 17.759533 -0.93702304
-0.89817178 7.8345022 -2.1129987
-2.0294232 17.729511 0.31149057
-1.0147903 8.8791208 -2.0632513
-2.0248539 17.744333 0.93597633
-1.172592 10.275737 -2.0103636
-1.3807453 12.137446 -1.9347818
-1.7024727 15.012313 -1.8550954
-2.0466261 18.131819 -0.95628273
-2.0085843 17.850616 -0.31354994
-0.86996335 7.8299093 -2.1109281
-1.9827483 17.873623 0.31389898
-0.98421693 8.8864841 -2.0641508
-2.0085566 18.164207 0.95774812
-1.1377921 10.289524 -2.0122719
-1.337284 12.132376 -1.9332174
-1.6505035 15.022109 -1.8555828
-2.122977 19.353539 -1.7033718
-2.0365212 18.62528 -0.98192734
-2.0017216 18.366428 -0.32248557
-0.84262818 7.8328981 -2.1109281
-1.9594183 18.244289 0.32028657
-0.95318896 8.8898659 -2.0641508
-2.0023899 18.675182 0.98433477
-1.1022881 10.297338 -2.0130351
-1.2949227 12.13697 -1.9332174
-1.5993121 15.039622 -1.8570452
-2.0593989 19.398476 -1.7066838
-2.0309639 19.194363 -1.0115495
-1.9937369 18.874098 -0.33128157
-0.81587893 7.841557 -2.1124811
-1.9696764 18.93091 0.33222401
-0.92229635 8.8794088 -2.0610015
-1.9878774 19.170761 1.010084
-1.0661319 10.29917 -2.0126534
-1.2546704 12.141197 -1.9332174
-1.5514593 15.06459 -1.8594825
-1.9959582 19.447166 -1.7103442
-2.0391567 19.902353 -1.0484986
-1.9855423 19.445919 -0.34119454
-0.78967893 7.842298 -2.1119635
-1.9595867 19.494776 0.34199736
-0.89071387 8.8767557 -2.0596519
-1.9746882 19.714157 1.0383455
-1.031975 10.302648 -2.0126534
-1.2124808 12.147468 -1.9335302
-1.4976819 15.058062 -1.8580201
-1.932577 19.499617 -1.7143533
-2.0357354 20.577169 -1.0836685
-0.76074535 7.8432155 -2.1114457
-0.86028385 8.8856316 -2.0610015
-1.9573543 20.253714 1.0663975
-0.99383229 10.302453 -2.0118902
-1.1681416 12.153796 -1.933843
-1.4462581 15.075053 -1.8594825
-1.8680956 19.543928 -1.7176653
-2.0288506 21.304243 -1.1215596
-2.0911844 21.999468 -0.3857331
-0.73228198 7.8342829 -2.1083403
-2.051487 21.989147 0.38548875
-0.82735109 8.8848429 -2.0601017
-1.9429337 20.864975 1.0982178
-0.95786124 10.30586 -2.0118902
-1.1260709 12.161734 -1.9344687
-1.3902625 15.072347 -1.8585076
-1.8005981 19.558266 -1.7183627
-1.9890467 21.729834 -0.38088134
-0.70475924 7.8348665 -2.1078224
-1.9538381 21.720978 0.38067189
-0.7977109 8.8855963 -2.0596519
-1.9231992 21.464441 1.1294101
-0.92205817 10.311095 -2.0122719
-1.0845081 12.151628 -1.9322786
-1.3416823 15.092692 -1.8604575
-1.7356498 19.602142 -1.7216746
-1.9384769 21.936296 -1.1541127
-1.9298338 21.925884 -0.38419729
-0.67877185 7.8371606 -2.1078224
-1.8972865 21.950804 0.38458124
-0.7663523 8.8844452 -2.0587521
-1.8861234 21.910791 1.1525426
-0.8881942 10.318008 -2.0130351
-0.67444766 7.8509841 0.68940192
-1.0425874 12.161244 -1.9332174
-1.2893245 15.101239 -1.860945
-1.6743622 19.651463 -1.7255093
-1.8823197 22.183731 -1.1667778
-1.853796 21.938463 -0.38430199
-0.65173262 7.8433332 -2.1088579
-1.8176826 21.921421 0.38395295
-0.73517627 8.8851233 -2.0583022
-1.8094586 21.915249 1.1524378
-0.8518464 10.317133 -2.0122719
-0.99997109 12.162841 -1.9329045
-1.2359517 15.097735 -1.8599701
-1.6086797 19.692932 -1.728647
-1.874814 23.050142 -1.2119962
-1.8406363 22.728119 -0.39801958
-0.62450516 7.847486 -2.1093752
-1.8009777 22.681145 0.39714694
-0.70523196 8.9012346 -2.0614514
-1.7446667 22.020679 1.1576715
-0.81490642 10.3083 -2.0099821
-0.95766044 12.168226 -1.9332174
-1.1858891 15.101749 -1.8599701
-1.5431842 19.740139 -1.7323076
-1.8612925 23.916761 -1.2572144
-0.59744829 7.8360305 -2.105752
-0.67482322 8.8918657 -2.0587521
-1.7402463 22.930502 1.2051926
-0.78071553 10.310946 -2.0099821
-0.91804278 12.181186 -1.9347818
-0.58687669 7.8051863 0.96106172
-1.1366923 15.117476 -1.8614326
-1.4784532 19.755083 -1.7331791
-1.8525966 24.870871 -1.3070383
-1.8066334 24.311253 -0.42552459
-0.56977564 7.8148475 -2.0995402
-1.7741029 24.391842 0.42688587
-0.64589894 8.9018288 -2.0605516
-0.7470879 10.321311 -2.0115087
-0.56377673 7.8077703 0.68486983
-0.87693632 12.174311 -1.9332174
-0.56056529 7.8011498 0.96033055
-1.0874113 15.133042 -1.8628949
-1.4152124 19.791674 -1.7359681
-1.8594109 26.131977 -1.3729815
-1.7883047 25.194767 -0.44088268
-0.53956455 7.7550235 -2.0829759
-1.7510828 25.231459 0.44147608
-0.61516213 8.8864241 -2.0565026
-0.71366572 10.335484 -2.0137982
-0.53733611 7.8016467 0.68417257
-0.83669198 12.179122 -1.9335302
-0.53374058 7.7891026 0.9586243
-1.037761 15.144487 -1.8638699
-1.3518713 19.830053 -1.7389314
-1.8387018 27.11043 -1.4240615
-1.7838285 26.369709 -0.46133694
-0.51152021 7.762732 -2.0845287
-1.7393781 26.466869 0.46297744
-0.58220732 8.8827868 -2.0551529
-1.6759199 25.638023 1.3464996
-0.67565364 10.33607 -2.0134165
-0.50899899 7.8075395 0.6845212
-0.79205036 12.182107 -1.9335302
-0.50531495 7.7929878 0.95886809
-0.97909391 15.140436 -1.8628949
-1.2811091 19.864697 -1.7415459
-1.8183391 28.348761 -1.4887488
-0.48598176 7.789535 -2.0912578
-1.6886944 27.143377 0.47470546
-0.48157871 7.7624979 -1.7955593
-0.63896114 10.328569 -2.0115087
-0.48149505 7.8052917 0.68417257
-0.74940914 12.182826 -1.9332174
-0.47871858 7.8046107 0.96008676
-0.92623395 15.143762 -1.8628949
-1.2132202 19.89291 -1.7436377
-1.7964902 29.626852 -1.5555295
-1.729844 28.693525 -0.50175673
-0.45810488 7.779614 -2.0881522
-1.6827805 28.662273 0.5011633
-0.45538852 7.779695 -1.7991585
-0.45592177 7.8122396 -1.5211295
-0.4535538 7.7949905 0.68312669
-0.4517642 7.7876706 -1.2355195
-0.45078269 7.7943439 0.9586243
-0.8761124 15.194466 -1.8687446
-1.1453786 19.924871 -1.746078
-1.7711084 30.998833 -1.6272297
-1.7371398 30.592054 -0.53484648
-0.43063101 7.7753787 -2.0865991
-1.6918423 30.644659 0.53571904
-0.48937225 8.8922873 -2.0560527
-0.56630087 10.322977 -2.0096004
-0.4261218 7.7925482 0.68277812
-0.4244678 7.7872276 -1.2352067
-0.42335886 7.7919054 0.95813686
-0.41716483 7.7781315 -0.4082205
-1.7712215 33.241779 -0.58106047
-0.4073889 7.8520756 -2.1067872
-0.45813072 8.890049 -2.0551529
-0.53076917 10.334694 -2.0115087
-0.39911976 7.7979674 0.68312669
-0.62058067 12.166332 -1.9294629
-0.39636067 7.7973008 0.9586243
-0.76960474 15.192283 -1.8677697
-0.37997922 7.8534498 -2.1067872
-0.42855141 8.8895721 -2.054703
-0.36269635 7.55092 0.39618322
-0.49431783 10.328639 -2.0099821
-0.37189898 7.7993131 0.68312669
-0.58098155 12.184108 -1.9319658
-0.36993435 7.786675 0.9571619
-0.71809787 15.170957 -1.8648449
-0.36439779 7.784781 -0.40842983
-0.35306236 7.8353682 -2.1016109
-0.39769438 8.894908 -2.0556028
-0.45979926 10.324338 -2.0088372
-0.34585842 7.7965226 0.68277812
-0.53871173 12.191982 -1.9329045
-0.34292772 7.7918854 0.95764935
-0.3245042 7.8075995 -2.0938461
-0.36688551 8.9020834 -2.0569522
-0.32274777 7.8645782 0.41251206
-0.42375502 10.32588 -2.0088372
-0.31815121 7.7857375 0.68173224
-0.49639395 12.199709 -1.933843
-0.31636766 7.8089027 0.95959932
-0.52591485 13.037409 -1.6020945
-0.5221324 12.999823 -1.1382539
-0.51837689 13.019802 -0.68287963
-0.2972503 7.8086848 -2.0938461
-0.33558652 8.8974676 -2.0556028
-0.38741595 10.319448 -2.0073106
-0.29082483 7.7828188 0.68138355
-0.45365593 12.19742 -1.9332174
-0.2886686 7.7980571 0.95813686
-0.47938207 13.011394 -1.5986823
-0.47426558 12.933869 -1.1323274
-0.47205898 12.997581 -0.68162352
-0.26985925 7.8058133 -2.0928109
-0.30425754 8.8907948 -2.053803
-0.35152775 10.324662 -2.0080738
-0.26378876 7.7877693 0.68173224
-0.41167173 12.216698 -1.9360331
-0.26078308 7.7791777 0.9556995
-0.43078169 12.917755 -1.5869827
-0.43717068 13.178385 -1.1535934
-0.42288232 12.883371 -0.67555261
-0.24284817 7.8144317 -2.0948815
-0.27310318 8.8879061 -2.0529034
-0.31572291 10.333676 -2.0096004
-0.23672912 7.7926254 0.68208081
-0.36902758 12.21806 -1.9360331
-0.23386337 7.7879772 0.95667446
-0.38497338 12.89537 -1.5840578
-0.39377034 13.267457 -1.1612631
-0.37696812 12.852827 -0.67387784
-0.2153578 7.807507 -2.0928109
-0.24196848 8.8849106 -2.0520036
-0.27928016 10.320977 -2.0069292
-0.20931007 7.7854371 0.68138355
-0.32663679 12.229148 -1.9375975
-0.20709972 7.8046207 0.9586243
-0.33944356 12.876792 -1.5816205
-0.33128452 12.822119 -0.67220312
-0.187915 7.8004856 -2.0907402
-0.21095899 8.8857012 -2.0520036
-0.24311 10.316001 -2.0057843
-0.18185093 7.7741694 0.68033773
-0.28400135 12.232187 -1.9379103
-0.18040192 7.8291116 0.96154922
-0.29385433 12.850114 -1.5782082
-0.29065564 12.807768 -1.1208228
-0.28696772 12.843165 -0.67324978
-0.16044432 7.7895055 -2.0876343
-0.17982008 8.880537 -2.0506537
-0.20717503 10.320713 -2.0065475
-0.15471454 7.7747569 0.68033773
-0.24102539 12.21928 -1.9357203
-0.15275964 7.8138161 0.95959932
-0.24930762 12.86694 -1.580158
-0.25198638 13.123443 -1.1483641
-0.24206236 12.840094 -0.67304045
-0.13325825 7.7900181 -2.0876343
-0.14865454 8.8713694 -2.0484045
-0.17108974 10.317447 -2.0057843
-0.12763792 7.7792339 0.68068635
-0.19855979 12.231897 -1.9375975
-0.12568 7.82621 0.96106172
-0.20451477 12.87567 -1.581133
-0.20745511 13.20592 -1.1555108
-0.19711448 12.832873 -0.67262173
-0.10601053 7.7865725 -2.0865991
-0.11915839 8.8659668 -2.0470545
-0.13522553 10.32976 -2.0080738
-0.1004842 7.7796321 0.68068635
