# .PCD v0.7 - Point Cloud Data file format
VERSION 0.7
FIELDS x y z
SIZE 4 4 4
TYPE F F F
COUNT 1 1 1
WIDTH 1508
HEIGHT 1
VIEWPOINT 0 0 0 1 0 0 0
POINTS 1508
DATA ascii
13.18394 3.5129082 -2.1609859
17.244011 4.5882745 -2.1909673
23.163607 6.1590395 -2.0969672
37.014885 9.828145 -2.0070841
87.80397 23.297241 -1.5856558
7.6551342 2.0182905 -2.1212809
8.8851089 2.3409126 -2.1212883
10.683671 2.8107879 -2.1473646
13.184053 3.4661517 -2.1591089
17.239927 4.5260367 -2.1885297
23.177258 6.0761189 -2.0962698
36.981583 9.6881437 -2.0035253
7.6599164 1.9924055 -2.1207633
8.8969994 2.3108609 -2.1221881
10.67393 2.7704089 -2.1435483
13.205633 3.4225838 -2.1606731
17.236406 4.4608526 -2.1860926
23.201139 6.0002179 -2.0966187
37.080921 9.575983 -2.0070841
7.6574688 1.9632545 -2.118175
8.8955717 2.2773805 -2.1199389
10.666419 2.7287512 -2.1401138
13.200274 3.3720758 -2.1578572
17.236485 4.396729 -2.1841426
23.194908 5.9123206 -2.0941782
37.114124 9.4464779 -2.0070841
7.6567836 1.934618 -2.1161046
8.9129143 2.2486961 -2.1221881
10.685399 2.6938987 -2.1420219
13.202386 3.3235631 -2.1562929
17.251726 4.3365393 -2.1841426
23.230864 5.835196 -2.0955727
37.073254 9.2984114 -2.0031066
7.659739 1.9069507 -2.1150692
8.898016 2.2119312 -2.1167896
10.690924 2.6556439 -2.1412585
13.196653 3.2731745 -2.1534772
17.228222 4.2667441 -2.1792676
23.243359 5.7521491 -2.0948753
37.179169 9.1871424 -2.0070841
7.6701021 1.8811201 -2.1161046
8.8962193 2.1785378 -2.1145399
10.684874 2.6145735 -2.1382058
40.780273 9.9713316 3.6729174
13.20224 3.2256858 -2.1525385
17.208296 4.1981153 -2.1748805
23.267166 5.6719279 -2.0952239
37.117867 9.0346251 -2.0020599
7.6953993 1.8588725 -2.1212809
8.9075575 2.1483822 -2.1154397
10.678666 2.5735826 -2.1351528
40.807083 9.8270645 3.67222
13.201899 3.1768055 -2.1506615
17.199682 4.1324606 -2.1719556
23.271326 5.5869493 -2.0938296
37.176361 8.9115477 -2.0035253
7.6886859 1.8288678 -2.1176574
8.9168978 2.117728 -2.1158895
10.674214 2.5331156 -2.1324816
40.918678 9.7029381 3.6791923
13.210982 3.1302502 -2.1503484
17.206276 4.0705647 -2.1709807
23.356607 5.5212712 -2.099756
37.273335 8.7973118 -2.0070841
87.840218 20.699823 -1.5752542
7.6630478 1.794528 -2.1088579
8.9128504 2.0839293 -2.1131902
10.681079 2.4953907 -2.1320999
13.198744 3.0787344 -2.146594
17.19718 4.0050793 -2.1680558
23.503813 5.4695172 -2.1112607
37.303814 8.6671581 -2.0070841
87.861298 20.381306 -1.5743468
7.6749115 1.7690713 -2.1104105
8.9143734 2.0514958 -2.1118405
10.685897 2.4572136 -2.1313365
43.311691 9.9515314 3.8880174
13.207486 3.0321977 -2.146281
17.197512 3.9419165 -2.1663496
23.6859 5.4247975 -2.1259029
37.14304 8.4932508 -1.9968263
7.6678524 1.7392803 -2.1067872
8.9062757 2.0169206 -2.1082413
10.694408 2.4199002 -2.1313365
13.206428 2.9834673 -2.1444039
17.180183 3.8748775 -2.1624498
23.899055 5.3858919 -2.1433339
37.312756 8.3951006 -2.0043626
7.667922 1.7125779 -2.1052344
8.9110146 1.9869487 -2.1077914
10.677464 2.3788698 -2.1263754
13.198895 2.9357932 -2.141588
17.181311 3.8153059 -2.1609874
24.134636 5.3549399 -2.1628568
37.297485 8.2618437 -2.0020599
7.6776271 1.6866322 -2.1062696
8.9255095 1.9574987 -2.109591
10.67995 2.3403258 -2.1252308
13.201346 2.8880107 -2.1403368
17.163494 3.7485273 -2.1570876
24.378986 5.3199291 -2.1830769
7.6608086 1.6549248 -2.1000578
8.9246674 1.9246941 -2.1077914
10.691893 2.3038557 -2.125994
13.188169 2.8369355 -2.1365821
17.157066 3.6844199 -2.1546502
24.646753 5.2883167 -2.2053888
37.354259 8.0012388 -2.0020599
7.6835437 1.6317905 -2.1047165
8.9122667 1.8894851 -2.1032922
10.697947 2.2661207 -2.1256123
13.186397 2.7884274 -2.1347051
17.165937 3.623692 -2.1541626
24.805429 5.2318501 -2.2179394
37.475769 7.8905597 -2.0070841
7.6891932 1.6049579 -2.1047165
8.918808 1.8583659 -2.1032922
10.696182 2.2267604 -2.1237042
13.184444 2.7399726 -2.1328278
17.12406 3.5524545 -2.1473379
24.757206 5.1314874 -2.2120128
47.54113 9.8193588 -0.84734923
7.7098899 1.5812111 -2.1088579
47.536907 9.7406597 0.84700018
8.9195156 1.8260474 -2.1019428
47.603706 9.737011 2.5464585
10.694275 2.1874404 -2.1217961
47.760662 9.7604561 4.2648792
13.178446 2.6907687 -2.1303248
47.678608 9.7263269 5.9747667
17.132463 3.4918778 -2.1468506
24.704685 5.0307183 -2.2057374
47.512409 9.6406116 -0.8462323
7.69453 1.5500938 -2.1031637
8.9162817 1.7929778 -2.0996931
10.690295 2.147779 -2.1195064
13.187758 2.6447475 -2.1303248
17.125082 3.4281516 -2.1444132
24.671301 4.9342866 -2.2012053
37.65427 7.5172448 -2.0123177
87.88044 17.51243 -1.5641196
7.7055793 1.524348 -2.1047165
8.91675 1.760717 -2.0983434
10.695802 2.1100669 -2.1191249
13.177528 2.5948834 -2.1271961
17.113573 3.3637545 -2.1414883
24.625813 4.8358569 -2.1956275
37.582287 7.3665428 -2.0070841
7.697578 1.4948648 -2.1010931
8.9132767 1.7277244 -2.0960939
10.703101 2.072721 -2.1191249
13.178747 2.5473728 -2.1259446
17.109617 3.300992 -2.1395385
24.576025 4.7370515 -2.1897008
7.7008524 1.4676225 -2.1005754
8.9227858 1.698884 -2.0969937
10.6987 2.0331457 -2.1168351
13.17936 2.5021791 -2.1246932
17.081463 3.2368393 -2.1346636
24.561087 4.6453176 -2.1869118
37.686508 7.1209402 -2.010015
7.7037778 1.4417238 -2.1000578
10.691873 1.9951373 -2.1141639
13.178304 2.4543536 -2.1231289
17.077044 3.1742957 -2.1327136
24.529345 4.5551071 -2.1827283
37.78183 7.0024567 -2.013783
7.7011623 1.4134266 -2.0979872
8.9267616 1.6351453 -2.0951941
10.696841 1.9574474 -2.1137822
13.173188 2.4058499 -2.1209388
17.084112 3.1139579 -2.1322262
24.478451 4.457314 -2.1768019
37.680279 6.8476839 -2.0070841
7.7041478 1.3861954 -2.0974696
8.943922 1.6060435 -2.0978935
10.705541 1.9204454 -2.1141639
13.171783 2.3581145 -2.1193743
17.071428 3.0501099 -2.1293013
24.42325 4.3592434 -2.1705265
7.7108426 1.359628 -2.0979872
8.9245234 1.570425 -2.0920448
10.706379 1.8820418 -2.113019
13.162423 2.3090529 -2.1165586
17.05851 2.9863887 -2.1263764
24.430468 4.2725959 -2.1698294
37.825542 6.6016102 -2.0123177
87.528809 15.244734 -1.5508208
7.7174449 1.3330381 -2.098505
8.9261112 1.5385987 -2.091145
10.691601 1.841001 -2.1088212
13.170403 2.2630899 -2.1165586
17.041435 2.9221318 -2.1229641
24.405956 4.1805573 -2.166343
37.655426 6.436564 -2.0020599
87.573616 14.93774 -1.5506812
7.727766 1.3070555 -2.1000578
8.9371901 1.508406 -2.0924947
10.684409 1.8013813 -2.1061497
13.158742 2.2138283 -2.1134298
17.039789 2.860652 -2.1215017
24.37324 4.0874352 -2.1621597
7.7170343 1.2775463 -2.0959167
8.9404793 1.4768803 -2.0920448
13.164441 2.1675577 -2.113117
17.025675 2.8002677 -2.1185768
24.33231 3.9932914 -2.1572788
37.727036 6.1780596 -2.0035253
7.7155061 1.2510263 -2.0943637
8.9414806 1.446604 -2.091145
10.692549 1.7279816 -2.1053865
13.148153 2.12012 -2.1093626
17.030949 2.7431569 -2.1180894
24.286404 3.9031012 -2.1520495
37.747318 6.0529075 -2.0035253
7.7157974 1.224826 -2.0933285
8.9289064 1.4141988 -2.087096
10.698514 1.6906544 -2.1053865
13.145358 2.074964 -2.1077983
17.0012 2.6775262 -2.1132145
24.276264 3.814584 -2.1499579
37.641937 5.9013004 -1.9968263
7.7202353 1.1965359 -2.0933285
8.939806 1.3823586 -2.0884457
10.702699 1.6511289 -2.105005
13.137254 2.0243659 -2.1052952
17.003052 2.6139851 -2.1122396
24.23494 3.7171295 -2.1450772
37.663311 5.7633042 -1.9968263
7.7245684 1.1682336 -2.0933285
8.9448128 1.3495852 -2.0884457
10.68316 1.6099584 -2.100044
13.152399 1.9773796 -2.1065466
16.976738 2.549315 -2.1078525
24.212296 3.6272025 -2.1419394
37.683201 5.6317902 -1.9968263
7.7226672 1.1417618 -2.0917757
8.9492397 1.3199131 -2.0884457
10.684555 1.5739479 -2.0992808
13.13934 1.9308782 -2.1034181
16.977242 2.4918458 -2.1068773
24.145338 3.5353391 -2.1349669
37.741188 5.5125771 -1.9989196
7.7168508 1.1147668 -2.0891874
8.9535666 1.2902311 -2.0884457
10.697488 1.5396287 -2.1008072
13.137851 1.8861759 -2.1021667
16.965761 2.4327197 -2.10444
24.10565 3.4479213 -2.1304348
37.719723 5.3817406 -1.9968263
7.7262435 1.089978 -2.0907402
8.9442883 1.2586296 -2.0852964
10.694759 1.5030503 -2.0992808
13.132296 1.8409495 -2.1002893
16.961941 2.3747897 -2.1029775
24.093273 3.3646517 -2.1283433
37.737362 5.2566352 -1.9968263
7.7380276 1.0613554 -2.0928109
8.943264 1.2234864 -2.0839467
10.700452 1.4619718 -2.0992808
13.135353 1.7899812 -2.0996637
16.955601 2.3045466 -2.1010277
24.050732 3.2646172 -2.1234624
37.686008 5.1020575 -1.9930581
7.7321105 1.0330604 -2.0902226
8.9590693 1.193803 -2.0866458
10.674352 1.4204751 -2.0931747
13.129772 1.7425567 -2.0977864
16.937958 2.2419553 -2.0978591
24.042233 3.1780274 -2.1217194
37.774879 4.979866 -1.9968263
7.7280078 1.0050656 -2.0881522
8.9612494 1.1622741 -2.0861959
10.698715 1.3857248 -2.0969911
16.929548 2.1837466 -2.0959091
23.993893 3.0864642 -2.1164899
37.792038 4.8479662 -1.9968263
7.7389636 0.98040193 -2.0902226
8.9650536 1.1325529 -2.0861959
10.703252 1.3502361 -2.0969911
13.129569 1.6516715 -2.0959091
16.920942 2.1256101 -2.0939593
23.960505 3.0014374 -2.1126552
37.807903 4.7226248 -1.9968263
7.7325854 0.9535526 -2.0876343
8.951354 1.1006746 -2.0821469
10.700104 1.3119181 -2.0954645
13.138895 1.6085995 -2.096535
16.916433 2.0651002 -2.0924966
23.935236 2.9134417 -2.1095176
37.768639 4.5838919 -1.9938955
7.737947 0.92543608 -2.0881522
8.957262 1.0680915 -2.0825968
10.71264 1.2736108 -2.0969911
13.127048 1.5583396 -2.0937192
16.892349 1.9993391 -2.0885971
23.882435 2.8182285 -2.1039395
7.7432055 0.89729291 -2.0886698
8.9591818 1.0350285 -2.0821469
10.711168 1.2355413 -2.0958462
13.136597 1.510664 -2.0943449
16.879839 1.9351547 -2.0861595
23.864416 2.7316678 -2.1014993
37.856037 4.3198485 -1.9968263
7.7270927 0.86809975 -2.0834932
8.9606276 1.0050932 -2.0816972
10.70371 1.196833 -2.0935564
13.139571 1.4668703 -2.094032
16.870382 1.8774157 -2.0842097
23.810436 2.641324 -2.0959213
37.870152 4.1942973 -1.9968263
7.7433724 0.84393406 -2.0871167
8.9679565 0.9742316 -2.0825968
10.715427 1.1621755 -2.0950828
13.140684 1.4205741 -2.0934062
16.866964 1.8174478 -2.0829911
23.799257 2.5602138 -2.0941782
37.884563 4.0620699 -1.9968263
7.7424283 0.8164959 -2.0860815
8.9672613 0.94408107 -2.0816972
10.719419 1.1247669 -2.0950828
13.143357 1.3767868 -2.0930934
16.865002 1.7606839 -2.0820162
23.772377 2.4734168 -2.0910406
37.842205 3.93063 -1.9938955
7.7450933 0.79081815 -2.0860815
8.9666243 0.91237682 -2.0807972
10.71137 1.0880256 -2.0927932
13.148084 1.3308961 -2.0930934
16.839443 1.6986109 -2.0781162
23.709085 2.3873785 -2.0847654
37.911335 3.8041034 -1.9968263
7.7478065 0.76377583 -2.0860815
8.9678154 0.88088328 -2.0803473
10.711195 1.0502433 -2.09203
13.162478 1.2859557 -2.0946577
16.793901 1.634823 -2.071779
23.685543 2.3015256 -2.0819762
37.801128 3.6598194 -1.9903367
7.742733 0.73599297 -2.0840108
8.9688959 0.8493883 -2.0798974
10.716751 1.0130298 -2.0924115
13.170821 1.2403693 -2.0952835
16.805433 1.5767512 -2.0725102
23.641857 2.2139974 -2.0774441
37.813671 3.5278547 -1.9903367
7.7394838 0.7084347 -2.0824583
8.9718046 0.81808197 -2.0798974
10.726087 0.97615117 -2.0935564
13.157364 1.1927845 -2.0924675
16.840492 1.5207534 -2.0761664
23.601816 2.127171 -2.0732608
37.869518 3.3997576 -1.9926394
7.7630787 0.68327564 -2.0881522
8.9687834 0.78624672 -2.0785477
10.739208 0.93955684 -2.0954645
13.165384 1.1471952 -2.0930934
16.82592 1.460247 -2.0737288
23.573368 2.041683 -2.0701232
37.833401 3.2634363 -1.9901272
7.7615657 0.65585327 -2.0871167
8.9617634 0.75411552 -2.0762982
10.736553 0.9015789 -2.0943196
13.171278 1.1013937 -2.0934062
16.830915 1.4015001 -2.0737288
23.568439 1.958388 -2.0690773
37.872429 3.1336486 -1.9915926
7.7657328 0.62891018 -2.0876343
8.9837646 0.72439665 -2.0807972
10.716151 0.86220354 -2.0897403
13.171103 1.0550978 -2.0927804
16.833727 1.3425783 -2.0734851
23.523819 1.867897 -2.0645452
37.883137 3.00142 -1.9915926
7.7525773 0.59925383 -2.0834932
8.988183 0.69318056 -2.0812473
10.721197 0.82307374 -2.0901217
13.176851 1.0069634 -2.0930934
16.838308 1.2838211 -2.0734851
23.494434 1.7830518 -2.0614076
7.7488422 0.57176012 -2.0819407
8.988719 0.66009182 -2.0807972
10.731837 0.78621572 -2.0916483
13.166494 0.95995873 -2.0909033
16.848843 1.2225157 -2.0742164
23.480646 1.6995969 -2.0596645
37.875755 2.7282488 -1.9901272
7.7507911 0.54470974 -2.0819407
8.9754171 0.62762141 -2.077198
10.736474 0.74888867 -2.09203
13.152029 0.91275889 -2.0880876
16.843103 1.1630226 -2.0729976
23.442705 1.6146054 -2.0558295
37.813313 2.5911317 -1.9863591
7.7642107 0.51842123 -2.0850463
8.9814415 0.59654772 -2.0780978
10.742941 0.71166342 -2.0927932
13.166963 0.86762625 -2.0899646
16.85083 1.1074182 -2.0734851
23.444221 1.5325104 -2.055481
37.822128 2.4591126 -1.9863591
7.7697425 0.49291754 -2.0860815
8.9794807 0.56651729 -2.077198
10.723688 0.67468083 -2.0885954
13.169767 0.8239609 -2.0899646
16.850447 1.0512888 -2.0729976
7.7694058 0.46703136 -2.0855639
8.9949274 0.53754848 -2.0803473
10.727827 0.63922989 -2.0889771
13.170455 0.78016341 -2.0896518
16.849878 0.99516624 -2.0725102
23.39818 1.3737185 -2.0506003
37.937298 2.21403 -1.9915926
7.7651258 0.44093749 -2.0840108
8.9927683 0.50749946 -2.0794475
10.729888 0.60365379 -2.0889771
13.161136 0.7358253 -2.0877745
16.870924 0.94027412 -2.0747037
7.7648325 0.41101435 -2.0834932
8.9849205 0.47245216 -2.077198
10.736047 0.56265247 -2.0897403
13.163864 0.68528163 -2.0877745
16.870596 0.87234956 -2.0742164
23.375574 1.204609 -2.0478113
7.7797265 0.38457686 -2.0871167
8.9922781 0.44294396 -2.0785477
10.735986 0.52507961 -2.0893586
13.162119 0.64143533 -2.0871489
16.855553 0.81553185 -2.0720227
23.343815 1.121279 -2.0446737
37.659157 1.8023217 -1.9758918
0.6735006 0.031054921 -0.1806557
8.9918222 0.41146088 -2.0780978
10.725901 0.48894063 -2.087069
13.170197 0.59575129 -2.0880876
16.862263 0.75686347 -2.0725102
23.359348 1.0444006 -2.0457196
37.792915 1.6765103 -1.9825908
0.65044373 0.027716653 -0.17444403
8.9951506 0.38015524 -2.0785477
10.73735 0.45190722 -2.0889771
13.170223 0.54969549 -2.0877745
16.866785 0.69807619 -2.0727541
23.35887 0.96269566 -2.0453708
37.670822 1.5393493 -1.9758918
0.66597962 0.026050216 -0.17858516
8.9983702 0.34882706 -2.0789976
10.734937 0.41427493 -2.0882137
13.160218 0.50326306 -2.0858974
16.884989 0.63980883 -2.0747037
23.36607 0.88129616 -2.0457196
37.747814 1.4105549 -1.97966
0.68537271 0.024412861 -0.18376154
0.66994596 0.023746293 -0.15476632
10.730433 0.37659109 -2.087069
13.159841 0.45955312 -2.0855846
16.877098 0.58346504 -2.0734851
23.380951 0.80014169 -2.0467653
37.680424 1.2829138 -1.9758918
0.70089662 0.022639018 -0.18790263
0.66807699 0.021345509 -0.15431643
10.72966 0.34094542 -2.0866873
13.163338 0.41367874 -2.0858974
16.865143 0.5241133 -2.071779
23.383476 0.72260797 -2.0467653
37.684673 1.1513668 -1.9758918
0.70483351 0.020303357 -0.1889379
0.66425157 0.018902315 -0.15341662
10.722935 0.30326495 -2.0851607
13.168652 0.36783439 -2.0865231
16.868855 0.46529809 -2.0720227
23.393822 0.64119214 -2.0474627
37.688465 1.0198237 -1.9758918
0.6991064 0.017696399 -0.18738499
0.66626161 0.0166323 -0.15386651
10.731779 0.26602995 -2.0866873
13.159983 0.32162017 -2.0849588
16.856483 0.40608081 -2.0703166
23.380081 0.55507207 -2.0460682
37.691795 0.88826811 -1.9758918
0.67212701 0.014548787 -0.18013807
0.67216051 0.01443183 -0.15521623
10.732682 0.2266966 -2.0866873
13.155148 0.27326408 -2.0840201
16.861769 0.34732354 -2.0708041
23.36594 0.47312808 -2.0446737
37.654861 0.74931043 -1.9737984
0.67217368 0.012202358 -0.18013807
0.65077609 0.011586692 -0.1502673
10.741259 0.18936671 -2.0882137
13.157995 0.22737929 -2.0843329
16.864914 0.28554907 -2.0710478
23.387371 0.39190155 -2.0464168
37.697186 0.61852914 -1.9758918
0.67028046 0.0098274583 -0.17962041
0.64691389 0.0093722483 -0.1493675
10.737928 0.15181321 -2.0874505
13.152753 0.18366444 -2.0833945
16.845917 0.22934651 -2.0686104
23.408518 0.31052008 -2.0481601
37.699028 0.49350694 -1.9758918
0.67030936 0.0076048085 -0.17962041
0.65863442 0.0072424314 -0.15206692
10.73052 0.11612128 -2.0859239
13.161214 0.1378309 -2.0846457
16.850586 0.17058563 -2.0690978
23.405434 0.23285793 -2.0478113
37.700523 0.36191767 -1.9758918
0.65874112 0.0051740482 -0.1765146
0.65865564 0.004943463 -0.15206692
10.724971 0.078623161 -2.0847793
13.149763 0.09180259 -2.0827687
16.855049 0.1117869 -2.0695853
23.390165 0.15104716 -2.0464168
37.741501 0.23055008 -1.9779854
0.65875518 0.0028744056 -0.1765146
0.65866894 0.00264412 -0.15206692
10.733033 0.041212849 -2.0863059
13.138151 0.04586219 -2.0808916
16.851366 0.052950237 -2.0690978
23.406488 0.069451533 -2.0478113
37.702129 0.098691627 -1.9758918
0.66648865 0.00058178738 -0.17858516
44.433224 0.031031795 0.77558494
0.64893043 0.00033964525 -0.14981739
10.733111 0.0037495783 -2.0863059
13.150084 -0 -2.0827687
16.847477 -0.0058808792 -2.0686104
23.40659 -0.012255662 -2.0478113
37.702244 -0.032901421 -1.9758918
44.403206 -0.054248776 -0.77506143
0.65296394 -0.0015954952 -0.17496169
0.6391843 -0.0017849439 -0.14756788
10.74288 -0.031874862 -2.0882137
13.14606 -0.043594148 -2.0821428
16.839426 -0.061719995 -2.0676355
23.418373 -0.089920536 -2.0488572
37.701927 -0.1579264 -1.9758918
0.65681797 -0.0038976821 -0.17599694
0.65086645 -0.0040895678 -0.1502673
10.734852 -0.069323614 -2.0866873
13.149778 -0.089509085 -2.0827687
16.851019 -0.12058542 -2.0690978
23.425886 -0.17172378 -2.0495543
37.701145 -0.28952971 -1.9758918
0.63748276 -0.0060083112 -0.17082058
0.65084821 -0.006361491 -0.1502673
10.726692 -0.10671669 -2.0851607
13.141486 -0.13532847 -2.0815172
16.854464 -0.17944798 -2.0695853
23.425144 -0.25349435 -2.0495543
37.699905 -0.42112952 -1.9758918
0.63166285 -0.0081586549 -0.16926767
0.65666771 -0.0087108808 -0.15161701
10.728216 -0.14418556 -2.0855424
13.133032 -0.18109104 -2.0802658
16.865644 -0.23844831 -2.0710478
23.444038 -0.33554694 -2.0512974
37.698208 -0.55272418 -1.9758918
0.64322001 -0.010553676 -0.17237349
0.63714862 -0.010676526 -0.14711799
10.731574 -0.18169962 -2.0863059
13.132319 -0.22693276 -2.0802658
16.848831 -0.29703906 -2.0690978
23.414837 -0.41688332 -2.0488572
37.696049 -0.68431211 -1.9758918
0.66249394 -0.013183218 -0.17754988
0.6429525 -0.013018878 -0.14846769
10.732838 -0.21919879 -2.0866873
13.135398 -0.27285379 -2.0808916
16.839754 -0.35568291 -2.0681231
23.429173 -0.49895319 -2.0502515
37.693428 -0.81589174 -1.9758918
0.66051263 -0.015450495 -0.17703223
0.64485139 -0.015309376 -0.1489176
10.716305 -0.25628653 -2.0836341
13.13239 -0.31865528 -2.0805786
16.846348 -0.41465783 -2.0690978
23.435257 -0.58093071 -2.0509489
37.690353 -0.94746137 -1.9758918
0.66045463 -0.017756023 -0.17703223
0.6623261 -0.018037699 -0.15296671
10.713382 -0.29363805 -2.0832527
13.146996 -0.36493248 -2.0830817
16.832891 -0.47312543 -2.0676355
23.417152 -0.66228086 -2.0495543
37.686817 -1.0790195 -1.9758918
0.6623196 -0.020119989 -0.17754988
0.65641564 -0.020169986 -0.15161701
10.716217 -0.33115423 -2.0840161
13.133795 -0.41045162 -2.0812044
16.84701 -0.53238189 -2.0695853
23.430628 -0.74452418 -2.0509489
37.682819 -1.2105643 -1.9758918
0.67382979 -0.022824185 -0.1806557
0.64855468 -0.022081384 -0.14981739
10.714995 -0.36855879 -2.0840161
13.114594 -0.4533883 -2.0783885
16.849119 -0.58838415 -2.0700727
23.435852 -0.82658875 -2.0516462
37.678596 -1.3355184 -1.9758918
0.68533349 -0.025489368 -0.18376154
0.64263159 -0.024125803 -0.14846769
10.721561 -0.40438494 -2.0855424
13.112931 -0.49916402 -2.0783885
16.823158 -0.64628053 -2.067148
23.425018 -0.90399301 -2.0509489
37.673706 -1.4670331 -1.9758918
0.68910092 -0.028038552 -0.18479681
0.64643764 -0.026528671 -0.1493675
10.710277 -0.44140348 -2.0836341
13.130846 -0.54575396 -2.0815172
16.836668 -0.70566541 -2.0690978
23.421721 -0.98575598 -2.0509489
37.668354 -1.5985299 -1.9758918
0.70250857 -0.031040728 -0.18842028
0.66775608 -0.029738717 -0.15431643
10.716516 -0.47913745 -2.0851607
13.136754 -0.59194154 -2.0827687
16.82617 -0.76407188 -2.0681231
23.406195 -1.0669626 -2.0499029
37.662544 -1.7300072 -1.9758918
0.67345101 -0.032112554 -0.1806557
0.66765374 -0.031952914 -0.15431643
10.704973 -0.51606947 -2.0832527
13.114988 -0.6345467 -2.0796399
16.831474 -0.82025182 -2.0690978
23.450087 -1.1510032 -2.0540864
37.656601 -1.8548913 -1.9758918
0.66948217 -0.034148797 -0.17962041
0.65002257 -0.033383701 -0.1502673
10.707125 -0.55176771 -2.0840161
13.104802 -0.67991322 -2.0783885
16.824543 -0.87879252 -2.0686104
23.45808 -1.229386 -2.0551324
37.649899 -1.9863261 -1.9758918
0.66357195 -0.036170084 -0.17806751
0.64211881 -0.035225525 -0.14846769
10.701212 -0.58892334 -2.0832527
13.110238 -0.72609037 -2.0796399
16.813446 -0.93707383 -2.0676355
23.457623 -1.3114847 -2.055481
37.642735 -2.1177368 -1.9758918
0.6634416 -0.038486164 -0.17806751
0.64199191 -0.037466723 -0.14846769
10.691252 -0.62581509 -2.0817263
13.11354 -0.77219754 -2.0805786
16.810072 -0.995758 -2.0676355
23.444702 -1.3969783 -2.0547836
37.595242 -2.2467387 -1.9737984
0.65558332 -0.040441751 -0.17599694
0.65158236 -0.040309094 -0.1507172
10.67909 -0.66438675 -2.0798182
13.114566 -0.82050258 -2.0812044
16.814419 -1.0549272 -2.0686104
23.435707 -1.4785563 -2.054435
37.626617 -2.3870459 -1.9758918
0.65543818 -0.042729918 -0.17599694
0.65920854 -0.043206811 -0.15251681
10.688459 -0.70243216 -2.0821078
13.097823 -0.86536437 -2.0790143
16.806479 -1.1162852 -2.0681231
23.458237 -1.5622066 -2.0568755
37.618057 -2.518373 -1.9758918
0.66299433 -0.045547184 -0.17806751
0.64350855 -0.044321373 -0.1489176
10.68986 -0.74000871 -2.082871
13.085028 -0.90810972 -2.07745
16.806644 -1.1722875 -2.0686104
23.456617 -1.6443603 -2.0572243
37.609497 -2.643105 -1.9758918
0.67632765 -0.04871707 -0.18169098
0.63946259 -0.046285994 -0.14801779
10.681472 -0.77502728 -2.0817263
13.091629 -0.95449764 -2.0790143
16.80245 -1.2309464 -2.0686104
23.458982 -1.7227199 -2.0579214
37.60004 -2.7743707 -1.9758918
0.67422712 -0.050932076 -0.18117334
0.65289921 -0.049550146 -0.15116711
10.676744 -0.81215894 -2.0813446
13.094127 -1.0006417 -2.079953
16.790134 -1.2889826 -2.0676355
23.44488 -1.8039854 -2.0572243
37.59013 -2.9056025 -1.9758918
0.65671259 -0.051915064 -0.1765146
0.66049272 -0.052445892 -0.15296671
10.675801 -0.8495785 -2.0817263
13.090554 -1.0463426 -2.079953
16.785532 -1.3475833 -2.0676355
23.434467 -1.8854926 -2.0568755
37.579758 -3.0367985 -1.9758918
0.66037798 -0.054525029 -0.17754988
0.65642154 -0.054429065 -0.15206692
10.670815 -0.88667631 -2.0813446
13.073043 -1.0908811 -2.0777628
16.788639 -1.4068305 -2.0686104
23.447598 -1.9689496 -2.0586185
37.568928 -3.1679578 -1.9758918
0.66018367 -0.056829851 -0.17754988
0.65040302 -0.056216639 -0.1507172
10.671566 -0.92425781 -2.0821078
13.061282 -1.1358232 -2.0765114
16.783625 -1.4654251 -2.0686104
23.428675 -2.0497432 -2.0575728
37.55764 -3.2990785 -1.9758918
0.66575366 -0.059651181 -0.17910279
0.65991765 -0.059244383 -0.15296671
10.680007 -0.96256036 -2.0843976
13.065314 -1.1798404 -2.0777628
16.758902 -1.5192813 -2.0661731
23.437248 -2.1329565 -2.0589671
37.490803 -3.4185281 -1.9729611
0.66170508 -0.061501008 -0.17806751
0.65000528 -0.060642458 -0.1507172
10.655254 -0.99596131 -2.0801997
13.068983 -1.2261777 -2.0790143
16.761402 -1.5785161 -2.067148
23.441948 -2.2117887 -2.0600131
37.534313 -3.554647 -1.9758918
0.65956342 -0.063624918 -0.17754988
0.64784998 -0.062723234 -0.1502673
10.657576 -1.0337178 -2.0813446
13.062657 -1.2715982 -2.0787015
16.759743 -1.6374009 -2.0676355
23.418222 -2.2920501 -2.0586185
37.521679 -3.6856444 -1.9758918
0.66125959 -0.066119045 -0.17806751
0.63987106 -0.064206019 -0.14846769
10.653902 -1.0709132 -2.0813446
13.042416 -1.3156016 -2.0761983
16.761826 -1.6966928 -2.0686104
23.441793 -2.376997 -2.0614076
37.508583 -3.8165972 -1.9758918
0.66871113 -0.069222532 -0.18013807
8.9414349 -0.92873931 -2.0753984
10.650099 -1.1080958 -2.0813446
13.033814 -1.3607099 -2.0755727
16.7558 -1.7551923 -2.0686104
23.441278 -2.4596412 -2.0621049
37.495033 -3.9475031 -1.9758918
0.65501928 -0.070116989 -0.1765146
8.9323254 -0.95932072 -2.0740488
10.644213 -1.1450546 -2.0809629
13.028985 -1.4061981 -2.0755727
16.733784 -1.8119606 -2.0666604
23.464243 -2.544889 -2.0648937
37.481026 -4.0783615 -1.9758918
46.516529 -5.0779572 -0.81677264
7.7362771 -0.85545963 -2.0855639
8.9347334 -0.99113923 -2.0753984
10.642103 -1.1824198 -2.0813446
13.029887 -1.4523256 -2.0765114
16.7313 -1.8708024 -2.067148
23.490856 -2.63077 -2.0680313
37.46656 -4.2091694 -1.9758918
46.494549 -5.239851 -0.81670278
7.7180429 -0.87935984 -2.081423
8.9352694 -1.0212049 -2.0762982
10.638124 -1.2177038 -2.0813446
13.024999 -1.4955263 -2.0765114
16.725006 -1.926275 -2.067148
23.545341 -2.71596 -2.0736094
37.500015 -4.3388996 -1.978404
46.739113 -5.4244337 -0.82131022
7.7187634 -0.90674627 -2.0824583
8.9277792 -1.0519326 -2.0753984
10.635757 -1.2550606 -2.0817263
13.013814 -1.5402864 -2.0755727
16.737892 -1.9869847 -2.0695853
23.55946 -2.8009551 -2.0757012
37.437042 -4.464097 -1.9758918
46.886681 -5.6074977 -0.82424223
7.7078791 -0.93275583 -2.0803876
8.9201832 -1.0826203 -2.0744987
10.629364 -1.2919418 -2.0813446
12.992672 -1.5837915 -2.0730698
16.719032 -2.0439537 -2.0681231
23.502073 -2.8773649 -2.0715177
37.42123 -4.5947499 -1.9758918
7.7141614 -0.96084958 -2.0829759
8.9163494 -1.1137509 -2.0744987
10.616997 -1.3280623 -2.0798182
13.000784 -1.6308558 -2.0752599
16.711796 -2.1023018 -2.0681231
23.104441 -2.9105761 -2.0373526
37.404964 -4.7253456 -1.9758918
7.7184253 -0.98875308 -2.0850463
8.9124079 -1.144868 -2.0744987
10.604506 -1.3641127 -2.0782917
13.002849 -1.6772379 -2.0765114
16.700418 -2.1601143 -2.0676355
22.738482 -2.9451423 -2.0059764
37.388241 -4.8558841 -1.9758918
7.6976891 -1.01342 -2.0803876
8.9238138 -1.1780115 -2.0780978
10.595788 -1.4006065 -2.0775285
12.998874 -1.7228756 -2.0768242
16.704584 -2.2199657 -2.0690978
22.451567 -2.9877021 -1.981573
37.371063 -4.9863648 -1.9758918
7.6998482 -1.0410603 -2.0819407
8.9099922 -1.2078453 -2.0758483
10.596671 -1.4383764 -2.0786731
12.975163 -1.7658421 -2.0740085
16.712866 -2.277492 -2.0710478
22.204111 -3.033689 -1.9606555
37.353432 -5.1167836 -1.9758918
7.7001801 -1.0671185 -2.0829759
8.896286 -1.2360444 -2.0735989
10.603509 -1.4751312 -2.0809629
12.969236 -1.8088597 -2.0740085
16.732746 -2.3367453 -2.0744603
22.032133 -3.0846512 -1.946362
37.336258 -5.2406235 -1.9758918
7.7042503 -1.0937337 -2.0850463
8.895997 -1.2660877 -2.0744987
10.606334 -1.5113933 -2.0824895
12.959256 -1.8512987 -2.0733826
16.693047 -2.3906367 -2.0705605
21.950783 -3.1475148 -1.9400867
37.318676 -5.3644061 -1.9758918
7.6965613 -1.1200633 -2.0840108
8.895381 -1.2976956 -2.0753984
10.579624 -1.5452861 -2.0782917
12.970306 -1.8990992 -2.0761983
16.692455 -2.4500444 -2.0715353
21.829273 -3.207896 -1.9303253
37.299721 -5.4946404 -1.9758918
7.6830521 -1.145498 -2.081423
8.8946505 -1.3293144 -2.0762982
10.570283 -1.5816253 -2.0775285
12.96555 -1.9446554 -2.0765114
16.687727 -2.5088875 -2.0720227
21.384501 -3.2188323 -1.8919767
37.280315 -5.6248069 -1.9758918
7.6751866 -1.1717267 -2.0803876
8.9034405 -1.3624178 -2.0794475
10.576342 -1.6202968 -2.0798182
12.946969 -1.988103 -2.0746341
16.678869 -2.5671234 -2.0720227
21.158499 -3.2603848 -1.8729769
37.260452 -5.7549052 -1.9758918
7.6786847 -1.1997039 -2.0824583
8.8774519 -1.3901719 -2.0744987
10.5745 -1.6578133 -2.0805814
12.943853 -2.0338974 -2.0752599
16.673727 -2.6259453 -2.0725102
20.995445 -3.3103282 -1.8595549
37.240139 -5.8849335 -1.9758918
7.6782651 -1.22711 -2.0834932
8.8686981 -1.4205351 -2.0735989
10.560895 -1.6934719 -2.0790551
12.934725 -2.0787542 -2.0749471
16.640942 -2.6803434 -2.0695853
20.765427 -3.3483896 -1.8402063
37.219368 -6.0148902 -1.9758918
7.6701221 -1.2532816 -2.0824583
8.8713779 -1.4527439 -2.0753984
10.551044 -1.7296907 -2.0782917
12.939086 -2.1258137 -2.0768242
16.619732 -2.73648 -2.0681231
20.739254 -3.4222054 -1.838986
37.198147 -6.144774 -1.9758918
7.6559501 -1.279793 -2.07987
47.90786 -8.0084305 0.84783792
8.8681746 -1.4840235 -2.0758483
10.542698 -1.7680259 -2.0779099
47.866749 -8.0359144 4.2464023
12.933154 -2.1735508 -2.077137
47.807495 -8.0345459 5.952343
16.613993 -2.7951357 -2.0686104
20.619127 -3.4763606 -1.8293991
37.175377 -6.2810707 -1.9758918
47.695229 -8.0670433 -0.84434742
7.6514359 -1.3065094 -2.07987
47.720497 -8.1570139 0.84504551
8.8626757 -1.516517 -2.0758483
47.834167 -8.1850376 2.5433183
10.540332 -1.8054788 -2.0786731
47.920883 -8.2170935 4.2537231
12.909915 -2.2160094 -2.0746341
47.812943 -8.215766 5.9567304
16.619787 -2.8558018 -2.0705605
20.524399 -3.5341129 -1.8220779
37.153221 -6.4107981 -1.9758918
47.682541 -8.2362051 -0.84462667
7.6546745 -1.3332013 -2.0819407
47.850784 -8.3426924 0.84783792
8.8537588 -1.5452281 -2.0749483
10.532352 -1.8400842 -2.0782917
12.921952 -2.2622144 -2.0777628
47.871468 -8.3893518 5.9674549
16.614136 -2.9115846 -2.0710478
20.371277 -3.5773439 -1.8095275
37.13176 -6.533967 -1.9758918
7.6578193 -1.3599288 -2.0840108
8.8524237 -1.5752628 -2.0758483
10.520068 -1.8758039 -2.0771468
12.892987 -2.3012347 -2.0743213
16.588238 -2.9667649 -2.0690978
20.36651 -3.6498365 -1.8102247
37.108727 -6.6635413 -1.9758918
7.6470814 -1.3869529 -2.0824583
8.8427553 -1.6070011 -2.0749483
10.51119 -1.9139975 -2.0767653
12.89807 -2.3509538 -2.0765114
16.573347 -3.0268304 -2.0686104
20.386314 -3.730556 -1.8131881
37.084053 -6.7995067 -1.9758918
7.6400471 -1.4146198 -2.0819407
8.8483019 -1.6415333 -2.0776479
10.508306 -1.9513934 -2.0775285
12.881598 -2.3967664 -2.0752599
16.566586 -3.085391 -2.0690978
20.267403 -3.7819586 -1.8037752
37.060093 -6.9289131 -1.9758918
7.6372123 -1.4403052 -2.0824583
8.8408947 -1.6705046 -2.077198
10.507564 -1.9873244 -2.0786731
35.376118 -6.6971769 3.1499829
12.861936 -2.4372633 -2.0733826
16.571863 -3.14327 -2.0710478
20.154926 -3.8301771 -1.7948854
37.036911 -7.0517707 -1.9758918
7.6380849 -1.4667163 -2.0840108
8.8276529 -1.6983401 -2.0753984
10.504772 -2.0229001 -2.0794365
35.428055 -6.8287811 3.1566067
12.865419 -2.482147 -2.0752599
16.549654 -3.1959486 -2.0695853
19.950415 -3.8599029 -1.7778028
37.013325 -7.1745505 -1.9758918
7.6407633 -1.4935193 -2.0860815
8.823884 -1.7279789 -2.0758483
10.503785 -2.058857 -2.0805814
32.922218 -6.4590816 2.935231
12.847425 -2.5228932 -2.0736954
16.523384 -3.2477489 -2.0676355
20.326521 -4.0026436 -1.8124908
36.98933 -7.2972522 -1.9758918
7.6314492 -1.520759 -2.0850463
8.8213139 -1.7610714 -2.0767481
10.478843 -2.0938792 -2.0771468
32.913952 -6.5828304 2.9366255
12.855525 -2.5734541 -2.0765114
16.506897 -3.3103895 -2.067148
20.188646 -4.0524139 -1.8015091
36.962334 -7.432776 -1.9758918
7.6185212 -1.5458517 -2.0829759
8.822752 -1.7934055 -2.0785477
10.473392 -2.1308358 -2.0775285
32.918106 -6.7032471 2.9390657
12.836786 -2.6163402 -2.0749471
16.499132 -3.3687832 -2.0676355
20.258314 -4.1400146 -1.8090045
36.936165 -7.5617528 -1.9758918
7.611187 -1.5720453 -2.0824583
8.8107128 -1.8230071 -2.077198
10.475505 -2.1693726 -2.0794365
12.825642 -2.6607318 -2.0746341
16.491159 -3.4271636 -2.0681231
20.165714 -4.1944752 -1.8020321
36.909546 -7.6906381 -1.9758918
7.6132154 -1.6001931 -2.0845287
8.7969913 -1.85061 -2.0753984
10.496684 -2.211998 -2.0851607
12.816749 -2.7032487 -2.0746341
16.46805 -3.4793689 -2.0666604
20.131458 -4.260715 -1.8002889
36.883839 -7.8129926 -1.9758918
7.6154237 -1.6270452 -2.0865991
8.7923832 -1.8817137 -2.0758483
10.472013 -2.2430935 -2.0817263
12.811096 -2.7487998 -2.0752599
16.444162 -3.5343297 -2.0651982
20.102829 -4.3280258 -1.7990687
7.6131845 -1.6557672 -2.0876343
8.7895699 -1.9132223 -2.0767481
10.456049 -2.2797873 -2.0801997
12.804794 -2.7965791 -2.0758855
16.420086 -3.589165 -2.0637355
19.978607 -4.3743076 -1.7893074
36.826984 -8.076726 -1.9758918
26.832603 -5.8897128 6.3422704
7.592268 -1.678995 -2.0834932
8.7824984 -1.9454248 -2.0767481
10.451859 -2.3171215 -2.0809629
12.794954 -2.8412592 -2.0758855
26.720495 -5.9384718 3.360913
16.418449 -3.6519103 -2.0651982
26.677387 -5.9337773 4.3285422
19.692892 -4.3838425 -1.7650781
26.707073 -5.9501648 5.3186102
36.798569 -8.2052259 -1.9758918
26.716784 -5.9621172 6.3197751
7.5939002 -1.7071818 -2.0855639
26.607765 -5.9816813 0.47603184
8.781702 -1.9758211 -2.0780978
26.588848 -5.9871793 1.4283531
10.447538 -2.3544545 -2.0817263
26.574409 -5.9936757 2.3833609
12.777756 -2.8819351 -2.0746341
26.596092 -6.0034442 3.3477511
16.398504 -3.7045858 -2.0642233
26.625685 -6.0198922 4.3235359
19.566702 -4.4274931 -1.7551423
26.679537 -6.036963 5.3170838
26.525023 -6.0068665 -1.4253175
26.75388 -6.0636024 6.333272
26.57283 -6.0274448 -0.47561297
7.5957308 -1.7340744 -2.0876343
26.493151 -6.0531435 0.47435641
8.7671528 -2.0047255 -2.0762982
26.532742 -6.0719352 1.426469
10.433932 -2.3877728 -2.0805814
26.569925 -6.0853248 2.3847554
12.769543 -2.9269614 -2.0749471
26.594324 -6.1006842 3.3501885
16.393211 -3.7635815 -2.0651982
26.716171 -6.138453 4.3416829
19.466475 -4.472723 -1.7474726
26.46302 -6.090013 -1.4231194
26.461992 -6.0995035 -0.47400737
7.5839858 -1.7592683 -2.0860815
26.491337 -6.1501069 0.47470546
8.7468147 -2.0322292 -2.073149
26.546402 -6.1726575 1.4283531
10.437008 -2.4268477 -2.082871
12.765018 -2.9728615 -2.0758855
26.5574 -6.1898737 3.3482385
16.368372 -3.8180754 -2.0637355
19.67775 -4.5936394 -1.767867
26.447433 -6.183713 -1.4234335
26.456116 -6.1954832 -0.47428659
7.5853209 -1.7875032 -2.0881522
8.7510471 -2.0654347 -2.0758483
10.415098 -2.4601057 -2.0801997
12.752642 -3.016947 -2.0755727
26.54336 -6.2843676 3.3492136
16.339495 -3.8715272 -2.0617857
19.397942 -4.5997806 -1.7441607
36.681938 -8.711813 -1.9758918
26.426548 -6.2859445 -0.47414699
7.5790348 -1.8139701 -2.0881522
8.7570496 -2.099149 -2.0789976
10.408356 -2.4969039 -2.0805814
12.740112 -3.060982 -2.0752599
26.52898 -6.378839 3.3501885
16.33746 -3.9313254 -2.0632482
19.730431 -4.7514281 -1.7755368
36.682373 -8.8472967 -1.9775667
26.23728 -6.3377719 -0.47114518
7.5651469 -1.8385897 -2.0860815
8.7591362 -2.1320083 -2.0812473
10.409114 -2.5355437 -2.0824895
12.723593 -3.1040304 -2.0743213
26.612617 -6.4972987 3.3635941
16.308212 -3.984561 -2.0612984
19.742754 -4.8273692 -1.7781514
36.612469 -8.965786 -1.9754732
26.220821 -6.430747 -0.47124988
7.5624347 -1.8659114 -2.0871167
8.7554245 -2.1635056 -2.0821469
10.404011 -2.5728054 -2.0832527
12.71268 -3.1484249 -2.0743213
16.30191 -4.0433741 -2.0622733
26.539785 -6.5875988 4.3310452
19.810867 -4.9173737 -1.7858212
36.575134 -9.0920877 -1.9751592
26.2215 -6.5280328 -0.47166875
7.5596237 -1.8932365 -2.0881522
8.7459288 -2.1935802 -2.0816972
10.393064 -2.6086287 -2.082871
12.70736 -3.194226 -2.0752599
26.633989 -6.6998796 3.3721251
16.268446 -4.095408 -2.0598357
26.551111 -6.6888866 4.3366771
19.878592 -5.0079126 -1.7934909
36.545109 -9.2201929 -1.9752638
26.186922 -6.6165843 -0.47145933
7.551096 -1.919137 -2.0876343
8.7306643 -2.222173 -2.0798974
10.370577 -2.6414995 -2.0801997
12.696133 -3.2385635 -2.0752599
16.265593 -4.1551185 -2.0612984
19.835892 -5.0708561 -1.7912247
36.491421 -9.3422537 -1.9741124
26.225649 -6.7238455 -0.47257626
7.5331278 -1.9425895 -2.0845287
8.7228537 -2.252635 -2.0798974
10.372698 -2.6806307 -2.0824895
12.694313 -3.2853363 -2.0768242
26.505856 -6.8647523 3.3618879
16.239458 -4.2088823 -2.0598357
19.696573 -5.1085529 -1.7802432
36.603573 -9.5072336 -1.9819629
7.5337763 -1.9708288 -2.0865991
8.7191067 -2.2825358 -2.0807972
10.357581 -2.7153285 -2.0813446
12.664241 -3.3224015 -2.0736954
26.482944 -6.9526114 3.3618879
16.229252 -4.2637196 -2.0603232
19.747986 -5.1955252 -1.7865183
36.537079 -9.6194105 -1.9800788
7.529067 -1.9962958 -2.0871167
8.6997852 -2.3099568 -2.0780978
10.365596 -2.7541978 -2.0847793
12.654474 -3.3670955 -2.0740085
22.763952 -6.0612736 2.8924472
16.206596 -4.3183002 -2.0593483
19.628616 -5.2337775 -1.7772799
36.464684 -9.7365847 -1.9779854
7.5220528 -2.0225649 -2.0871167
8.7010775 -2.342844 -2.0803473
10.355918 -2.7903636 -2.0847793
12.640738 -3.4107327 -2.0736954
22.792484 -6.1541514 2.8987844
16.179928 -4.3717394 -2.0578859
19.716009 -5.330864 -1.786867
36.445896 -9.8679857 -1.9788227
7.5186749 -2.0498259 -2.0881522
8.6909657 -2.3726885 -2.0798974
10.340434 -2.8249433 -2.0836341
12.626849 -3.4543149 -2.0733826
22.755545 -6.2294812 2.8968344
16.168396 -4.4292393 -2.0583735
19.718416 -5.405447 -1.7887844
36.511383 -10.022638 -1.9842656
7.5058875 -2.0745146 -2.0865991
8.6882658 -2.4045708 -2.0812473
10.32105 -2.8584008 -2.0817263
12.620425 -3.4999537 -2.0743213
16.145185 -4.4835262 -2.0573983
19.65144 -5.4609079 -1.7844267
36.472324 -10.148954 -1.9840564
7.5023203 -2.1017444 -2.0876343
8.6723137 -2.4327786 -2.0794475
10.318569 -2.8965328 -2.0832527
12.606229 -3.5434511 -2.0740085
22.589201 -6.3537922 2.8812351
16.125616 -4.5387802 -2.056911
36.452053 -10.280541 -1.9848937
7.5209565 -2.1353066 -2.0948815
22.605816 -6.4223766 0.41020137
8.6675177 -2.4641016 -2.0803473
10.314062 -2.9341457 -2.0843976
12.589985 -3.5863512 -2.0733826
22.71579 -6.4750495 2.9002469
16.109673 -4.5950413 -2.056911
19.700968 -5.6231217 -1.7924451
36.42363 -10.409917 -1.9853123
7.506031 -2.15941 -2.0928109
22.58326 -6.5012469 0.41020137
8.656991 -2.4938023 -2.0798974
10.305642 -2.9706743 -2.0847793
12.583082 -3.6319203 -2.0743213
22.693048 -6.5543022 2.9002469
16.082094 -4.6479397 -2.0554485
19.679304 -5.6913033 -1.7922707
36.410088 -10.543661 -1.9865683
7.4984474 -2.1855981 -2.0928109
8.657588 -2.5267358 -2.0821469
10.28202 -3.0027769 -2.0821078
12.581704 -3.6791475 -2.0761983
22.72719 -6.6502018 2.9075592
16.05434 -4.7007012 -2.0539861
18.632566 -5.459136 -1.6986655
36.415226 -10.683063 -1.9888712
22.7377 -6.6791344 -0.41365695
7.4666858 -2.2046471 -2.0860815
8.6580591 -2.5597034 -2.0843966
10.273356 -3.0392067 -2.0824895
23.634066 -6.9962425 2.1564074
12.559316 -3.7202389 -2.0746341
22.658159 -6.7159548 2.9017093
16.04628 -4.7561712 -2.0549612
19.51494 -5.7917042 -1.7809405
36.35474 -10.803281 -1.9876151
22.581251 -6.7146015 -0.41121358
7.4685893 -2.2321615 -2.0886698
8.6532564 -2.5895176 -2.0852964
10.25946 -3.0721314 -2.0817263
23.324455 -6.9887981 2.1302607
12.546909 -3.7618666 -2.0746341
22.593933 -6.7785039 2.896347
16.022812 -4.8070731 -2.0539861
19.459372 -5.8454962 -1.7776285
36.326363 -10.92608 -1.9880338
7.4648438 -2.2580347 -2.089705
22.684057 -6.8660045 0.41369185
8.640892 -2.6170692 -2.0843966
10.260489 -3.1095521 -2.0840161
23.651974 -7.1724935 2.162334
12.530584 -3.802305 -2.0740085
21.724169 -6.5961657 2.7876396
16.009733 -4.8641291 -2.0544736
19.340755 -5.8798575 -1.7685643
36.293751 -11.047646 -1.9882432
22.670834 -6.9095416 -0.41369185
7.4587631 -2.2846437 -2.0902226
23.329121 -7.1502404 0.42590854
8.6372929 -2.6489296 -2.085746
10.251451 -3.145925 -2.0843976
21.94692 -6.7391768 2.0085912
12.532342 -3.8506634 -2.0765114
21.685835 -6.6672912 2.7856898
15.973685 -4.9141469 -2.0520363
19.329632 -5.950264 -1.7694358
36.277874 -11.181326 -1.9894991
7.4452081 -2.3089492 -2.0886698
22.822739 -7.0822816 0.41711253
8.6149664 -2.6750181 -2.0825968
10.236656 -3.1805253 -2.0836341
21.957506 -6.8263912 2.0117288
12.520711 -3.8949728 -2.0768242
21.66622 -6.7441273 2.7861772
15.956434 -4.9698758 -2.0520363
19.36581 -6.0354862 -1.7746652
36.265316 -11.316222 -1.9909648
22.27466 -6.9591146 -0.40733919
7.4297299 -2.3326092 -2.0865991
22.767353 -7.1523156 0.41655406
8.6223068 -2.7103329 -2.0866458
10.212382 -3.2121146 -2.0809629
21.830917 -6.870697 2.002316
12.514574 -3.9410281 -2.0780756
15.961707 -5.0327067 -2.0549612
19.171717 -6.0484986 -1.7588028
36.26368 -11.454772 -1.9930581
22.250233 -7.0368237 -0.40733919
7.4233832 -2.3591146 -2.0871167
21.838963 -6.9445109 0.40000919
8.6146517 -2.7410047 -2.087096
22.437965 -7.1436124 1.234082
10.212332 -3.2513168 -2.0832527
22.357334 -7.1222391 2.0528662
12.485684 -3.9798887 -2.0755727
15.962954 -5.0944276 -2.0573983
19.027119 -6.0759873 -1.7474726
36.253914 -11.591019 -1.9947329
22.217915 -7.112011 -0.40719953
7.4261374 -2.3885617 -2.0902226
21.898344 -7.0476565 0.40154499
8.5809174 -2.7632937 -2.0812473
22.439507 -7.2304668 1.2355474
10.197183 -3.2857404 -2.0824895
22.233732 -7.1684456 2.043802
12.466078 -4.0216284 -2.0746341
15.971519 -5.1586604 -2.0608108
19.214336 -6.209765 -1.7666469
36.205635 -11.71504 -1.9943142
7.4159179 -2.4138713 -2.089705
22.166422 -7.21942 0.40692031
8.5749245 -2.7944372 -2.0821469
22.433121 -7.3149438 1.2365941
10.187519 -3.3219242 -2.082871
22.185844 -7.2385964 2.0417104
12.455718 -4.0663443 -2.0752599
22.830441 -7.4577284 2.9489946
15.93832 -5.209446 -2.0588608
19.137629 -6.2588377 -1.7615919
36.232849 -11.863723 -1.9980823
22.213327 -7.2818966 -0.40803728
7.4092813 -2.4403474 -2.0902226
22.255041 -7.3343058 0.40901458
8.5762215 -2.8280141 -2.0848465
22.437798 -7.4032178 1.2382689
10.168404 -3.3550043 -2.0813446
12.439572 -4.1091785 -2.0749471
22.408461 -7.4065499 2.8978095
15.912499 -5.2625561 -2.0578859
19.155386 -6.3387465 -1.7652525
22.15193 -7.3389196 -1.2229868
22.19157 -7.3606501 -0.40810707
7.3915539 -2.4631422 -2.0876343
22.335537 -7.4473672 0.41096926
8.5662985 -2.857933 -2.0848465
10.162217 -3.3923428 -2.0824895
23.143902 -7.7303691 2.1347928
12.434521 -4.1557064 -2.0765114
22.248804 -7.4400277 2.8805041
15.897798 -5.3193283 -2.0583735
19.07835 -6.3872299 -1.7601974
22.207607 -7.4434934 -1.2274876
22.252951 -7.4673328 -0.4097127
7.3829107 -2.4889281 -2.0876343
8.552578 -2.8865716 -2.0839467
22.408274 -7.5673494 1.239525
10.155893 -3.4296794 -2.0836341
12.414325 -4.1971879 -2.0755727
22.280991 -7.537365 2.8880601
15.882894 -5.3760624 -2.0588608
19.080471 -6.4620943 -1.7624633
36.155811 -12.259169 -2.0008039
22.291128 -7.5668178 -0.41089946
7.3814921 -2.5171785 -2.089705
8.5332279 -2.91326 -2.0816972
10.142002 -3.4644744 -2.0832527
12.390253 -4.2372994 -2.0740085
22.239517 -7.609952 2.8861101
15.871543 -5.4340439 -2.0598357
19.19351 -6.57515 -1.7750138
36.041008 -12.360682 -1.9968263
22.322657 -7.6601682 -0.41194662
7.3817916 -2.5460787 -2.0922933
8.525363 -2.9421768 -2.0821469
10.133558 -3.5011382 -2.0840161
12.379868 -4.2796555 -2.0746341
22.386755 -7.7433581 2.908534
15.853436 -5.4866457 -2.0598357
19.057484 -6.6029701 -1.7645551
35.999821 -12.48013 -1.9968263
22.605602 -7.8455701 -0.41767099
7.3787808 -2.5724514 -2.0938461
8.5224009 -2.9744868 -2.0839467
10.110771 -3.5308392 -2.0817263
12.364854 -4.3228436 -2.0746341
22.389568 -7.8319421 2.9124339
15.834188 -5.5419512 -2.0598357
19.020441 -6.6608629 -1.7631607
35.956036 -12.605717 -1.9968263
7.3497152 -2.5911274 -2.0881522
8.5082893 -3.0029197 -2.0830467
22.249075 -7.856966 1.2365941
10.096534 -3.5654571 -2.0813446
12.345963 -4.3646607 -2.0740085
15.831587 -5.6031494 -2.0620294
18.756676 -6.6420875 -1.7408488
22.335442 -7.9269481 -0.41369185
7.3497233 -2.6200097 -2.0907402
8.5106039 -3.0371859 -2.0861959
10.09327 -3.6039798 -2.0832527
12.321352 -4.4044056 -2.0724442
15.752124 -5.6369753 -2.0542297
18.859053 -6.7525177 -1.7525277
35.867157 -12.856428 -1.9968263
22.285049 -7.9967594 -0.41327298
7.3478031 -2.6482697 -2.0928109
8.477952 -3.0589385 -2.0807972
10.082476 -3.6398568 -2.0836341
12.307761 -4.4480596 -2.072757
15.668884 -5.6689634 -2.0459425
18.074759 -6.5429716 -1.6817572
35.822063 -12.981551 -1.9968263
7.3457751 -2.6765475 -2.0948815
8.4690542 -3.0891812 -2.0812473
10.066021 -3.6736829 -2.082871
12.297725 -4.4930282 -2.0736954
15.548326 -5.6868029 -2.0327806
17.787992 -6.5094814 -1.6571794
35.776531 -13.106512 -1.9968263
7.3327613 -2.7008371 -2.0938461
8.4618769 -3.1200736 -2.0821469
10.043925 -3.7053995 -2.0809629
12.280114 -4.5352435 -2.0733826
15.448318 -5.711441 -2.0223
17.886623 -6.6164627 -1.6685095
7.3178577 -2.7243948 -2.0922933
8.454586 -3.1509526 -2.0830467
10.036449 -3.7424951 -2.0821078
12.253104 -4.5739369 -2.0715053
15.359487 -5.7396216 -2.0132816
18.811459 -7.0333161 -1.7570598
7.3191524 -2.7540047 -2.0953991
8.4325933 -3.1763239 -2.0803473
10.015976 -3.7747362 -2.0805814
12.229671 -4.6138906 -2.0702538
15.257648 -5.762341 -2.0025573
18.889297 -7.13767 -1.7666469
7.2991438 -2.7741425 -2.0922933
8.4238348 -3.204963 -2.0807972
10.007073 -3.8093269 -2.0813446
12.217996 -4.6558275 -2.0708797
15.160559 -5.7831912 -1.9923203
18.592518 -7.0997925 -1.7411973
7.3069601 -2.807806 -2.0974696
8.4144154 -3.2350476 -2.0812473
9.9948759 -3.846684 -2.0817263
12.204535 -4.7019978 -2.0715053
15.058777 -5.8046603 -1.9815956
17.74231 -6.8461876 -1.663803
7.2881107 -2.8297989 -2.0948815
8.4043179 -3.266572 -2.0816972
9.9850464 -3.8829722 -2.0824895
12.195412 -4.7474375 -2.072757
14.948623 -5.8252182 -1.9698963
18.572199 -7.2409978 -1.7439864
35.587227 -13.889194 -2.0020599
7.2655988 -2.8502831 -2.0912578
8.4061375 -3.2994077 -2.0848465
9.958642 -3.9127774 -2.0798182
12.168571 -4.7835164 -2.0708797
14.851638 -5.8442273 -1.9596591
7.2668834 -2.8786297 -2.0943637
8.3873234 -3.3258569 -2.0830467
9.9529114 -3.9486761 -2.0813446
12.135275 -4.8194013 -2.0680637
14.775807 -5.8740344 -1.952347
18.503969 -7.3598828 -1.7422433
7.2549977 -2.9032607 -2.0938461
8.3702364 -3.3529406 -2.0816972
9.9427118 -3.9848549 -2.0821078
12.116545 -4.8609962 -2.0677509
14.696266 -5.9019022 -1.9445474
17.577829 -7.0626783 -1.6573535
35.531261 -14.29068 -2.0070841
7.2448192 -2.9285679 -2.0938461
8.3584814 -3.3821373 -2.0816972
9.9360199 -4.0224838 -2.0836341
12.103166 -4.9047456 -2.0683768
14.614871 -5.9285421 -1.936504
18.405981 -7.4701524 -1.7378855
7.2381296 -2.9552999 -2.0948815
8.344821 -3.4105563 -2.0812473
9.9110165 -4.0526843 -2.0813446
12.093283 -4.9499564 -2.0696282
14.555513 -5.963716 -1.9313855
35.43063 -14.538384 -2.0070841
7.2224116 -2.978338 -2.0933285
8.3364677 -3.4411516 -2.0821469
9.8931789 -4.0857563 -2.0805814
12.074105 -4.9913855 -2.0693154
14.521768 -6.0091748 -1.9296793
17.98337 -7.4452782 -1.7028488
7.2101879 -3.0027881 -2.0928109
8.3244047 -3.4702301 -2.0821469
9.8861046 -4.1232882 -2.0821078
12.060254 -5.0350232 -2.069941
14.476892 -6.0498786 -1.9265107
17.883745 -7.4772649 -1.6958764
7.1978812 -3.0271888 -2.0922933
8.2960758 -3.4924617 -2.0780978
9.877079 -4.1600585 -2.0832527
12.026223 -5.0701842 -2.0671253
14.336806 -6.0502081 -1.9106677
17.833673 -7.5295711 -1.6936104
7.1943827 -3.0553164 -2.0943637
8.291007 -3.5244482 -2.0798974
9.8570786 -4.192205 -2.0821078
12.022992 -5.1183228 -2.0696282
14.249857 -6.0722008 -1.9018931
17.972233 -7.6621003 -1.7092985
7.1836739 -3.0804107 -2.0943637
8.2840271 -3.5556738 -2.0812473
9.8369722 -4.2242632 -2.0809629
11.999608 -5.1579199 -2.0686896
14.184812 -6.1030755 -1.8960434
16.594809 -7.1434197 -1.5806565
7.1604676 -3.100095 -2.0907402
8.2662001 -3.5822444 -2.0798974
9.8221664 -4.2585745 -2.0809629
11.99059 -5.2037063 -2.0702538
14.057818 -6.1066794 -1.8819065
17.909166 -7.7834105 -1.7084268
7.1584539 -3.1289394 -2.0933285
8.2590027 -3.6134202 -2.0812473
9.8108397 -4.2944093 -2.0817263
11.963306 -5.2415667 -2.0686896
13.981878 -6.1317949 -1.8745944
17.794312 -7.8074522 -1.7000599
30.134739 -13.234498 -1.7248886
7.1563253 -3.1578076 -2.0959167
8.238061 -3.6368532 -2.0789976
9.8029718 -4.3318033 -2.0832527
11.947666 -5.2820077 -2.0690024
13.91427 -6.1572413 -1.8682572
17.526487 -7.7630105 -1.6770507
7.1316957 -3.1752355 -2.0917757
8.2288752 -3.6671731 -2.0798974
9.7849674 -4.3626885 -2.0824895
11.925549 -5.3220711 -2.0683768
13.843756 -6.1839142 -1.8616763
17.695282 -7.9080706 -1.6957021
7.1152821 -3.1977344 -2.0902226
8.2160244 -3.6958752 -2.0798974
9.762517 -4.3935943 -2.0809629
11.908699 -5.3644772 -2.0686896
13.782273 -6.2142487 -1.8563139
17.613087 -7.9452128 -1.6904728
7.1058354 -3.22335 -2.0907402
8.2083969 -3.7269492 -2.0812473
9.7471209 -4.4276457 -2.0809629
11.897094 -5.4092841 -2.069941
13.688226 -6.2294302 -1.8465644
17.645084 -8.0338898 -1.6962252
7.089272 -3.2457221 -2.0891874
8.1953373 -3.7555792 -2.0812473
9.7316065 -4.4616418 -2.0809629
11.879934 -5.4516034 -2.0702538
13.529301 -6.2142029 -1.8280404
17.526413 -8.0538387 -1.6875095
35.06572 -16.128428 -2.0227849
7.0849133 -3.2736893 -2.0912578
8.1768713 -3.781709 -2.0798974
9.7159729 -4.495585 -2.0809629
11.868003 -5.4963603 -2.0715053
13.503924 -6.2597203 -1.8275528
17.570492 -8.1484966 -1.694482
7.0769444 -3.3000336 -2.0922933
8.1636209 -3.8102286 -2.0798974
9.7073374 -4.532795 -2.0824895
11.86485 -5.5452809 -2.0743213
13.348934 -6.244576 -1.8095162
17.343441 -8.1168795 -1.6753076
7.0653825 -3.3247163 -2.0922933
8.1502705 -3.8387017 -2.0798974
9.677249 -4.559958 -2.0794365
