# .PCD v0.7 - Point Cloud Data file format
VERSION 0.7
FIELDS x y z
SIZE 4 4 4
TYPE F F F
COUNT 1 1 1
WIDTH 1508
HEIGHT 1
VIEWPOINT 0 0 0 1 0 0 0
POINTS 1508
DATA ascii
17.865385 -10.590826 -1.8170229
23.651062 -14.031808 -1.4412278
52.157574 -30.968903 -1.0588026
6.1592522 -3.6687372 -1.9209551
7.0922704 -4.2278419 -1.9062351
8.5034122 -5.071063 -1.9244996
10.565876 -6.3060269 -1.9488608
13.325036 -7.9559298 -1.9055492
17.824888 -10.65108 -1.8166744
21.579258 -12.904691 -1.3177148
6.1420827 -3.6861598 -1.9194021
7.0748701 -4.2493305 -1.9053354
8.4865494 -5.0992332 -1.9244996
10.521207 -6.3267784 -1.9444805
13.162499 -7.9182105 -1.8860501
17.705828 -10.659775 -1.8081329
21.686888 -13.066885 -1.326926
52.122299 -31.417372 -1.0622931
6.1314783 -3.7075069 -1.9199197
7.0507369 -4.2667146 -1.9026359
8.469593 -5.1273475 -1.9244996
10.493411 -6.3575387 -1.9432292
13.172123 -7.9867496 -1.8914124
17.728128 -10.757693 -1.814234
21.721973 -13.186404 -1.3317409
52.121693 -31.665571 -1.064527
6.1260958 -3.7349834 -1.922508
7.0324731 -4.2892709 -1.9017363
8.4473925 -5.1563101 -1.9237365
10.475096 -6.3990455 -1.9441677
13.073021 -7.9892049 -1.8811754
17.68367 -10.815351 -1.8135366
21.693939 -13.278443 -1.332997
52.072235 -31.884909 -1.0657836
6.1047912 -3.7512875 -1.9199197
7.0133853 -4.3129764 -1.9008365
8.4159651 -5.177536 -1.9206835
10.447649 -6.4324646 -1.9432292
12.981121 -7.9985371 -1.872157
17.389704 -10.719148 -1.7872156
21.525068 -13.278588 -1.3254606
51.955025 -32.075546 -1.0657836
6.0818048 -3.7664716 -1.9168139
7.0065684 -4.3425636 -1.9030858
8.3928347 -5.2037778 -1.9195386
10.421774 -6.4668112 -1.9426033
13.0054 -8.0762644 -1.8797129
17.462189 -10.848124 -1.798546
21.288614 -13.235534 -1.3137373
51.734077 -32.189098 -1.0635496
6.078454 -3.7938154 -1.9199197
6.9864097 -4.3638978 -1.9017363
8.3762836 -5.2340827 -1.9199202
10.387413 -6.4958191 -1.9404132
12.924965 -8.0889664 -1.872157
17.608284 -11.024255 -1.8175458
21.414919 -13.417933 -1.3244139
51.838253 -32.50547 -1.0680175
6.0635386 -3.8139818 -1.9194021
6.9628882 -4.3830671 -1.8994867
8.3563013 -5.2622442 -1.9195386
10.363005 -6.5309849 -1.9401004
12.869786 -8.1170902 -1.8682572
17.525887 -11.05801 -1.8130137
21.472652 -13.558716 -1.3309034
51.785328 -32.724674 -1.0692741
6.054121 -3.8361363 -1.9204375
6.9417324 -4.4019594 -1.8976872
8.3305159 -5.2846665 -1.9176304
10.32795 -6.5568447 -1.9375975
12.819341 -8.1448202 -1.8648449
17.364445 -11.041079 -1.8002889
21.518574 -13.687734 -1.3365558
51.784492 -32.964947 -1.0715079
6.0351367 -3.85518 -1.9188845
6.9361763 -4.4324589 -1.9003865
8.3061285 -5.3119907 -1.9164857
10.307175 -6.5967836 -1.9382232
12.784144 -8.1852369 -1.8638699
17.397932 -11.147845 -1.8077843
21.542238 -13.813947 -1.3411614
51.645538 -33.130398 -1.0710193
6.0135202 -3.8709948 -1.9162962
6.9116931 -4.4525752 -1.8981371
8.2792854 -5.3356347 -1.9145776
10.280766 -6.6305809 -1.9375975
12.789083 -8.2546444 -1.8689884
17.214968 -11.115564 -1.7927936
21.379818 -13.815351 -1.3340436
6.0080757 -3.8972185 -1.9188845
6.9001594 -4.477592 -1.8990368
8.2639017 -5.366641 -1.9153408
10.252095 -6.6603317 -1.9363459
12.735011 -8.2796965 -1.8650886
17.201113 -11.191886 -1.7954082
21.424276 -13.945006 -1.3396959
51.664322 -33.653854 -1.076255
5.9918838 -3.9150078 -1.9178492
6.8730702 -4.4941859 -1.8958875
8.2460604 -5.3940153 -1.9153408
10.225478 -6.6939144 -1.9357203
12.714335 -8.3295393 -1.8663074
17.251915 -11.310851 -1.804821
21.251883 -13.938647 -1.3319502
51.546535 -33.833988 -1.076255
5.9807215 -3.9390676 -1.9188845
6.8475776 -4.5117168 -1.8931881
8.2262354 -5.4242024 -1.9153408
10.197577 -6.7291718 -1.9350946
12.643764 -8.3465281 -1.8602139
17.139183 -11.322681 -1.7971513
21.290621 -14.075927 -1.3376025
5.9669352 -3.9599206 -1.9188845
6.8342414 -4.53894 -1.8940878
8.1974392 -5.4463654 -1.913051
10.170735 -6.7625384 -1.9344687
12.636225 -8.4082098 -1.8636261
17.134384 -11.405623 -1.8008119
21.171541 -14.103653 -1.3332063
22.880579 -15.247913 -0.47994119
5.937017 -3.9699862 -1.9137081
6.8191524 -4.5615778 -1.8940878
8.1685896 -5.4683948 -1.9107615
10.144972 -6.7940302 -1.933843
12.614869 -8.4544878 -1.8646011
17.08123 -11.456486 -1.7994175
21.293829 -14.28729 -1.3438828
22.591471 -15.169395 -0.47498471
5.9302287 -3.9939687 -1.9157786
6.8031874 -4.5853534 -1.8940878
8.1504116 -5.4954519 -1.9107615
10.108095 -6.8205628 -1.9313401
12.562248 -8.4829178 -1.8611888
17.066259 -11.52868 -1.8018578
21.349724 -14.433122 -1.3505819
5.9162512 -4.0146446 -1.9157786
6.7742434 -4.6003151 -1.8904886
8.1376753 -5.5282817 -1.9122878
10.07769 -6.8513627 -1.9300886
12.54405 -8.5345325 -1.8628949
17.080267 -11.625176 -1.8076102
21.335526 -14.532291 -1.3528845
25.835962 -17.610886 -0.54577166
5.9069858 -4.0385432 -1.9173316
6.7533193 -4.6206326 -1.8891391
8.1086073 -5.5500002 -1.9099981
10.060232 -6.8909645 -1.9313401
12.558392 -8.608572 -1.869476
17.006327 -11.666287 -1.8042982
21.577797 -14.807838 -1.3715162
5.8873715 -4.0568776 -1.9157786
6.7403584 -4.6463895 -1.8900387
8.0768986 -5.5718789 -1.9073268
10.017027 -6.9154453 -1.9278985
12.515197 -8.6433315 -1.8675259
16.94911 -11.71425 -1.8025551
21.474098 -14.852742 -1.3683761
5.8652396 -4.0718951 -1.9131904
6.7248826 -4.6721754 -1.8904886
8.0493393 -5.5944362 -1.9054186
10.009043 -6.9616489 -1.9310273
12.525795 -8.7186289 -1.8738631
16.89994 -11.76765 -1.8016834
21.412292 -14.920757 -1.367748
5.8462415 -4.0890217 -1.9116375
6.7069373 -4.6945033 -1.8900387
8.0297623 -5.6224999 -1.9054186
9.9733572 -6.9886103 -1.9288372
12.514789 -8.7759762 -1.876788
16.791887 -11.779657 -1.7945366
21.435272 -15.048201 -1.372563
5.8429866 -4.1171937 -1.915261
6.6761761 -4.7077794 -1.8859898
8.010087 -5.6504951 -1.9054186
9.9424467 -7.0188231 -1.9275857
12.464622 -8.8058624 -1.8738631
16.734396 -11.826701 -1.7927936
21.288034 -15.056042 -1.3664919
5.8301549 -4.1386824 -1.9157786
6.6541724 -4.725379 -1.8841901
7.993516 -5.6806951 -1.9061821
9.919117 -7.051755 -1.9275857
12.406238 -8.8264351 -1.869476
16.748194 -11.924333 -1.7987201
21.163157 -15.073253 -1.3616771
5.8132553 -4.155746 -1.9147433
6.6439776 -4.7531133 -1.8859898
7.96665 -5.7014585 -1.9042739
9.8880157 -7.0817356 -1.9263341
12.397942 -8.8858767 -1.8728882
16.737228 -12.004785 -1.8020321
21.282425 -15.270455 -1.3727723
5.7870126 -4.1691208 -1.9111199
6.6210213 -4.771718 -1.8841901
7.944108 -5.7294712 -1.9038923
9.8635969 -7.1190848 -1.9266472
12.402256 -8.9546633 -1.8782505
16.593481 -11.989622 -1.7910506
21.258682 -15.371761 -1.3748657
14.643782 -10.592543 -0.31546968
5.7708611 -4.1881604 -1.9106023
6.6113715 -4.8016796 -1.8864396
7.9224715 -5.7560124 -1.9035107
9.8243065 -7.1430173 -1.9238312
12.388613 -9.0140762 -1.8811754
14.629781 -10.648676 -1.583097
14.564946 -10.609264 -0.94435006
14.500051 -10.565868 -0.31316596
5.7702422 -4.2185407 -1.915261
6.5844007 -4.8155246 -1.8832903
7.9007473 -5.7824726 -1.9031291
9.7925959 -7.1697216 -1.9222668
12.374665 -9.0668402 -1.8836126
14.457552 -10.600717 -1.5684546
14.37508 -10.544103 -0.93430161
14.330895 -10.519389 -0.31030378
5.7499981 -4.2330713 -1.9131904
6.5706892 -4.8407912 -1.8841901
7.8831086 -5.8098049 -1.9035107
9.770689 -7.2062063 -1.9228927
12.339747 -9.1076231 -1.8831252
14.284477 -10.546825 -1.5534639
14.216105 -10.504013 -0.92634654
14.155812 -10.467105 -0.307302
5.7351871 -4.2531161 -1.9131904
6.5537524 -4.8636971 -1.8841901
7.8517461 -5.8290949 -1.9008393
9.7407179 -7.2367344 -1.921954
12.314254 -9.1553802 -1.8841002
14.122876 -10.503879 -1.5398676
14.054381 -10.460557 -0.91818208
13.971646 -10.40656 -0.30409074
5.7172108 -4.2707982 -1.9121553
6.5336132 -4.8842106 -1.8832903
7.8187723 -5.8470612 -1.8977863
9.7122355 -7.2683234 -1.9213283
12.429988 -9.3089733 -1.906768
13.936237 -10.440821 -1.5234824
13.867567 -10.396934 -0.90834296
13.781677 -10.340056 -0.30073985
5.6930056 -4.2837591 -1.9090494
6.5165238 -4.9069877 -1.8832903
7.8045878 -5.8790431 -1.8993129
9.6678753 -7.2879128 -1.9175739
12.311842 -9.2877493 -1.8936061
13.753394 -10.378987 -1.5074457
13.687748 -10.336948 -0.89892244
13.585967 -10.267532 -0.29724941
5.6803455 -4.3069305 -1.9100846
6.4938374 -4.9273043 -1.8819405
7.7814236 -5.9064221 -1.8989313
9.6316614 -7.3161283 -1.9156966
12.323548 -9.3676491 -1.9006745
13.599488 -10.341291 -1.4947211
13.576657 -10.331411 -0.89410758
13.556408 -10.319738 -0.297389
5.6698828 -4.3302507 -1.9116375
6.4712687 -4.9440799 -1.880141
7.7545204 -5.9287782 -1.8974047
9.6167612 -7.3552294 -1.9175739
12.213597 -9.3481379 -1.8884875
13.577543 -10.399603 -1.4962898
13.566102 -10.394596 -0.89567763
5.6554923 -4.3490286 -1.9116375
6.4570599 -4.9690156 -1.8810407
7.723927 -5.9460773 -1.8947334
9.5910282 -7.3887529 -1.9175739
12.095997 -9.325264 -1.8753256
13.556934 -10.459103 -1.4980329
13.539223 -10.449209 -0.89630568
13.213402 -10.205112 -0.29142028
5.6272974 -4.3602624 -1.9074965
6.436595 -4.9891372 -1.880141
7.7051845 -5.9767532 -1.8954966
9.5513992 -7.4141665 -1.9150709
12.099435 -9.3954334 -1.8809316
13.534501 -10.517365 -1.4996017
13.513447 -10.508572 -0.89714301
13.201374 -10.269589 -0.29194385
5.6105204 -4.3786898 -1.9069788
6.4182658 -5.0126944 -1.880141
7.6780863 -5.9987788 -1.8939703
9.5145674 -7.4389448 -1.9128809
12.144651 -9.5021029 -1.8933623
13.518102 -10.580509 -1.5018677
13.495551 -10.570457 -0.89839911
13.187484 -10.332876 -0.29243252
5.6027951 -4.4042168 -1.909567
6.3893523 -5.0243139 -1.8765416
7.6586432 -6.0267582 -1.8943518
9.4960556 -7.4753428 -1.9141324
12.200398 -9.6111145 -1.9070116
13.504557 -10.646134 -1.5044824
13.469833 -10.622573 -0.89902717
13.176451 -10.398667 -0.29299098
5.5927038 -4.4263692 -1.9111199
6.3733034 -5.0477962 -1.8769917
7.6355381 -6.0496836 -1.8935887
9.4559727 -7.4973989 -1.9113165
12.176105 -9.661047 -1.9084741
13.487906 -10.705721 -1.5065742
13.453001 -10.685674 -0.90038788
13.155726 -10.457041 -0.29334006
5.5757084 -4.4446597 -1.9106023
6.3556442 -5.0700126 -1.8769917
7.6005635 -6.0652781 -1.890154
9.4359188 -7.5352917 -1.912568
12.151612 -9.7109251 -1.9099365
13.47691 -10.77389 -1.5095375
13.440572 -10.752532 -0.90206259
13.137877 -10.517897 -0.2937589
5.5556407 -4.4604669 -1.9090494
6.3363886 -5.0909462 -1.8765416
7.5778146 -6.0905418 -1.8897724
9.4034014 -7.5632305 -1.9113165
12.176405 -9.8005819 -1.9191986
13.44664 -10.83071 -1.5105833
13.426287 -10.818181 -0.9036327
13.398412 -10.803434 -0.30042574
5.534749 -4.4771547 -1.9074965
13.174647 -10.6572 0.29578337
6.3049459 -5.1020012 -1.8724926
7.5630693 -6.1244531 -1.8916805
9.3725471 -7.5951581 -1.9106908
12.176044 -9.8705263 -1.9245608
13.425772 -10.891388 -1.5125006
13.405155 -10.882424 -0.90488875
13.377692 -10.864004 -0.30080968
5.5235801 -4.5001082 -1.9090494
13.160299 -10.725631 0.29634187
6.2922454 -5.1300015 -1.8742923
7.5431662 -6.1520562 -1.8920621
9.3413877 -7.6240807 -1.9097521
12.099812 -9.8824387 -1.9182236
13.404645 -10.952054 -1.5144182
13.385639 -10.944321 -0.90614486
13.367189 -10.937023 -0.30147287
5.5093312 -4.520587 -1.909567
6.2622509 -5.1420403 -1.8706928
7.5155783 -6.1733646 -1.8905357
9.3101397 -7.6528792 -1.9088136
12.022316 -9.8893051 -1.911399
15.83252 -13.028134 -1.7938395
5.495007 -4.5410209 -1.9100846
6.2487688 -5.1675949 -1.8720427
7.4788561 -6.187048 -1.8867195
9.2772827 -7.6802912 -1.907562
11.940333 -9.8919516 -1.903843
15.70871 -13.01848 -1.7849497
20.712824 -17.177805 -1.4102448
5.4642744 -4.5478163 -1.9049082
6.2301016 -5.1870408 -1.8715929
7.4602304 -6.2156296 -1.8874826
9.2517633 -7.7110133 -1.907562
11.933381 -9.9531088 -1.9079866
15.70141 -13.105151 -1.7893074
20.747734 -17.323202 -1.4165251
5.450644 -4.5671525 -1.9054259
6.2179298 -5.2137651 -1.8733923
7.4380727 -6.2390723 -1.8871011
9.2126865 -7.7331018 -1.9050591
11.959366 -10.045775 -1.9177362
15.706678 -13.198165 -1.7948854
20.781914 -17.475214 -1.4230148
5.445003 -4.594872 -1.9090494
6.1833148 -5.2216077 -1.8684435
7.4117508 -6.2611976 -1.8859563
9.1765852 -7.7575612 -1.9031819
11.924226 -10.087459 -1.9177362
15.719827 -13.303105 -1.8016834
20.790899 -17.607025 -1.4278297
5.4215708 -4.6075954 -1.9064611
6.1605968 -5.2393713 -1.8670937
7.3913445 -6.2883029 -1.8863379
9.1524582 -7.7921085 -1.9038078
11.898008 -10.136746 -1.9191986
15.796803 -13.467923 -1.8161514
20.926865 -17.847979 -1.4414371
5.411984 -4.6337175 -1.9090494
6.1452303 -5.2633796 -1.8679937
7.3533401 -6.3025746 -1.8825216
9.1223383 -7.8243141 -1.9034947
11.832421 -10.152363 -1.9143238
15.739116 -13.513894 -1.8149312
21.049152 -18.08596 -1.4544164
5.3869977 -4.6450119 -1.9059435
6.1288486 -5.288414 -1.8688934
7.3327818 -6.3294868 -1.8829032
9.0830107 -7.8457789 -1.9009918
11.759088 -10.164506 -1.9084741
15.61649 -13.503592 -1.8062155
21.118801 -18.274332 -1.4636275
5.3649163 -4.6587205 -1.903873
6.108881 -5.308497 -1.8684435
7.3076801 -6.352469 -1.88214
9.0510988 -7.873548 -1.9000533
11.729525 -10.210706 -1.9094491
29.274178 -25.492542 6.1481881
15.222174 -13.255774 -1.7659496
20.859135 -18.177359 -1.4500202
5.3558931 -4.6837778 -1.9064611
6.0800481 -5.3208055 -1.8652942
7.288415 -6.3805256 -1.8829032
9.011672 -7.8946795 -1.8975502
11.586336 -10.157367 -1.8918999
15.256701 -13.379766 -1.7753625
21.017729 -18.445038 -1.4655116
5.3395104 -4.702445 -1.9064611
6.0672855 -5.3471498 -1.8670937
7.2572637 -6.3981376 -1.8806137
8.9781351 -7.9208622 -1.8962989
11.324615 -9.9980507 -1.8548515
11.339106 -10.014366 -1.3235471
20.989132 -18.550034 -1.4680237
5.3230634 -4.721055 -1.9064611
6.0471263 -5.3670025 -1.8666438
7.2246079 -6.4143071 -1.8779422
8.9474773 -7.9495292 -1.8956732
11.280746 -10.029607 -1.8533891
11.293659 -10.044617 -1.3223269
17.182505 -15.29292 -1.2055064
5.2964654 -4.7305989 -1.9028376
6.0327134 -5.391974 -1.8679937
7.2036376 -6.4407954 -1.8783239
8.9182014 -7.9793954 -1.8953601
11.247147 -10.070248 -1.8536329
11.252591 -10.078661 -1.3216296
21.174423 -18.97872 -1.4902141
16.779831 -15.050397 -0.39344704
5.2871027 -4.7555175 -1.9054259
6.0124068 -5.411695 -1.8675436
7.1811113 -6.4659019 -1.8783239
8.8800211 -8.0012217 -1.8931701
11.295959 -10.185217 -1.8675259
15.312514 -13.811664 -1.8041239
21.253344 -19.183666 -1.5004721
5.2633109 -4.7674594 -1.9028376
16.451525 -14.906871 0.38751322
5.9848166 -5.4247975 -1.8648442
7.1526794 -6.4856534 -1.8767973
8.8461866 -8.0268602 -1.8919187
11.469027 -10.414077 -1.9021369
15.183095 -13.791352 -1.7945366
21.245367 -19.311472 -1.5046589
5.2552013 -4.7936144 -1.9059435
5.9600873 -5.4404001 -1.8630446
7.1227479 -6.503962 -1.8748893
8.8137388 -8.0536928 -1.89098
11.426744 -10.448689 -1.9011619
15.126566 -13.84153 -1.7938395
21.222027 -19.42597 -1.507799
13.962606 -12.785407 4.3707991
5.2390189 -4.8141503 -1.9064611
5.9625812 -5.4809542 -1.8697932
7.0916376 -6.5233803 -1.8729813
8.7768955 -8.0792532 -1.8894157
11.396044 -10.493892 -1.9021369
15.151417 -13.961752 -1.8025551
21.168301 -19.519871 -1.5090551
5.213675 -4.8245368 -1.9033554
5.9281535 -5.489531 -1.8652942
7.0659432 -6.5454254 -1.8722179
8.7399473 -8.1017838 -1.8875386
11.344787 -10.520109 -1.8996994
14.978449 -13.89936 -1.7877386
21.969387 -20.400925 -1.5712302
5.1962342 -4.8404818 -1.9028376
5.9070663 -5.5065012 -1.8643943
7.041327 -6.566144 -1.8714547
8.701478 -8.1199398 -1.8850355
15.291646 -14.274666 2.5685184
11.301133 -10.549544 -1.8982371
14.922084 -13.939434 -1.7865183
22.032927 -20.59642 -1.5806507
5.182972 -4.8603301 -1.903873
5.885931 -5.5233922 -1.8634945
7.0223775 -6.5921445 -1.8722179
8.6802626 -8.1541605 -1.886287
15.21674 -14.299466 2.5638874
11.293166 -10.616121 -1.9031119
14.566622 -13.698117 -1.74939
22.173956 -20.866468 -1.5957235
5.1687841 -4.8810453 -1.9049082
5.8651996 -5.5425658 -1.8630446
6.99647 -6.6139202 -1.8714547
8.6460066 -8.1789808 -1.8850355
11.294964 -10.692325 -1.9096928
14.281465 -13.524208 -1.720803
22.121279 -20.962976 -1.5971888
5.1531148 -4.9003887 -1.9054259
5.8542862 -5.5710659 -1.8657441
6.9676523 -6.6328874 -1.8699282
8.6088219 -8.2009354 -1.8831582
11.382575 -10.85085 -1.9308981
14.179379 -13.521728 -1.7141792
22.042191 -21.034554 -1.5967702
5.1276059 -4.9103298 -1.90232
5.8221407 -5.5793324 -1.8616948
6.934536 -6.6476583 -1.8672569
8.5744419 -8.2254658 -1.8819069
11.376135 -10.92076 -1.9362602
14.419505 -13.847144 -1.7490414
21.951349 -21.094759 -1.5955142
5.111825 -4.9295397 -1.9028376
5.8124456 -5.6090937 -1.8648442
6.9141154 -6.674551 -1.8680203
8.5442562 -8.2539749 -1.8815941
11.352218 -10.974202 -1.9386977
13.958596 -13.498505 -1.6988397
22.072777 -21.360146 -1.6097494
5.0959725 -4.9486995 -1.9033554
5.7914333 -5.6279907 -1.8643943
6.8907747 -6.6986456 -1.8680203
8.5054817 -8.274107 -1.8794039
11.285393 -10.986069 -1.933823
13.57891 -13.22337 3.0019777
13.840023 -13.477646 -1.690124
22.633177 -22.055964 -1.6562239
5.0786672 -4.9664574 -1.9033554
5.774539 -5.6508989 -1.8652942
6.8659458 -6.7212839 -1.8676385
8.4793692 -8.3065109 -1.8800297
11.255481 -11.033732 -1.9352853
13.476254 -13.215364 2.9894629
14.069301 -13.80175 -1.7242892
13.48516 -13.228718 3.6719286
22.681498 -22.257938 -1.665435
13.631199 -13.381319 4.4099402
13.604904 -13.364835 5.1101236
5.0590534 -4.9836822 -1.9028376
5.7506137 -5.6669173 -1.8639444
6.8286843 -6.7339973 -1.8642039
13.669014 -13.484185 1.6798397
8.4460554 -8.3347597 -1.8794039
13.634975 -13.455304 2.3520784
11.245152 -11.100844 -1.9401602
13.574812 -13.405288 3.0216885
14.026709 -13.856378 -1.7249866
13.475684 -13.316694 3.6826138
22.642376 -22.383045 -1.6685752
13.550192 -13.399673 4.3995929
13.543061 -13.397298 5.1044292
5.0361404 -4.9958696 -1.9007671
13.598018 -13.493991 0.33438814
5.7367206 -5.6948214 -1.866194
13.566825 -13.472438 1.0020244
6.8037438 -6.7564092 -1.8638223
13.552603 -13.463015 1.6712985
8.4099045 -8.3572283 -1.8778396
13.537702 -13.457604 2.3437912
11.193128 -11.130788 -1.9382101
13.508783 -13.438236 3.0179341
13.658066 -13.591482 -1.6857663
13.494524 -13.428738 3.7005498
13.567339 -13.505912 -1.0032803
13.49091 -13.434515 4.3955436
13.542334 -13.490436 -0.33365509
13.484288 -13.4373 5.1008058
5.0205293 -5.0170255 -1.9018024
13.470205 -13.460804 0.33239853
5.7085376 -5.7065444 -1.8634945
13.478758 -13.478758 0.99898887
6.7733827 -6.7757468 -1.8622959
13.487676 -13.497096 1.6693811
8.3610678 -8.3698282 -1.8737723
13.475211 -13.489329 2.3411102
11.193483 -11.209121 -1.9450349
13.460397 -13.48391 3.0176213
13.493731 -13.52202 -1.6712985
13.459082 -13.492008 3.7043662
13.459926 -13.497563 -0.99898887
13.471847 -13.514235 4.4054418
13.442924 -13.485223 -0.33236364
13.425028 -13.471971 5.0961471
4.9989009 -5.0304089 -1.9002496
13.434871 -13.524271 0.33274758
5.6820903 -5.7218976 -1.8616948
13.42318 -13.51722 0.99836075
6.7524562 -6.8021355 -1.8630592
13.446093 -13.549749 1.6700783
8.3290186 -8.3961582 -1.8731465
13.441055 -13.554132 2.3437912
11.166867 -11.260812 -1.9472286
13.474437 -13.59254 3.0313873
13.380533 -13.502525 -1.6631058
13.440917 -13.568196 3.7123802
13.398673 -13.530273 -0.99794209
13.394366 -13.530646 -0.33232874
4.990335 -5.0552068 -1.9033554
13.35062 -13.528894 0.33177024
5.667191 -5.7448711 -1.8630446
13.347426 -13.530379 0.99605805
6.7298622 -6.8244901 -1.8630592
13.454237 -13.648182 1.6767021
8.3052893 -8.4279528 -1.8740851
11.139215 -11.30768 -1.9489347
13.309126 -13.519846 -1.6597939
13.372441 -13.588904 3.7058926
13.314514 -13.534762 -0.99501133
13.329794 -13.555028 -0.33184007
4.9803071 -5.0786242 -1.9059435
13.381275 -13.650205 0.33365509
5.6535645 -5.7691998 -1.8648442
13.363008 -13.641092 1.0007683
6.6962032 -6.8355508 -1.8600061
8.2717676 -8.4498014 -1.8728336
11.096901 -11.343657 -1.9484472
13.290688 -13.590971 -1.6631058
13.328678 -13.634578 3.7062743
13.344937 -13.655979 -1.0006636
13.345264 -13.665855 -0.33341077
4.9436798 -5.0766015 -1.8986967
13.350286 -13.714025 0.33407396
5.6306739 -5.7861056 -1.8639444
6.6709328 -6.8574753 -1.8596245
8.2408466 -8.4772072 -1.8725207
11.065534 -11.390865 -1.9499096
13.280641 -13.675873 -1.6678123
13.325006 -13.731145 -1.0027571
4.9299583 -5.0979934 -1.9002496
5.6131501 -5.8085284 -1.8648442
6.6374078 -6.8708353 -1.8569533
8.197485 -8.4917097 -1.8693922
11.009168 -11.412277 -1.9469848
13.389448 -13.889416 -1.6878581
25.266478 -26.219095 -1.9082738
4.9179287 -5.1229963 -1.9028376
5.5874434 -5.8224626 -1.8630446
6.6203322 -6.9036188 -1.8592429
8.16084 -8.5159922 -1.8681406
11.04067 -11.525178 -1.9596591
13.433192 -14.032495 -1.6995369
25.239244 -26.383688 -1.9135073
4.8986831 -5.1387339 -1.90232
5.5620327 -5.8386688 -1.8616948
6.5907784 -6.9209986 -1.8577164
8.1365108 -8.5501509 -1.8693922
11.003826 -11.571321 -1.9606342
13.391279 -14.091747 -1.7007573
25.171757 -26.497696 -1.9153916
4.8771601 -5.1538472 -1.9012847
5.5456367 -5.8622961 -1.8630446
6.5518808 -6.9308424 -1.8539003
8.0929098 -8.5669918 -1.8665762
10.990626 -11.638525 -1.9655088
13.395337 -14.194919 -1.7075553
25.005953 -26.51712 -1.9101579
4.859622 -5.1677365 -1.9007671
5.5315037 -5.8863339 -1.8648442
6.5341077 -6.9556837 -1.8550451
8.0646029 -8.5909338 -1.8662634
10.958762 -11.682147 -1.9667276
13.255277 -14.135198 -1.6953535
24.955299 -26.630526 -1.91267
4.8389158 -5.1818447 -1.8997319
5.5082641 -5.9027567 -1.8639444
13.102033 -14.045292 1.0066299
6.5138054 -6.9827566 -1.8561901
8.0237904 -8.6074734 -1.8637605
10.930095 -11.733402 -1.9689212
13.332128 -14.316982 -1.7115644
24.83498 -26.688231 -1.9105766
4.8247395 -5.2029533 -1.9012847
5.4836521 -5.9176607 -1.8625948
6.4841661 -7.0022631 -1.8550451
7.984303 -8.6252813 -1.8615704
10.863459 -11.743796 -1.9642901
13.343128 -14.434514 -1.7197571
24.755966 -26.799616 -1.9120419
4.8082538 -5.2234449 -1.90232
5.4606066 -5.9362855 -1.8621449
6.4558015 -7.0230908 -1.8542819
7.9446168 -8.6457605 -1.8596932
10.835112 -11.799618 -1.9669714
13.488153 -14.69912 -1.7453809
24.468597 -26.684082 -1.897388
4.7890768 -5.2410331 -1.90232
5.4480109 -5.9663329 -1.8652942
6.4299226 -7.0441327 -1.8539003
7.906219 -8.6675234 -1.8581288
10.567816 -11.589473 -1.9257796
13.487753 -14.802075 -1.7520047
24.391439 -26.787052 -1.898644
4.7677751 -5.2525945 -1.9007671
5.4229589 -5.9785924 -1.8634945
6.395978 -7.0537815 -1.8508474
7.8840652 -8.7010136 -1.8596932
10.539987 -11.636222 -1.9277295
13.434583 -14.842289 -1.7514818
24.15242 -26.701893 -1.8869207
4.7451563 -5.2626367 -1.8986967
5.3965807 -5.9893045 -1.8612449
6.3672967 -7.0691171 -1.8493209
7.8353453 -8.7050867 -1.8550001
10.443549 -11.610955 -1.9174925
13.407938 -14.911944 -1.7544451
24.109129 -26.832352 -1.8904796
4.7332001 -5.2863646 -1.9012847
5.379539 -6.0124621 -1.8625948
6.3491259 -7.0986171 -1.851229
7.7996445 -8.7264919 -1.8537486
10.398988 -11.642899 -1.9167612
13.399594 -15.007701 -1.7601974
24.105738 -27.017685 -1.8975973
4.7121515 -5.2999673 -1.9002496
5.3546362 -6.0268331 -1.8612449
6.3190932 -7.1148639 -1.8497025
7.7678251 -8.7521877 -1.8534358
10.285839 -11.597445 -1.9033556
13.347124 -15.054383 -1.7601974
24.143726 -27.251156 -1.9080644
4.6987371 -5.3221755 -1.90232
5.3374338 -6.049871 -1.8625948
6.2851291 -7.1265721 -1.8470311
7.7333083 -8.7748041 -1.8524972
10.216431 -11.600504 -1.8979933
24.103865 -27.398252 -1.9124608
4.6724892 -5.3298287 -1.8992143
5.3149991 -6.0670004 -1.8621449
6.2640953 -7.1528988 -1.8481761
7.6987295 -8.7972841 -1.8515586
10.097466 -11.546436 -1.883369
13.212851 -15.114194 -1.7563624
24.100058 -27.587511 -1.9197878
4.6538563 -5.3461065 -1.8992143
5.297626 -6.0899272 -1.8634945
6.2365122 -7.1717572 -1.8474127
7.6614952 -8.8166485 -1.8499942
10.029769 -11.550138 -1.8782505
13.297152 -15.318207 -1.7746652
23.951263 -27.611118 -1.9156008
4.633903 -5.3608575 -1.8986967
5.2712402 -6.1024828 -1.8616948
6.2114401 -7.1934834 -1.8474127
7.6293821 -8.8418436 -1.8496813
9.9427242 -11.530956 -1.869476
13.148578 -15.259677 -1.7622892
24.047653 -27.918522 -1.9310924
4.6217718 -5.3866024 -1.9018024
5.244832 -6.1149287 -1.8598953
6.1837554 -7.2147112 -1.8470311
7.5904994 -8.8622456 -1.8481169
9.9062843 -11.570116 -1.8702071
13.097822 -15.308508 -1.7626377
23.893246 -27.945753 -1.9269054
4.6041932 -5.4041729 -1.90232
5.2261739 -6.1385632 -1.8612449
6.1483545 -7.2242913 -1.8439783
7.5595174 -8.8886871 -1.8481169
9.8753815 -11.619959 -1.8724008
23.971344 -28.236053 -1.9411408
4.5765672 -5.4098878 -1.8986967
5.2097478 -6.1627212 -1.8630446
6.1192975 -7.2412105 -1.8428333
7.5246205 -8.9104929 -1.8471783
9.8168364 -11.633121 -1.8689884
13.095973 -15.524451 -1.7769312
23.527645 -27.910299 -1.9130887
4.5551701 -5.4228706 -1.8976613
5.1882038 -6.1808686 -1.8630446
6.090198 -7.2580147 -1.8416885
7.4795098 -8.9200544 -1.8437368
9.7710705 -11.661231 -1.8680135
12.966221 -15.479955 -1.7666469
23.173689 -27.685949 -1.8921545
4.5386882 -5.4417057 -1.8986967
5.1589427 -6.1875625 -1.8598953
6.0723653 -7.28828 -1.8439783
7.4486246 -8.9432898 -1.843424
9.7272663 -11.687467 -1.8670385
12.966891 -15.59099 -1.7741423
23.513329 -28.28174 -1.9275335
4.5230823 -5.459702 -1.8997319
5.1410408 -6.2100358 -1.8612449
6.039402 -7.2977896 -1.8413069
7.4173617 -8.9692364 -1.843424
9.6813517 -11.715228 -1.8660635
12.432926 -15.050205 -1.7079039
23.457695 -28.416018 -1.9310924
4.5101333 -5.4829168 -1.90232
5.1218076 -6.2309546 -1.8621449
6.007659 -7.3112411 -1.8393987
7.3835011 -8.9920206 -1.8427982
9.6441774 -11.753554 -1.8667948
12.668406 -15.444739 -1.7476468
23.393812 -28.540979 -1.9340231
4.4811907 -5.4866571 -1.8981789
5.1024909 -6.2518144 -1.8630446
5.9783788 -7.3276043 -1.838254
7.3433309 -9.0070219 -1.8406081
9.5980759 -11.780992 -1.8658198
12.793076 -15.708238 -1.7723991
23.346992 -28.687525 -1.9384193
4.460794 -5.5007658 -1.8976613
5.0794096 -6.2680731 -1.8625948
5.9552355 -7.3514786 -1.8390172
7.3043885 -9.0233879 -1.8387309
9.5481548 -11.80362 -1.8641136
12.538978 -15.506468 -1.7446836
23.143776 -28.641457 -1.9298362
4.4391427 -5.5132937 -1.8966261
5.0513906 -6.2781739 -1.8603452
5.9283066 -7.3706913 -1.8386356
7.2716088 -9.0472898 -1.8384181
9.5056515 -11.83533 -1.8638699
12.540903 -15.620055 -1.7525277
23.363623 -29.12088 -1.9566323
4.4259024 -5.5363002 -1.8992143
5.0294456 -6.2957683 -1.8603452
5.9000921 -7.3882718 -1.8378724
7.2301264 -9.0602665 -1.8359152
9.4308634 -11.826533 -1.857289
12.483818 -15.660619 -1.7521789
23.144855 -29.05541 -1.9467931
4.4077511 -5.5532293 -1.8997319
5.0110712 -6.3178658 -1.8616948
5.8632174 -7.3975387 -1.8348193
7.2045889 -9.0931892 -1.8374794
9.334074 -11.789346 -1.8463207
12.401611 -15.675019 -1.7486928
23.055548 -29.16198 -1.9482585
4.3801951 -5.5602417 -1.8966261
4.9854712 -6.3331289 -1.8607951
5.8299961 -7.4112635 -1.8329114
7.1590023 -9.1040068 -1.8343508
9.2662716 -11.792261 -1.8414459
12.344076 -15.72037 -1.7486928
4.3609762 -5.5777802 -1.8971437
4.9670243 -6.3575006 -1.8625948
5.8077149 -7.4362111 -1.8340561
7.1122179 -9.1130543 -1.8309091
9.2262735 -11.826099 -1.8416896
12.196028 -15.643942 -1.7354451
4.3471951 -5.5983148 -1.8992143
4.9363575 -6.3616204 -1.8589954
5.7818208 -7.4538774 -1.8336746
7.0868001 -9.1428347 -1.8321607
9.20646 -11.881736 -1.8455895
12.3734 -15.980468 -1.7682157
22.337021 -28.869476 -1.912984
4.3262467 -5.6096406 -1.8981789
4.9164243 -6.379499 -1.8594455
5.7497768 -7.4662371 -1.8317665
7.0540309 -9.1631536 -1.8315349
9.1685591 -11.918522 -1.8463207
12.301758 -16.003027 -1.7659496
20.919662 -27.233498 -1.799729
4.3044829 -5.6239247 -1.8976613
4.8941922 -6.3990235 -1.8598953
5.7164121 -7.4794621 -1.8298583
7.0180011 -9.1858082 -1.8309091
9.1296329 -11.958356 -1.8472956
12.278067 -16.093945 -1.7710047
20.473396 -26.855722 -1.7697929
4.2826729 -5.6381254 -1.8971437
4.8707061 -6.4169183 -1.8598953
5.685523 -7.4931145 -1.8283319
6.9783192 -9.2035971 -1.8293447
9.0989275 -12.009142 -1.8499768
11.569822 -15.27587 -1.6765277
20.813444 -27.500345 -1.8074749
4.2641296 -5.6545825 -1.8976613
4.8506231 -6.4369946 -1.8607951
5.6628757 -7.5176191 -1.8294767
6.9402103 -9.2200098 -1.8277806
9.0509872 -12.032899 -1.8487581
11.385917 -15.142587 -1.6575279
20.14624 -26.812773 -1.757651
4.2443652 -5.6694326 -1.8976613
4.8292918 -6.4554467 -1.8612449
5.6330733 -7.5326242 -1.8283319
6.9020715 -9.2362671 -1.8262162
8.9991541 -12.046943 -1.8463207
11.97657 -16.044413 -1.7516562
20.214933 -27.100662 -1.7718863
4.2324576 -5.6927791 -1.9007671
4.8078575 -6.471426 -1.8612449
5.6045508 -7.5465336 -1.8271869
6.8643417 -9.2495871 -1.8243389
8.9378662 -12.048021 -1.8419334
11.887703 -16.036022 -1.7464267
19.827736 -26.766323 -1.7457184
4.207819 -5.6990118 -1.8981789
4.7886853 -6.4904699 -1.8621449
5.5665245 -7.5502501 -1.8233709
6.8394909 -9.2802505 -1.8259033
8.880455 -12.058368 -1.8387648
11.971003 -16.266773 -1.7669954
19.970833 -27.157179 -1.7666527
4.1846185 -5.7112799 -1.8971437
4.7694693 -6.5142665 -1.8639444
5.5388145 -7.5706015 -1.8233709
6.7972689 -9.294095 -1.8237133
8.8373699 -12.092439 -1.8390086
11.892501 -16.284796 -1.7642065
19.807585 -27.143072 -1.7610005
4.164794 -5.7281408 -1.8976613
4.7432704 -6.5285516 -1.8630446
5.5123544 -7.589889 -1.8233709
6.7550368 -9.3077545 -1.8215232
8.7894926 -12.119926 -1.8382773
11.816875 -16.3004 -1.7614175
19.684601 -27.173229 -1.7584883
4.1470346 -5.7457771 -1.8986967
4.7113338 -6.5324244 -1.8594455
5.4892707 -7.6138616 -1.8245157
6.7190413 -9.3264685 -1.8205845
8.741334 -12.142479 -1.8370585
11.769214 -16.354486 -1.7628121
19.706232 -27.403931 -1.7689556
4.1303291 -5.7649288 -1.9002496
4.6919055 -6.5535841 -1.8607951
5.4592328 -7.6281881 -1.8233709
6.6829982 -9.345046 -1.819646
8.6940928 -12.16171 -1.8355962
11.575397 -16.204166 -1.7422433
19.547792 -27.384769 -1.7633032
4.1078286 -5.7738719 -1.8986967
4.6701469 -6.5691071 -1.8607951
5.4282193 -7.638247 -1.8214628
6.6599779 -9.3784304 -1.821836
8.6445236 -12.177524 -1.8336463
11.516987 -16.23596 -1.7415459
19.556204 -27.589571 -1.772305
4.0808568 -5.7764173 -1.8950732
4.6494613 -6.5861492 -1.8612449
5.3958659 -7.649127 -1.8195547
6.6174574 -9.3843203 -1.8187072
8.5996761 -12.20438 -1.8331589
11.444184 -16.253256 -1.7391056
19.423 -27.6054 -1.7689556
4.0618753 -5.7944989 -1.8961084
4.6241727 -6.6015496 -1.8607951
5.367794 -7.6688528 -1.8195547
6.5762224 -9.3987999 -1.81683
8.5457888 -12.222802 -1.8312089
11.43246 -16.363689 -1.7464267
19.241659 -27.561762 -1.7616284
4.0461254 -5.8172774 -1.8986967
4.5888238 -6.6024518 -1.8562962
5.3387518 -7.684319 -1.8187915
6.5372238 -9.4163494 -1.8155787
8.4964056 -12.247517 -1.8302339
11.469506 -16.539389 -1.7608945
18.291018 -26.395891 -1.6830198
4.0279903 -5.8345451 -1.8997319
4.5746522 -6.6288605 -1.8594455
5.3163548 -7.709373 -1.820318
6.5104475 -9.4444809 -1.81683
8.4422312 -12.256007 -1.827309
11.311164 -16.433256 -1.7453809
18.198856 -26.449821 -1.6826012
4.0097122 -5.8494639 -1.9002496
4.5536871 -6.6480036 -1.8603452
5.2874327 -7.7221003 -1.8191731
6.4740934 -9.4622583 -1.8158915
8.3904352 -12.272292 -1.8253592
11.264478 -16.482189 -1.7466011
18.207792 -26.661627 -1.6920216
3.9794886 -5.84905 -1.8955908
4.533741 -6.6686926 -1.8616948
5.2582388 -7.7372622 -1.8184099
6.4365854 -9.4782639 -1.81464
8.3453169 -12.298221 -1.8248718
11.250494 -16.585712 -1.7533991
18.051863 -26.632439 -1.6861601
3.9666157 -5.8741121 -1.8992143
4.5060754 -6.6780167 -1.8598953
5.2311983 -7.7555699 -1.8184099
6.3924212 -9.484293 -1.8115114
8.3056641 -12.332214 -1.8256029
10.661779 -15.836531 -1.6702527
17.967703 -26.708544 -1.6869974
3.9428604 -5.8831081 -1.8976613
4.4729776 -6.6791325 -1.8558462
5.2062788 -7.7770457 -1.8191731
6.3658657 -9.5164003 -1.8133886
8.2515354 -12.344629 -1.8231655
10.73705 -16.06913 -1.6908214
17.874365 -26.771101 -1.6869974
3.9255495 -5.903955 -1.8997319
4.4603305 -6.7133365 -1.8607951
5.1777396 -7.7960758 -1.8191731
6.3254814 -9.5314388 -1.8118242
8.187583 -12.346664 -1.8190219
10.78266 -16.266138 -1.7073809
17.559948 -26.510075 -1.6664816
12.180498 -18.402727 -0.3852095
3.9006608 -5.9111714 -1.8976613
4.4347239 -6.7256112 -1.8598953
5.1483331 -7.8108239 -1.8184099
6.2954321 -9.5584097 -1.8127627
8.133523 -12.358588 -1.8165846
10.680919 -16.235432 -1.7002342
17.555075 -26.704727 -1.6748555
3.8736532 -5.9150548 -1.8945554
4.4133539 -6.7443123 -1.8607951
5.1221123 -7.830389 -1.8187915
6.2533822 -9.5670977 -1.8102598
8.0881624 -12.383579 -1.816097
10.675375 -16.351028 -1.7084268
17.31988 -26.548382 -1.6612481
3.8635094 -5.9447389 -1.8997319
4.390965 -6.7589102 -1.8607951
5.0968852 -7.8515139 -1.8195547
6.2151704 -9.5778408 -1.8083826
8.0427322 -12.403669 -1.8151222
10.762324 -16.610579 -1.7316102
17.055857 -26.334097 -1.6442912
3.8406329 -5.9526482 -1.8981789
4.3588982 -6.7610936 -1.857196
5.076139 -7.8766241 -1.8214628
6.1731443 -9.5861912 -1.8058797
7.9940162 -12.423323 -1.8139035
16.864483 -26.238899 -1.6346614
3.8229558 -5.9708982 -1.8997319
4.3373704 -6.7795501 -1.8580956
5.0475559 -7.8926415 -1.8210812
6.1449623 -9.616003 -1.8074441
7.9409862 -12.436093 -1.8117099
10.232012 -16.030153 -1.663803
16.759903 -26.277401 -1.6334053
3.8020902 -5.9842072 -1.8997319
4.3126354 -6.793004 -1.8576458
5.0094547 -7.8936357 -1.8172649
6.1124163 -9.6390629 -1.8077569
7.8954024 -12.460383 -1.8112223
10.554751 -16.670187 -1.7262067
16.663801 -26.328993 -1.6329867
3.7780716 -5.9948339 -1.8986967
4.2888966 -6.8080168 -1.8576458
4.9794436 -7.9102826 -1.8168833
6.0686336 -9.6480246 -1.805254
7.8465757 -12.479465 -1.8100036
10.548432 -16.789595 -1.7347479
16.582054 -26.413574 -1.6344521
3.7550735 -6.0047088 -1.8976613
4.2701111 -6.8336058 -1.8603452
4.9559617 -7.9342766 -1.8184099
6.0255051 -9.654067 -1.8024381
7.7997341 -12.506455 -1.8097599
10.497142 -16.838146 -1.7359681
16.301781 -26.169542 -1.6158204
3.7391832 -6.0259881 -1.9002496
4.2390442 -6.8368764 -1.857196
4.9323711 -7.9582019 -1.8199363
5.9907284 -9.6733618 -1.8021252
7.7528973 -12.528542 -1.8090287
10.228676 -16.535803 -1.7011058
16.138929 -26.110758 -1.6087028
3.7211649 -6.0439382 -1.9018024
4.2100468 -6.8433323 -1.8549464
4.904562 -7.9753709 -1.8199363
5.9569254 -9.6942148 -1.8021252
7.6945748 -12.531845 -1.8056164
10.394967 -16.936493 -1.7385828
16.085278 -26.228228 -1.612471
3.6990376 -6.0552421 -1.9012847
4.1901946 -6.8646402 -1.8567461
4.8726039 -7.9857392 -1.8184099
5.9209948 -9.7115755 -1.8014996
7.6476855 -12.553542 -1.8048851
9.8041754 -16.099705 -1.649161
15.935485 -26.188671 -1.6066093
3.6708689 -6.0565524 -1.8976613
4.1692352 -6.8842254 -1.8580956
4.8446989 -8.0026989 -1.8184099
5.8809242 -9.722043 -1.7996223
7.6007395 -12.575064 -1.8041539
10.09411 -16.706812 -1.7077297
15.503333 -25.679892 -1.5720676
3.6536872 -6.0759521 -1.8997319
4.148191 -6.903749 -1.8594455
4.8187556 -8.0229282 -1.8191731
5.8337369 -9.7204943 -1.795555
7.5496516 -12.589602 -1.8024478
10.046997 -16.760742 -1.7096471
15.947259 -26.624828 -1.626497
3.636415 -6.0953054 -1.9018024
4.1180801 -6.9081426 -1.8567461
4.793736 -8.0447598 -1.820318
5.8007812 -9.7424955 -1.7958679
7.498723 -12.599216 -1.800254
9.8896446 -16.629602 -1.6927388
15.182877 -25.550552 -1.5576229
3.6151981 -6.1056676 -1.9012847
4.0961418 -6.9234385 -1.857196
4.7680321 -8.0623007 -1.8206996
5.7604032 -9.7480726 -1.793365
7.4417567 -12.598375 -1.796598
10.093699 -17.101553 -1.7373625
15.62159 -26.48847 -1.6116335
3.5949311 -6.1176224 -1.9012847
4.0780935 -6.9453864 -1.8594455
4.7372947 -8.0712957 -1.8191731
5.7290449 -9.7688255 -1.7936778
7.3877006 -12.607148 -1.7941607
10.197049 -17.408281 -1.7650781
15.717278 -26.853846 -1.6306839
3.5677176 -6.1201196 -1.8981789
4.0508814 -6.9545264 -1.8580956
4.7061291 -8.0826921 -1.8180283
5.6909366 -9.7819338 -1.7924262
7.3476377 -12.639724 -1.7951355
9.9220047 -17.075119 -1.7277755
15.023742 -25.87566 -1.5680901
3.5434313 -6.1275191 -1.8966261
4.0256062 -6.966938 -1.8576458
4.6847596 -8.1109705 -1.8206996
5.6547809 -9.798317 -1.7918006
7.303472 -12.665295 -1.7951355
10.005573 -17.365139 -1.7533991
15.166582 -26.332935 -1.5925833
3.5276756 -6.1521969 -1.9002496
3.9973867 -6.974184 -1.8558462
4.657927 -8.1331978 -1.8218443
5.6139264 -9.8104048 -1.7902362
7.24049 -12.657972 -1.7905045
9.8658037 -17.261578 -1.7394543
14.895642 -26.083097 -1.5741611
3.5090442 -6.1695108 -1.9018024
3.9737236 -6.9921765 -1.8567461
4.6265993 -8.1442862 -1.8206996
5.5737958 -9.8196335 -1.7883589
7.1862144 -12.67061 -1.7885547
9.4910784 -16.748133 -1.6841975
14.818286 -26.159264 -1.5756264
3.4826121 -6.1756001 -1.8997319
3.9531195 -7.0127954 -1.8585455
4.5938272 -8.1560574 -1.8195547
5.5397058 -9.8434401 -1.7889848
30.316423 -53.868908 7.5897799
7.1380482 -12.688698 -1.7875797
9.6795502 -17.220577 -1.7282984
14.687099 -26.150711 -1.5718583
31.192316 -55.561325 -1.1122069
3.4563193 -6.1792884 -1.8971437
3.9254887 -7.0238352 -1.8576458
4.5662861 -8.1737566 -1.8199363
5.5024228 -9.857543 -1.7880461
29.994972 -53.757774 7.5585809
7.0866594 -12.706107 -1.786361
9.5707846 -17.174137 -1.7201056
14.42661 -25.89822 -1.5536454
31.054598 -55.79409 -1.1145805
3.4383323 -6.2003622 -1.8997319
3.9028361 -7.0409031 -1.8585455
4.5362968 -8.1904383 -1.8199363
5.4605169 -9.8672733 -1.7861689
29.695642 -53.660675 7.5303078
7.0374589 -12.722081 -1.7851423
9.4808998 -17.153387 -1.7147021
14.339314 -25.964909 -1.5544827
3.4224081 -6.2201929 -1.90232
3.8782356 -7.0544834 -1.8585455
4.5100584 -8.2071571 -1.820318
5.4239626 -9.8784018 -1.7849175
29.396408 -53.560398 7.50179
6.9882326 -12.737867 -1.7839236
9.4689922 -17.26684 -1.7228948
14.270407 -26.043844 -1.5563668
3.3923466 -6.2168393 -1.8976613
3.8501551 -7.0587525 -1.8562962
4.4823217 -8.2245741 -1.8206996
5.3911757 -9.8963327 -1.7849175
29.108507 -53.455353 7.473516
6.9326687 -12.736562 -1.7805113
9.4172287 -17.315538 -1.7244635
14.138178 -26.006796 -1.5513426
3.3772302 -6.2382479 -1.9007671
3.8282733 -7.077291 -1.8576458
4.4512882 -8.2324848 -1.8191731
5.3519034 -9.9064026 -1.7833531
28.815147 -53.359257 7.4459739
6.8787379 -12.743215 -1.7780739
9.2897463 -17.216919 -1.7115644
14.058684 -26.077087 -1.5525987
3.3508656 -6.2414885 -1.8981789
3.8053882 -7.0940447 -1.8585455
4.4206686 -8.2445135 -1.8184099
5.3191562 -9.9285059 -1.7839788
28.54718 -53.307274 7.4247684
6.8342137 -12.767149 -1.7780739
9.2305307 -17.250998 -1.7117388
14.001471 -26.189409 -1.5563668
3.3281505 -6.2514415 -1.8976613
3.7833478 -7.1124468 -1.8598953
4.3973937 -8.2702932 -1.8206996
5.2779799 -9.9348011 -1.7817887
6.7821617 -12.776899 -1.7761239
9.1291676 -17.205673 -1.704069
13.39357 -25.264055 -1.4985878
3.3135235 -6.2766886 -1.9018024
3.7512243 -7.1118207 -1.8562962
4.3684978 -8.285593 -1.8206996
5.2359037 -9.9391823 -1.7792858
27.86727 -52.922123 7.3438473
6.7338219 -12.793469 -1.775149
9.1627493 -17.415524 -1.7216746
13.238387 -25.183369 -1.4910516
3.2924893 -6.289928 -1.90232
3.7290857 -7.1300521 -1.8576458
4.3395486 -8.3007917 -1.8206996
5.200263 -9.9556475 -1.778973
6.6790199 -12.797539 -1.7724679
9.1928225 -17.629185 -1.7394543
13.13194 -25.194002 -1.4889581
3.2694142 -6.3019533 -1.90232
3.7059681 -7.1464849 -1.8585455
4.3072901 -8.3131533 -1.8199363
5.1591978 -9.9658699 -1.7774086
27.343805 -52.819218 7.3028994
6.622447 -12.797855 -1.7692993
9.1476994 -17.693024 -1.742592
13.364009 -25.870129 -1.5260119
3.2465124 -6.3116093 -1.9018024
3.6797509 -7.1600199 -1.8585455
4.2764511 -8.324646 -1.8191731
5.1252818 -9.9855747 -1.7777214
27.058508 -52.7407 7.2782817
6.5718727 -12.814977 -1.7683243
8.983182 -17.524498 -1.7228948
13.120665 -25.617971 -1.508427
3.221828 -6.3177404 -1.9002496
3.652966 -7.1693492 -1.8576458
4.2482572 -8.3412724 -1.8195547
5.0778518 -9.9787569 -1.7733413
26.786051 -52.661427 7.254395
6.5208015 -12.825452 -1.7666181
8.9779205 -17.665867 -1.7337019
12.993183 -25.588821 -1.5040308
3.1988835 -6.3272243 -1.8997319
3.6244032 -7.1750984 -1.8558462
4.2217698 -8.3613091 -1.8206996
5.0429883 -9.9964218 -1.7733413
26.499277 -52.550774 7.2263651
6.4768882 -12.849909 -1.7668619
9.0255699 -17.914177 -1.754968
12.844512 -25.516277 -1.4971225
27.488743 -54.655289 -1.0678779
3.1767783 -6.3383517 -1.8997319
3.6036987 -7.1964183 -1.8580956
4.1943145 -8.3795061 -1.8214628
5.0098305 -10.017497 -1.773967
26.226917 -52.465393 7.2019916
6.4169097 -12.84225 -1.7627183
8.9709949 -17.961617 -1.7565368
12.767852 -25.585978 -1.4985878
3.1511953 -6.3424811 -1.8976613
3.5776901 -7.2072086 -1.8576458
4.1563134 -8.3765087 -1.8176465
4.9730787 -10.031384 -1.7733413
25.955477 -52.378757 7.1776175
6.3720422 -12.864572 -1.7627183
8.873764 -17.923183 -1.7497386
12.896308 -26.07078 -1.5243372
3.1290367 -6.3534427 -1.8976613
3.5572131 -7.226027 -1.8594455
4.1287823 -8.3944902 -1.8184099
4.9354277 -10.038957 -1.7717769
25.692343 -52.282814 7.1527557
6.3249702 -12.876722 -1.7614996
8.8243151 -17.980879 -1.7523533
12.808023 -26.109818 -1.5241278
3.1113424 -6.3707275 -1.8997319
3.5319676 -7.2384005 -1.8594455
4.102643 -8.411665 -1.8191731
4.8960285 -10.047245 -1.7702127
25.424496 -52.197285 7.1288695
6.2782454 -12.895154 -1.7610122
8.7806692 -18.050989 -1.7561883
12.739511 -26.201067 -1.5268494
3.0879707 -6.3820887 -1.8997319
3.5015891 -7.2401581 -1.8567461
4.0734925 -8.4301796 -1.8199363
4.856595 -10.059785 -1.769274
25.152388 -52.099792 7.1035209
6.2331958 -12.916989 -1.7610122
8.7219305 -18.090506 -1.7570598
12.497781 -25.945286 -1.5092645
3.0706868 -6.4032798 -1.9028376
3.472502 -7.2476716 -1.8553963
4.0457382 -8.4478884 -1.8206996
4.8214483 -10.076676 -1.769274
24.874758 -52.010757 7.0789032
6.1678309 -12.902139 -1.7558937
8.7446318 -18.30061 -1.7744908
12.102531 -25.350706 -1.4722105
3.046658 -6.4104705 -1.9018024
3.4538693 -7.2738314 -1.8589954
4.0111732 -8.4513197 -1.8184099
4.7811675 -10.082736 -1.7673968
24.611423 -51.925072 7.0555043
6.122756 -12.923591 -1.7558937
8.6909313 -18.352629 -1.7765826
11.981507 -25.32419 -1.468233
3.0209699 -6.4140749 -1.8997319
3.4301181 -7.2893696 -1.8598953
3.9799774 -8.4617147 -1.8176465
4.7509828 -10.110091 -1.769274
24.357449 -51.856144 7.034543
6.0674849 -12.92332 -1.7529688
8.6022654 -18.330547 -1.7715275
11.932041 -25.449043 -1.473048
2.9985628 -6.4245811 -1.8997319
3.4038281 -7.2995334 -1.8594455
3.9487574 -8.4719973 -1.8168833
4.7073255 -10.108706 -1.7661453
6.0156379 -12.930023 -1.7510189
8.4785805 -18.232195 -1.7591513
11.812835 -25.425335 -1.4692798
2.9728737 -6.4279957 -1.8976613
3.3717885 -7.2972174 -1.8558462
3.9240994 -8.4964237 -1.8191731
4.66539 -10.110726 -1.7636423
5.9704666 -12.950943 -1.7510189
8.4757528 -18.393778 -1.7718763
11.899411 -25.847403 -1.4912609
2.9576616 -6.4541397 -1.90232
3.3495398 -7.316031 -1.8576458
3.8944182 -8.5100698 -1.8191731
4.6300669 -10.126951 -1.7636423
5.9153266 -12.950036 -1.7480941
8.4354944 -18.475811 -1.7769312
11.505742 -25.223709 -1.452951
2.9359128 -6.4661832 -1.9028376
3.3239825 -7.3276777 -1.8576458
3.8582029 -8.5093079 -1.8161201
4.5987659 -10.152047 -1.7652067
5.8659916 -12.961563 -1.7468753
8.3627405 -18.486988 -1.7751881
11.670966 -25.824287 -1.4851899
2.9014359 -6.449966 -1.8950732
3.3023787 -7.3481231 -1.8598953
3.8284762 -8.5227232 -1.8161201
4.5624914 -10.166237 -1.7648939
5.8101554 -12.958413 -1.7437067
8.2900066 -18.497887 -1.773445
11.464856 -25.606018 -1.4703265
2.8867679 -6.4776998 -1.9002496
3.2767076 -7.3596067 -1.8598953
3.8018954 -8.54321 -1.8176465
4.5173464 -10.16044 -1.7611394
5.7656918 -12.980429 -1.7439504
8.227005 -18.530354 -1.7737937
11.255548 -25.375677 -1.4548351
2.8610179 -6.4806676 -1.8981789
3.2454937 -7.3585181 -1.8567461
3.7704678 -8.5528355 -1.8168833
4.4786687 -10.168916 -1.7598881
5.7147498 -12.987757 -1.7422442
8.1598644 -18.553486 -1.7732707
11.213504 -25.520864 -1.460906
2.8414748 -6.4976954 -1.9002496
3.2221282 -7.3751593 -1.8580956
3.7429466 -8.5713425 -1.8180283
4.4431438 -10.184488 -1.7598881
5.659863 -12.985788 -1.7393193
8.0807276 -18.548979 -1.7701331
10.923498 -25.098356 -1.4345287
2.8195438 -6.509347 -1.9007671
3.1986864 -7.3917279 -1.8594455
3.7122245 -8.5825539 -1.8176465
4.407567 -10.199935 -1.7598881
5.6129236 -13.001822 -1.7388319
7.9843578 -18.503899 -1.7631607
10.824749 -25.110657 -1.4330633
2.7899504 -6.5031705 -1.8961084
3.1744006 -7.4064293 -1.8603452
3.6791508 -8.5882416 -1.8161201
4.3734899 -10.21889 -1.7605137
5.5667262 -13.01951 -1.7385882
7.8758712 -18.429058 -1.7533991
10.742523 -25.161146 -1.433796
2.7732768 -6.5270939 -1.9002496
3.1477656 -7.4156723 -1.8598953
3.6522167 -8.6082611 -1.8176465
4.3331666 -10.223182 -1.7586365
5.5173764 -13.029722 -1.7373695
7.806057 -18.443594 -1.7521789
10.656958 -25.20401 -1.4341099
2.7459803 -6.526051 -1.8971437
3.1203513 -7.4230213 -1.8589954
3.6221466 -8.6209564 -1.8176465
4.298985 -10.241888 -1.7592622
5.4718585 -13.048903 -1.7373695
7.7291703 -18.450029 -1.7500874
10.568917 -25.241056 -1.4341099
2.7264991 -6.5467725 -1.9002496
3.0921743 -7.4284711 -1.8576458
3.5905247 -8.6341753 -1.8176465
4.2674804 -10.272168 -1.7617651
5.4140973 -13.038589 -1.7334697
7.6418152 -18.421688 -1.7448579
10.851007 -26.183722 -1.4853992
2.7043669 -6.5580354 -1.9007671
3.06938 -7.4505653 -1.8603452
3.557375 -8.6393938 -1.8161201
4.2376099 -10.301619 -1.7642682
5.3640199 -13.046394 -1.7320073
7.5638413 -18.415077 -1.7417203
10.682208 -26.032965 -1.4747227
2.681874 -6.5651789 -1.9002496
3.0439208 -7.4588985 -1.8598953
3.5301886 -8.6547785 -1.8168833
4.1922431 -10.288174 -1.759575
5.3162374 -13.053079 -1.7305448
7.4937215 -18.417912 -1.7396286
10.42435 -25.646389 -1.4508575
2.6528418 -6.5561285 -1.8950732
3.0213599 -7.4743714 -1.8612449
3.5014687 -8.6664381 -1.8168833
4.1551466 -10.294691 -1.7583237
5.263958 -13.054987 -1.7283512
7.4375734 -18.464287 -1.7415459
10.304187 -25.593739 -1.445938
2.6381292 -6.5891218 -1.9018024
2.9909077 -7.4740167 -1.8585455
3.4755108 -8.6937962 -1.8199363
4.1166539 -10.308018 -1.7580107
5.1918635 -13.00691 -1.7195766
7.3767653 -18.499392 -1.7424176
10.191833 -25.584946 -1.4433211
2.6165369 -6.6018825 -1.9028376
2.9649282 -7.4885535 -1.8594455
3.4422543 -8.6985741 -1.8184099
4.0820994 -10.325998 -1.7586365
7.3136101 -18.528734 -1.7427661
10.105395 -25.627798 -1.4437398
2.5885365 -6.5983872 -1.8992143
2.9407907 -7.5001578 -1.8598953
3.4090042 -8.7032251 -1.8168833
4.0514364 -10.348676 -1.7602009
5.104547 -13.052083 -1.7207953
7.2343874 -18.517035 -1.73928
10.074114 -25.798841 -1.4514855
2.5652428 -6.603333 -1.8981789
2.9195273 -7.5230951 -1.8630446
3.3787053 -8.7108202 -1.8161201
4.0131454 -10.357229 -1.7592622
5.0725718 -13.104996 -1.7254263
7.1391544 -18.453588 -1.7310873
10.024319 -25.938175 -1.4573472
2.5414836 -6.6104436 -1.8976613
2.89255 -7.5314207 -1.8625948
3.3503883 -8.7280588 -1.8172649
3.9727247 -10.360107 -1.7573849
5.029634 -13.130036 -1.7264012
7.0305295 -18.363033 -1.7202801
9.9237242 -25.946892 -1.4558817
2.5190809 -6.6210804 -1.8981789
2.8620896 -7.5305424 -1.8598953
3.3205984 -8.7415371 -1.8176465
3.9421434 -10.388687 -1.7598881
2.5013988 -6.6442971 -1.90232
2.8350987 -7.5386639 -1.8594455
3.2942085 -8.7641001 -1.8199363
3.9023838 -10.393138 -1.7583237
4.9183297 -13.112787 -1.7195766
6.9112525 -18.435923 -1.7225461
9.7185249 -25.95195 -1.452323
2.4781907 -6.6529884 -1.90232
2.812165 -7.5576448 -1.8616948
3.26086 -8.7681866 -1.8184099
3.8688338 -10.414103 -1.759575
4.8594036 -13.094516 -1.7149456
6.8422513 -18.457392 -1.7221974
9.6389809 -26.015678 -1.4539977
2.4484477 -6.6475244 -1.8981789
2.7877865 -7.5729022 -1.8630446
3.2273455 -8.7763939 -1.8176465
3.8313179 -10.430069 -1.7598881
4.8177714 -13.122579 -1.716408
6.7770934 -18.479294 -1.7220231
9.5531816 -26.077089 -1.4554631
2.4252293 -6.6560307 -1.8981789
2.7573454 -7.5757437 -1.8612449
3.1980329 -8.791296 -1.8184099
3.794888 -10.443378 -1.7598881
4.7655783 -13.128953 -1.7149456
6.6948819 -18.45414 -1.717491
9.291976 -25.640835 -1.4292951
2.4013245 -6.6626377 -1.8976613
2.728246 -7.5738444 -1.8585455
3.1699841 -8.8097944 -1.8199363
3.7615721 -10.459622 -1.7605137
4.7193303 -13.137213 -1.7139707
6.6203275 -18.449268 -1.7148763
9.2338696 -25.746706 -1.4334819
2.3844099 -6.6851211 -1.9018024
2.7037539 -7.58883 -1.8598953
3.1407518 -8.8202581 -1.8199363
3.7237153 -10.468966 -1.7598881
4.6654701 -13.131159 -1.7110457
6.5551128 -18.459856 -1.7138306
9.1559582 -25.812664 -1.435366
2.3649154 -6.7043347 -1.9049082
2.681813 -7.6069436 -1.8621449
3.1060326 -8.8200569 -1.8176465
3.6902883 -10.484984 -1.7605137
4.6205821 -13.142812 -1.7105582
6.4840336 -18.463827 -1.7120874
9.042531 -25.763733 -1.4309698
2.3295155 -6.6819463 -1.8961084
2.6525855 -7.6171846 -1.8621449
3.0762663 -8.8387985 -1.8191731
3.6538935 -10.510272 -1.762391
4.5622692 -13.137955 -1.7076334
