# .PCD v0.7 - Point Cloud Data file format
VERSION 0.7
FIELDS x y z
SIZE 4 4 4
TYPE F F F
COUNT 1 1 1
WIDTH 1559
HEIGHT 1
VIEWPOINT 0 0 0 1 0 0 0
POINTS 1559
DATA ascii
17.443451 31.429996 -4.4136209
21.101189 38.004959 -3.8031278
23.388601 42.090153 -2.5235355
4.2038217 7.5342031 -2.3117716
4.980516 8.9188976 -2.3583868
5.5592055 9.9511089 -2.2156742
6.9765201 12.477905 -2.2642329
17.397951 31.091749 -4.3746219
21.128605 37.743313 -3.7843022
23.326464 41.635376 -2.5011356
4.2263055 7.5127497 -2.3097014
5.0215364 8.9227104 -2.3637857
5.5755992 9.8991432 -2.2084234
7.0101061 12.440932 -2.26173
17.487301 31.009678 -4.3712096
21.211273 37.582573 -3.7755868
23.539024 41.689976 -2.5090907
4.254056 7.5037336 -2.311254
5.0545778 8.9085159 -2.3646853
5.6113057 9.8857212 -2.2095683
7.0554447 12.41982 -2.2623556
17.579752 30.920834 -4.36731
21.270782 37.39772 -3.7640822
23.550045 41.37149 -2.4948552
4.2783079 7.4854836 -2.310219
5.0947256 8.9103174 -2.3696344
5.6545577 9.8814077 -2.2130029
7.1014967 12.404927 -2.2639198
17.729568 30.945038 -4.3790097
21.304043 37.153866 -3.7469995
23.573826 41.095661 -2.4829226
4.3072987 7.4755273 -2.3117716
5.144875 8.9219713 -2.3777328
5.684104 9.8531103 -2.2110946
7.1459241 12.377107 -2.263607
17.815056 30.831728 -4.3721852
21.292027 36.834328 -3.7222471
23.710279 40.984787 -2.4814572
4.3265772 7.4487514 -2.3081484
5.1916547 8.9309149 -2.3849311
5.6928039 9.7890806 -2.2011726
7.1851082 12.345261 -2.2623556
17.862625 30.666426 -4.3575606
21.324169 36.594528 -3.7055135
23.615755 40.494591 -2.4567547
4.3525534 7.4336023 -2.3081484
5.2296972 8.9245052 -2.3880804
5.7597075 9.8250408 -2.2137661
7.218164 12.303063 -2.2592268
17.92532 30.528582 -4.3468361
21.365002 36.372124 -3.6905227
23.720516 40.349934 -2.4529865
4.3755283 7.4133749 -2.3065956
5.2657752 8.9145842 -2.3903298
5.7450256 9.7220564 -2.1950669
7.2620745 12.27949 -2.2595396
17.920561 30.277906 -4.320025
21.45327 36.23217 -3.6838989
23.932484 40.387169 -2.4603136
26.926737 45.403961 -0.92141724
4.4043441 7.4030347 -2.3081484
5.303834 8.9078732 -2.3934791
5.7990227 9.7356758 -2.2026992
7.3048911 12.254068 -2.2595396
17.97123 30.123104 -4.3068628
21.48975 36.006516 -3.6685596
24.126585 40.39254 -2.4657564
4.4261827 7.38099 -2.306078
5.3433719 8.9069462 -2.3979783
5.817811 9.6901283 -2.196975
7.3444672 12.228085 -2.2592268
18.171242 30.230083 -4.3307495
21.543406 35.811779 -3.6563578
4.4486346 7.3629651 -2.3050425
5.370399 8.881568 -2.3961787
5.8671856 9.6993399 -2.2034624
7.3850636 12.198993 -2.2586012
18.293118 30.19363 -4.3346491
21.544325 35.545895 -3.6364863
4.467278 7.3358407 -2.301419
5.4013667 8.8627691 -2.3961787
5.919405 9.7089729 -2.2103314
7.4214258 12.163024 -2.2567239
18.338392 30.031334 -4.3205128
21.560242 35.293652 -3.6183579
4.4999299 7.3317285 -2.3050425
5.417994 8.8206129 -2.3898799
5.9419556 9.6698484 -2.2061336
6.7601933 10.992832 -2.043973
18.54715 30.136198 -4.3448858
21.645714 35.157089 -3.6120825
27.014486 43.808552 -0.89838004
4.5234642 7.3126898 -2.3040073
5.4446416 8.795022 -2.3880804
5.974638 9.6473808 -2.2057521
6.741281 10.876824 -2.0267651
18.650145 30.067894 -4.344399
21.635933 34.868015 -3.5901191
4.5448766 7.2902961 -2.3019366
5.4753108 8.7759619 -2.3880804
5.9947662 9.6048136 -2.2007911
7.5504785 12.087993 -2.2573495
18.680334 29.894768 -4.3283119
21.694122 34.690929 -3.5796607
26.271982 41.978752 -2.5953405
4.5618339 7.2637339 -2.2983131
5.5043855 8.7577553 -2.3880804
6.0359874 9.5998411 -2.2042258
7.5863171 12.056198 -2.2560983
18.713793 29.728508 -4.3132
21.696484 34.440098 -3.5611835
26.278954 41.681904 -2.582361
4.5869312 7.2501974 -2.2988307
5.5250554 8.726284 -2.3844812
6.0803976 9.5996733 -2.2088051
7.6283684 12.034314 -2.2567239
18.770657 29.589251 -4.3024755
21.769592 34.290142 -3.553514
26.331381 41.459644 -2.5739872
4.6082783 7.2251949 -2.2962427
5.5418534 8.6855879 -2.3786323
6.1144819 9.5756693 -2.2084234
7.6724229 12.006275 -2.2567239
18.805405 29.416502 -4.2868767
21.790346 34.059551 -3.5374773
26.343168 41.144184 -2.5603797
4.6397362 7.2188163 -2.2993486
5.5715451 8.6619387 -2.3777328
6.1606169 9.5740814 -2.2130029
7.7121491 11.976096 -2.2560983
18.919542 29.357393 -4.2883391
21.827065 33.85601 -3.5242295
26.410822 40.934505 -2.5530529
4.6628041 7.1993341 -2.2983131
5.5996251 8.6391687 -2.376833
6.1897244 9.5459299 -2.2114763
7.7582049 11.955732 -2.2573495
18.874872 29.064749 -4.2551904
21.858269 33.645954 -3.5102847
26.601465 40.915737 -2.5576584
4.6784058 7.1684527 -2.2936544
5.6276183 8.6163054 -2.3759329
6.2294536 9.5341253 -2.2137661
7.7988133 11.926923 -2.2570367
18.90012 28.882416 -4.2381287
21.907934 33.466091 -3.4994771
26.801029 40.909512 -2.5631013
29.555979 45.097534 -0.94117337
4.6970296 7.142395 -2.2905486
5.654016 8.5943403 -2.3750331
6.2518988 9.4959269 -2.20995
7.8394055 11.902647 -2.2573495
18.919315 28.703568 -4.221067
21.914925 33.223099 -3.4820464
26.984938 40.893768 -2.5677071
4.728158 7.1380525 -2.294172
5.6689057 8.5518141 -2.3687346
6.2779312 9.46696 -2.2080419
7.8743553 11.865332 -2.2554724
18.964489 28.554665 -4.2088799
21.972044 33.070587 -3.4736793
27.244749 40.975613 -2.5788021
4.7519717 7.1198988 -2.2936544
5.6727476 8.4930792 -2.3579369
6.3272977 9.4694748 -2.2137661
19.048588 28.4652 -4.2054677
22.011972 32.881111 -3.4618261
27.469883 41.00304 -2.5865479
4.7778726 7.1048722 -2.294172
5.6838655 8.4457407 -2.3502886
6.3438659 9.422904 -2.2080419
7.9592066 11.813347 -2.2560983
19.154495 28.408403 -4.2069302
22.008528 32.628986 -3.4433491
4.7918096 7.0721564 -2.2889957
5.7151194 8.4316864 -2.3516383
6.3910489 9.4218216 -2.2130029
7.9894676 11.773809 -2.2535954
19.172758 28.233063 -4.1903558
22.039408 32.430019 -3.43045
4.8163266 7.0578222 -2.2895133
5.7324262 8.3939848 -2.3466892
6.4222598 9.4005747 -2.2130029
19.219637 28.090597 -4.1791434
22.083803 32.264687 -3.4206884
4.8398342 7.0393786 -2.2889957
5.7491889 8.3588715 -2.3421905
6.4839697 9.4201508 -2.2229249
7.5462461 10.959357 -2.1074855
19.218075 27.889397 -4.1586695
22.146538 32.115234 -3.4130189
4.865479 7.0240283 -2.2895133
5.776454 8.3329391 -2.3408406
6.5190525 9.4006853 -2.2236881
7.3656168 10.613544 -2.0461631
19.333748 27.838343 -4.1615949
22.137995 31.864292 -3.3945417
4.8910747 7.008584 -2.290031
5.7962451 8.3025541 -2.3376913
6.5304666 9.3472919 -2.2164373
7.6972542 11.013273 -2.1281347
19.334934 27.643946 -4.1420956
22.196543 31.711733 -3.3865235
4.9009614 6.9733586 -2.2838194
5.828557 8.2870512 -2.3390412
6.5862842 9.3609066 -2.224833
7.7094955 10.949185 -2.1209388
19.369558 27.488663 -4.1289334
22.271727 31.595615 -3.3819914
24.95178 35.371429 -2.2685544
4.93085 6.9640956 -2.2864075
5.8563247 8.2650642 -2.3385913
6.6302662 9.3538809 -2.2286491
7.7796726 10.967319 -2.129699
19.396456 27.323753 -4.1143093
22.298832 31.400713 -3.369441
25.033459 35.225502 -2.2647865
4.952888 6.9436946 -2.2853725
5.8715515 8.2255392 -2.3331923
6.6777115 9.351449 -2.2336102
7.8328371 10.960992 -2.1337664
19.410894 27.142851 -4.0972476
22.359608 31.254631 -3.3621197
4.9782209 6.9279327 -2.2858899
5.9013672 8.2065744 -2.3336422
6.7263622 9.3503962 -2.2389529
7.8802862 10.946406 -2.1362693
19.375557 26.894539 -4.0699487
22.394028 31.072939 -3.3509638
25.346428 35.117847 -0.75596845
4.9967113 6.9026875 -2.2833018
5.9345493 8.1922388 -2.3354418
6.7520499 9.3173189 -2.2366631
8.1086369 11.18109 -2.1875796
19.476288 26.846212 -4.0723863
22.389975 30.839802 -3.3342299
5.0127482 6.8767118 -2.280196
5.9616814 8.1725149 -2.3354418
6.7875428 9.3012199 -2.2381897
8.2446918 11.28974 -2.2141736
19.492609 26.682091 -4.0572743
22.421562 30.668888 -3.3237712
5.0366664 6.8616095 -2.2807136
5.9841371 8.1464157 -2.3336422
6.8462486 9.3166304 -2.2473485
8.1451654 11.076141 -2.177568
19.496202 26.492384 -4.0387506
22.44519 30.488464 -3.3122668
5.0640316 6.8486476 -2.2822666
6.006743 8.1176443 -2.3313928
6.8939104 9.3131905 -2.2523096
8.1449795 10.995258 -2.1672435
19.543631 26.363571 -4.0294886
22.470783 30.301098 -3.3004134
5.0856004 6.8278289 -2.2812312
6.0338726 8.0950689 -2.3309429
6.9392891 9.3063803 -2.2565072
8.1714888 10.950933 -2.1641147
19.602289 26.250652 -4.0226641
22.504856 30.126719 -3.2899549
5.1070862 6.8069434 -2.280196
6.0606856 8.0750141 -2.3309429
6.9634814 9.2711105 -2.2538359
8.2825184 11.023268 -2.1838255
19.589025 26.052219 -4.0021896
22.549992 29.968374 -3.2812395
30.025034 39.887985 -2.6164842
5.1226425 6.7807231 -2.2770901
6.0888381 8.0538073 -2.3309429
7.014318 9.2745895 -2.2603235
8.3233337 10.997437 -2.1844511
19.627094 25.91407 -3.9914653
22.528933 29.734617 -3.2638083
26.763832 35.272831 -0.77286232
5.1427693 6.7581892 -2.2755373
6.112186 8.0263062 -2.329143
7.054975 9.2609816 -2.2629948
8.3544874 10.958889 -2.1825738
19.650011 25.757015 -3.9778159
22.574577 29.579765 -3.2554412
27.017931 35.350788 -0.77663213
5.1675057 6.7417288 -2.2760549
6.1330514 7.9956431 -2.3264439
7.081286 9.2285089 -2.2610867
8.3241072 10.84036 -2.1647403
19.681736 25.612719 -3.9661164
22.607244 29.409185 -3.245331
26.298162 34.185867 -2.2603903
27.204605 35.338657 -0.77844715
5.1957245 6.7297692 -2.2781253
6.162118 7.9757271 -2.3268938
7.1062508 9.194416 -2.2587969
8.3824453 10.837798 -2.1700592
19.744297 25.509317 -3.9607539
22.604872 29.194605 -3.2303405
27.430719 35.376232 -0.78137916
5.2108846 6.7009149 -2.2745018
6.1875253 7.9510937 -2.3259938
7.1346822 9.1649084 -2.2576523
8.4214363 10.810032 -2.170372
19.789289 25.383875 -3.9519794
22.664976 29.062109 -3.2244139
26.337114 33.746368 -2.2434332
5.227098 6.6735582 -2.2713959
6.2126584 7.9289956 -2.3255439
7.1654215 9.138401 -2.2572706
8.4072561 10.718318 -2.1575444
19.758137 25.171335 -3.9290681
22.670292 28.8606 -3.2108173
26.209469 33.354187 -2.2231269
5.2491984 6.656189 -2.2713959
6.2378817 7.9042029 -2.3246443
7.2114983 9.1346235 -2.2622316
8.3490992 10.568007 -2.1331406
19.821253 25.071072 -3.9241931
22.662121 28.643785 -3.195478
5.2771668 6.6414418 -2.272949
6.2545199 7.8686523 -2.3205953
7.2632651 9.131175 -2.2679558
8.3988514 10.551242 -2.1359563
19.807257 24.87439 -3.9042068
22.689943 28.474131 -3.1853678
26.285595 32.962784 -2.2095196
5.2966943 6.6184564 -2.2713959
6.2747917 7.8350258 -2.3174458
7.3122778 9.1272182 -2.2732985
8.5554857 10.67136 -2.1663048
19.80636 24.68705 -3.8861701
22.73683 28.329489 -3.1780469
25.767647 32.082893 -2.1565557
25.836012 32.156487 -0.72001648
5.3197665 6.5999255 -2.2713959
6.305635 7.820241 -2.3192453
7.3527255 9.1123314 -2.2759697
8.6193657 10.678282 -2.1735008
19.843218 24.565636 -3.8773954
22.742876 28.135307 -3.165148
5.3306665 6.568749 -2.2667372
6.3316641 7.7966719 -2.3187954
7.4138484 9.1259947 -2.2855103
8.7139053 10.718638 -2.1878927
19.8587 24.409985 -3.8637462
22.760601 27.967009 -3.1546893
5.3572297 6.5545907 -2.2682903
6.3599491 7.7786512 -2.3196952
7.4680357 9.1274128 -2.2923794
8.7406416 10.678985 -2.1857026
19.926952 24.328642 -3.8613086
22.792416 27.807257 -3.1456251
27.051014 32.991096 -2.2358968
5.3788505 6.5343571 -2.2677724
6.3747859 7.7387447 -2.3147464
7.5185809 9.1240129 -2.2981036
8.7658968 10.630115 -2.182261
19.871946 24.080902 -3.8335223
22.80537 27.615999 -3.1334233
28.626831 34.62851 -0.78424132
5.3990631 6.5101395 -2.2662196
6.3942971 7.7074442 -2.312047
7.5745425 9.1235867 -2.3049729
8.799757 10.591829 -2.1810095
10.848344 13.05299 -2.0839658
22.804811 27.419798 -3.1201756
27.435211 32.963867 -2.2476203
28.642626 34.402351 -0.78137916
5.4217567 6.4912519 -2.2662196
6.4300003 7.6929297 -2.3147464
7.6214585 9.1151628 -2.3095522
8.8886414 10.623171 -2.1938372
19.985134 23.868074 -3.8223104
22.859426 27.291164 -3.1145973
28.705996 34.234745 -0.77984333
5.4331923 6.4589801 -2.2615609
6.4466939 7.6611242 -2.3115969
7.6785231 9.118535 -2.3171847
8.9365501 10.608741 -2.1969659
11.039009 13.095316 -2.1029775
22.898035 27.144192 -3.1069279
28.696297 33.981556 -0.77635282
5.4495826 6.4350343 -2.2594905
6.4696193 7.6341133 -2.3102474
7.735374 9.1244755 -2.3251987
8.93647 10.533796 -2.1878927
11.061525 13.029468 -2.0985904
22.910545 26.976986 -3.0964689
28.724064 33.774544 -0.77390951
5.4720135 6.4159708 -2.2594905
6.4848409 7.5981445 -2.3061984
7.7888498 9.122798 -2.331686
9.0014124 10.53558 -2.1947758
11.148217 13.03906 -2.1063898
22.952768 26.83629 -3.0894966
28.802752 33.628513 -0.77286232
5.4943776 6.3968296 -2.2594905
6.5087857 7.5725045 -2.3052983
7.8488092 9.1283035 -2.3400817
9.0407133 10.507087 -2.1954014
20.130974 23.379663 -3.788187
22.968294 26.665424 -3.0790381
5.5166721 6.3776126 -2.2594905
6.5313091 7.5479331 -2.3043985
7.8973303 9.1201458 -2.3450427
9.0871458 10.49049 -2.1982174
11.475958 13.238871 -2.1512377
23.011616 26.527901 -3.0724142
5.5289087 6.3490868 -2.255867
6.5588989 7.5265555 -2.3048484
7.9584908 9.129426 -2.3542016
9.0406027 10.363435 -2.1781938
20.096451 23.02076 -3.7521138
23.023457 26.364397 -3.062304
5.5472174 6.3253889 -2.2543139
6.5838442 7.502152 -2.3043985
8.0175114 9.1325703 -2.3622153
8.5669537 9.7515593 -2.0558619
20.121632 22.887859 -3.7418768
23.06271 26.224031 -3.0553319
5.5654259 6.3016453 -2.2527611
6.5970893 7.4645209 -2.2998996
8.0727472 9.1310062 -2.3690846
9.1807966 10.377 -2.194463
20.234253 22.862635 -3.7487013
23.085424 26.0658 -3.0462675
28.808868 32.505318 -2.2763004
28.877565 32.571346 -0.759808
5.5939927 6.2918181 -2.255867
6.6218047 7.4426045 -2.2998996
8.1225586 9.1261854 -2.374809
9.217783 10.349449 -2.1950886
20.230719 22.706482 -3.734077
23.121344 25.932598 -3.0396438
9.1574926 10.263711 -0.72087556
9.1771154 10.282089 -0.24056397
5.6135397 6.2717924 -2.2553494
6.6438498 7.4176993 -2.2989998
8.1763611 9.1255159 -2.3816779
9.2309561 10.295291 -2.1900828
9.1739063 10.22449 -1.6866719
9.1907921 10.239705 -1.2037951
29.085211 32.381886 -2.2811153
5.6224656 6.2378078 -2.2501729
6.6670871 7.3915739 -2.2981
8.2292118 9.1202393 -2.387784
9.1145897 10.094406 -2.1541028
20.295599 22.46158 -3.7170153
23.190434 25.656384 -3.0256989
5.6390076 6.2124267 -2.2481024
6.6915393 7.3668118 -2.2976501
8.2728739 9.1045408 -2.3912184
9.2507725 10.173601 -2.177881
11.945102 13.1275 -2.1792676
23.194021 25.480968 -3.0145428
5.6632671 6.1955547 -2.2491376
6.7053738 7.3304687 -2.2936008
8.3006306 9.0712614 -2.3900738
9.3169088 10.174757 -2.1850767
11.97074 13.063768 -2.1756117
23.210121 25.320547 -3.0051301
5.6861687 6.1771674 -2.2496552
6.7309227 7.3070164 -2.2936008
8.3229342 9.0321226 -2.3874023
9.2131042 9.9911423 -2.1525385
12.053959 13.062753 -2.1824365
23.247019 25.183737 -2.9985063
5.7063818 6.1558666 -2.2491376
6.7537398 7.2806177 -2.2927012
8.3383846 8.9857483 -2.382823
9.4495525 10.176046 -2.1994689
12.12921 13.052592 -2.1877987
23.266964 25.029465 -2.9897904
5.7159729 6.123199 -2.2444789
6.7817717 7.2598472 -2.2936008
8.3629999 8.9494114 -2.3809147
9.4054098 10.057875 -2.1810095
12.215392 13.053654 -2.1951108
23.27249 24.860828 -2.979332
5.7320175 6.09758 -2.2424083
56.56374 60.171124 1.4414989
6.8031383 7.2344813 -2.2927012
8.3807316 8.9058695 -2.3770986
9.4116287 9.9978657 -2.1747522
12.313055 13.070874 -2.2048604
23.285322 24.701159 -2.969919
28.716633 30.452036 -2.1936095
5.7522054 6.0785398 -2.2424083
56.619488 59.810654 1.4375896
6.8176322 7.199368 -2.2891018
8.4034662 8.870904 -2.3751905
9.5062695 10.028028 -2.1885185
12.395496 13.066694 -2.2114413
23.287569 24.539976 -2.9598091
28.676968 30.198101 -2.1825144
5.7733903 6.0584226 -2.2424083
56.651291 59.427399 1.4331218
6.8413739 7.1741171 -2.2886522
8.4289618 8.8358326 -2.3736639
9.493474 9.9447765 -2.177568
12.471203 13.054922 -2.2168036
23.304256 24.38652 -2.9510932
28.815342 30.13245 -2.1850264
5.7918291 6.0354433 -2.2413731
6.863677 7.1473794 -2.2877522
8.4407148 8.7865324 -2.3683214
9.5692024 9.9542971 -2.186954
12.566233 13.062821 -2.2255781
23.314644 24.227497 -2.9416807
28.989595 30.103634 -2.1902599
5.7994351 6.001298 -2.2361965
6.8858695 7.1205802 -2.2868524
8.460412 8.7457285 -2.3652685
9.5448141 9.8598013 -2.1735008
12.650432 13.058795 -2.2324028
23.307568 24.051527 -2.930176
5.8190031 5.9796319 -2.2356789
6.912045 7.0978951 -2.2873023
8.4867811 8.7119207 -2.3641236
9.5833025 9.8306732 -2.1744394
12.729202 13.048663 -2.2382526
23.346834 23.924408 -2.924598
5.8438921 5.9634261 -2.2372317
6.9205403 7.0596256 -2.2823534
8.5075092 8.6724386 -2.3614521
9.5854139 9.7678194 -2.1675563
12.812737 13.047458 -2.245321
23.360388 23.771708 -2.9158823
5.8595676 5.9398875 -2.2356789
6.9424047 7.032649 -2.2814536
8.5238085 8.6316051 -2.3580177
9.7166481 9.832653 -2.1894569
12.88054 13.025233 -2.2492208
23.391451 23.645945 -2.9099557
5.8802676 5.9193959 -2.2356789
6.9641585 7.0056138 -2.2805538
8.5303555 8.5781307 -2.3515301
9.7272177 9.7748795 -2.1841383
12.945541 12.999882 -2.2526331
23.420401 23.510525 -2.903332
5.8940616 5.8920059 -2.2330909
6.9913287 6.984014 -2.2814536
8.556077 8.5441418 -2.3503854
9.8032284 9.7827225 -2.1935244
13.082202 13.045727 -2.268476
23.45718 23.383614 -2.897754
5.9091072 5.8659539 -2.2310205
7.0156636 6.9595685 -2.2814536
8.5746956 8.5031662 -2.3473325
9.8148651 9.7261982 -2.1885185
13.155876 13.027915 -2.273351
23.462196 23.225904 -2.8883414
5.9323001 5.8480024 -2.2320557
7.0315871 6.9268293 -2.278754
8.6015291 8.4704256 -2.3465691
9.9177494 9.7597675 -2.2038488
13.215423 12.995836 -2.2757883
23.449356 23.051674 -2.8768368
5.947154 5.8218541 -2.229985
7.0475535 6.8966613 -2.2765048
8.6282349 8.4376059 -2.3458059
9.9966764 9.7723913 -2.2141736
13.247082 12.940845 -2.2738385
23.504021 22.94462 -2.8736989
5.965044 5.8007522 -2.2294674
7.070188 6.8706579 -2.2760546
8.6449051 8.3980007 -2.3427529
10.016552 9.7236795 -2.211045
13.290752 12.893138 -2.2735946
23.497019 22.786112 -2.863589
5.9796987 5.7745252 -2.2273967
7.0871158 6.8391724 -2.2738054
8.6685171 8.362319 -2.3412266
10.013455 9.6530132 -2.2029104
13.332822 12.843908 -2.2731071
23.487431 22.618271 -2.8527818
6.002604 5.7562957 -2.2284322
7.1123543 6.8157382 -2.2742553
8.6919785 8.3265839 -2.3397002
10.024261 9.5961418 -2.1979043
13.368964 12.78906 -2.2716448
23.468327 22.442501 -2.8409286
6.0156674 5.7286444 -2.2258439
7.1248074 6.7801247 -2.2706561
8.7238379 8.2988958 -2.3404634
10.047672 9.551568 -2.1957142
13.410649 12.739578 -2.2711573
23.546518 22.360451 -2.8409286
6.0356288 5.7076097 -2.2258439
7.1455998 6.7525339 -2.2697561
8.7556095 8.2710876 -2.3412266
10.113993 9.5476217 -2.2029104
13.435494 12.678691 -2.2682326
23.560658 22.217974 -2.8332589
6.0545187 5.6875672 -2.2258439
7.1622686 6.7234683 -2.2679565
8.762948 8.223196 -2.3358839
10.164329 9.5315981 -2.2069776
13.471674 12.628632 -2.2672575
23.529509 22.041655 -2.8207085
6.0648737 5.6595488 -2.222738
7.1802511 6.6956902 -2.2666068
8.7930355 8.1967754 -2.336647
10.243582 9.5422697 -2.2173023
13.52148 12.586951 -2.2682326
23.533371 21.891529 -2.8119926
6.0827432 5.634655 -2.2217028
7.1978559 6.6652946 -2.2648072
8.8129349 8.1551561 -2.3339758
10.287187 9.5127096 -2.2191796
13.568252 12.542365 -2.2687199
23.571589 21.774103 -2.8074608
48.604725 44.866871 -3.4666295
6.1066384 5.6173129 -2.2232556
7.2179375 6.6349068 -2.2634575
8.8500204 8.1323166 -2.3362653
10.381443 9.532855 -2.2323201
13.60535 12.484501 -2.2672575
23.574045 21.624344 -2.7987454
6.1247845 5.5946574 -2.222738
7.2352953 6.6044178 -2.261658
8.8682032 8.0921078 -2.3335941
10.439467 9.5191889 -2.237639
13.610701 12.402167 -2.26092
23.581621 21.480209 -2.7907267
6.1399822 5.5693517 -2.2211852
7.2583036 6.579123 -2.261658
8.8789396 8.0452824 -2.3290148
10.49313 9.5012541 -2.2420189
13.657644 12.36229 -2.2618952
23.591438 21.338963 -2.783057
6.1483703 5.5399094 -2.2175617
7.2757382 6.5511036 -2.2603083
8.9011869 8.0118599 -2.3278699
10.565705 9.5033903 -2.2507794
12.700686 11.419716 -2.0971277
23.611689 21.215332 -2.7771306
6.1638298 5.5169115 -2.2165263
7.284348 6.5152493 -2.2562592
8.921854 7.9770608 -2.3263433
10.628093 9.4959421 -2.2573495
12.853012 11.475789 -2.1156518
23.608292 21.063814 -2.7680664
6.1854539 5.4955645 -2.2170439
7.2968464 6.4807262 -2.2531099
8.9363508 7.9312739 -2.3225272
10.679085 9.4713402 -2.2607911
13.751537 12.192027 -2.2565329
23.620535 20.927099 -2.7609196
6.2045984 5.4739404 -2.2170439
7.3161659 6.4500699 -2.25176
8.9639797 7.9000335 -2.3225272
10.689843 9.4144239 -2.2560983
12.884136 11.338931 -2.1073649
23.614786 20.768023 -2.7513323
6.2202592 5.4473467 -2.2154911
7.3371692 6.4232106 -2.2513101
8.9781008 7.854197 -2.318711
10.718331 9.369978 -2.2548466
12.971472 11.335684 -2.1151645
23.615108 20.622555 -2.7429655
6.2266273 5.4165473 -2.21135
7.3610177 6.3988361 -2.25176
8.9951992 7.8166604 -2.3164213
10.765749 9.3486328 -2.2582881
13.034468 11.314737 -2.1193082
23.602091 20.473635 -2.7335527
48.956245 42.437164 -3.3954527
6.2474794 5.3983936 -2.2123852
7.3777733 6.3705678 -2.2504103
9.0181017 7.7842202 -2.3156581
10.822121 9.3348103 -2.263607
13.13807 11.328486 -2.1300325
23.601936 20.336723 -2.7257087
6.2594819 5.3726149 -2.2103145
7.3766699 6.3270383 -2.2436619
9.0468445 7.7568302 -2.3164213
10.895018 9.3348618 -2.2723672
13.141346 11.251567 -2.1241827
23.610207 20.207823 -2.7189105
6.2723184 5.3457189 -2.2082443
7.3987088 6.3012519 -2.2436619
9.0648975 7.7175646 -2.3141315
10.981697 9.3428564 -2.2836306
23.580399 20.040134 -2.7074058
6.2983131 5.3300328 -2.2108324
7.417685 6.2728686 -2.2427619
9.0797863 7.6757379 -2.3110785
11.050463 9.3350592 -2.2911394
13.309068 11.235105 -2.1385634
23.577126 19.896017 -2.699039
6.3020906 5.2955852 -2.2056561
7.4410267 6.2481923 -2.2432117
9.0975037 7.6364207 -2.308789
11.135948 9.3408623 -2.3020899
13.364944 11.202603 -2.1412446
23.57618 19.754738 -2.6910207
6.3205385 5.2735529 -2.2056561
7.4612937 6.2209339 -2.2427619
9.1241064 7.6046157 -2.308789
11.214021 9.3398619 -2.311476
13.414644 11.164774 -2.1429508
23.580669 19.618797 -2.6836996
6.340395 5.2526917 -2.2061737
7.4668751 6.1837254 -2.2382631
9.1505947 7.572722 -2.308789
11.282986 9.3340988 -2.3192978
13.500556 11.160699 -2.1507504
23.590633 19.488152 -2.6770759
6.3503184 5.2255006 -2.2035854
7.4884167 6.1576214 -2.2382631
9.1620045 7.5311179 -2.3053544
11.3674 9.337285 -2.3299353
13.568588 11.137431 -2.1553814
23.618168 19.379477 -2.6728923
32.487614 26.638176 -2.2017739
6.374506 5.20819 -2.2056561
7.5068445 6.1289811 -2.2373631
9.1699886 7.4841919 -2.3007751
11.461155 9.3474903 -2.3424499
13.559678 11.051126 -2.1478255
23.605345 19.231482 -2.6638281
31.898891 25.969788 -2.1557183
6.3746428 5.1713037 -2.1994443
7.5206261 6.0966024 -2.2351139
9.1945295 7.4509029 -2.3003933
11.53977 9.344717 -2.351836
13.683042 11.072409 -2.161231
23.518984 19.024908 -2.6465712
31.745483 25.661165 -2.1392848
6.3881431 5.1453834 -2.1978915
7.5433755 6.0715408 -2.2355635
9.2128363 7.4126067 -2.2984853
11.615418 9.3390465 -2.3605964
13.664354 10.978572 -2.1522129
23.543297 18.909029 -2.6418648
31.733622 25.468927 -2.1324811
6.4090834 5.1254644 -2.1989267
7.5477786 6.0317879 -2.2306147
9.2371235 7.3791747 -2.2981036
11.698895 9.3391094 -2.3709211
13.649828 10.888721 -2.1439257
23.440926 18.692566 -2.623039
31.741104 25.293285 -2.1270382
6.4269319 5.1030655 -2.1989267
7.5687885 6.0054021 -2.2306147
9.2551289 7.3407927 -2.2961955
11.771676 9.3301144 -2.3790557
13.599058 10.770753 -2.1300325
23.38732 18.51663 -2.6097915
31.81041 25.167452 -2.125782
6.435605 5.0734229 -2.1958208
7.5851116 5.9753299 -2.229265
9.2714434 7.3011513 -2.2939057
11.846085 9.3219519 -2.3875031
13.731761 10.798063 -2.1449006
23.282639 18.301905 -2.5909657
31.898073 25.056252 -2.125782
6.4395828 5.0402126 -2.1911621
7.6018143 5.9477434 -2.2283652
9.2814064 7.2566528 -2.2900898
11.875374 9.2814035 -2.3871903
13.715857 10.712156 -2.1368573
23.255289 18.14942 -2.5808558
31.977823 24.947905 -2.1255727
6.4562607 5.0188317 -2.1911621
7.6209927 5.9199743 -2.2279153
9.3069715 7.2270365 -2.2904713
11.867126 9.2084055 -2.3790557
13.837881 10.729896 -2.1500192
23.179916 17.967234 -2.565865
32.083664 24.850792 -2.1268287
6.4737415 4.996263 -2.1911621
7.6220684 5.880383 -2.2225163
9.3305855 7.1933084 -2.2900898
11.886646 9.1605577 -2.3768656
13.901694 10.705752 -2.1544065
23.179331 17.837612 -2.5588925
32.16906 24.746706 -2.1270382
6.496408 4.9794664 -2.1932325
7.6471877 5.8572984 -2.2238662
9.3465948 7.1563568 -2.2881815
11.905997 9.1094103 -2.3743625
13.921635 10.643894 -2.1517253
23.174963 17.705784 -2.5515714
32.283825 24.656078 -2.1289222
6.5130768 4.9544549 -2.1927149
7.6675863 5.8305702 -2.2238662
9.3524389 7.1066127 -2.2832205
11.928289 9.0573511 -2.3721726
13.965029 10.600039 -2.1527004
23.068367 17.497147 -2.5330944
32.466293 24.607565 -2.1349933
6.5133753 4.9188814 -2.187021
7.6842394 5.7989049 -2.2225163
9.372489 7.070374 -2.2820759
11.958259 9.0144663 -2.3718596
14.095745 10.618059 -2.166837
23.052902 17.358994 -2.5247276
32.753071 24.645405 -2.1481819
6.5305042 4.8961172 -2.187021
7.6997547 5.7685428 -2.2211666
9.3939686 7.0352626 -2.2813125
11.973835 8.9608364 -2.368731
14.053239 10.509345 -2.1546502
22.937815 17.1472 -2.5055532
40.148174 29.990993 -2.6263232
6.5429068 4.8698292 -2.185468
7.7073336 5.7323279 -2.2175674
9.4153194 7.0000834 -2.2805493
11.930512 8.8636189 -2.3540261
14.064339 10.441291 -2.1507504
22.939928 17.024288 -2.4992781
6.5707388 4.855001 -2.1890914
7.7194586 5.6995997 -2.215318
9.4396954 6.9671779 -2.2805493
11.926408 8.7961216 -2.3471429
14.014406 10.32854 -2.1375885
22.893349 16.866108 -2.4877734
40.646088 29.923113 -2.6451643
6.5720706 4.8206086 -2.1839154
7.7440205 5.6760764 -2.2166677
9.4481192 6.9225826 -2.2767329
11.944287 8.7451048 -2.34464
14.064796 10.290103 -2.1397822
22.81057 16.682585 -2.472434
40.692245 29.738615 -2.6413958
51.702969 37.757805 -1.1175126
6.5826106 4.7930875 -2.1818447
7.7622128 5.6478615 -2.2162178
9.4627018 6.8826289 -2.2744434
11.96196 8.6940641 -2.3421371
14.08938 10.23279 -2.1380758
22.710653 16.48815 -2.4553516
40.50156 29.382963 -2.6223457
6.5899072 4.7632918 -2.1787388
7.767664 5.6104612 -2.2121687
9.485076 6.8484087 -2.2740617
11.96981 8.6360712 -2.3377569
14.129847 10.187024 -2.1388073
22.632299 16.310919 -2.4407094
40.360779 29.066319 -2.6066449
6.6284699 4.7560248 -2.1859856
7.7798905 5.5801296 -2.2103691
9.500948 6.8095374 -2.2721536
11.991957 8.5917311 -2.3365054
14.189378 10.158597 -2.1427069
22.656677 16.208649 -2.4372232
40.499187 28.962515 -2.6093664
6.6300445 4.7239304 -2.1813271
7.7913837 5.5472898 -2.2081196
9.5122786 6.7700267 -2.2694824
12.015433 8.5452414 -2.335254
14.164885 10.066454 -2.1336887
22.567375 16.031879 -2.4218838
40.531647 28.772402 -2.6049702
6.6480689 4.7018752 -2.1818447
7.8138838 5.522306 -2.2090194
9.5198164 6.7254558 -2.2656662
12.038735 8.4986887 -2.3340025
14.175599 9.999795 -2.1300325
22.505966 15.87033 -2.4093332
40.648155 28.642256 -2.6060169
6.6470499 4.6664281 -2.1761506
7.8283248 5.4916406 -2.2076695
9.538414 6.6887999 -2.2645214
12.055385 8.447547 -2.3314996
14.314489 10.023117 -2.1456318
22.358822 15.650008 -2.3877187
40.613674 28.406332 -2.5974338
6.6585455 4.639883 -2.1745977
7.8416953 5.4623117 -2.20632
9.5568714 6.6520967 -2.2633765
12.070358 8.3985004 -2.3289967
14.341134 9.9710588 -2.1446569
22.328236 15.512747 -2.3786545
40.307388 27.993498 -2.5718937
7.8543043 5.4304705 -2.2045202
9.5788765 6.6203704 -2.2633765
12.0866 8.347332 -2.3264937
14.374215 9.9198122 -2.1444132
22.149948 15.280231 -2.3542509
40.168056 27.689407 -2.5568211
84.389351 58.129421 -1.7886623
6.6963415 4.5988297 -2.1766684
7.8651772 5.3975086 -2.202271
9.588975 6.5780106 -2.2603235
12.105889 8.2983866 -2.3246164
14.448062 9.8964958 -2.1502628
21.032667 14.401361 -2.2301412
40.280956 27.560291 -2.5578678
51.886803 35.474483 -1.097128
6.7043734 4.5699849 -2.1740801
7.8775291 5.3656306 -2.2004712
9.5988979 6.5356569 -2.2572706
12.121716 8.2471914 -2.3221135
14.54982 9.8917713 -2.1602564
20.103971 13.662647 -2.1266
40.343868 27.397085 -2.5557745
52.275078 35.47279 -1.1027129
6.7122836 4.5411434 -2.1714919
7.8962116 5.3380985 -2.2004712
9.6151438 6.4977155 -2.255744
12.134061 8.1937704 -2.3189847
14.666538 9.8964357 -2.1724429
20.148241 13.590155 -2.1262515
40.571743 27.345404 -2.5641482
6.7200761 4.5122991 -2.1689036
7.9131756 5.309423 -2.2000213
9.6263552 6.4564552 -2.2530727
12.146174 8.1403761 -2.3158562
14.732335 9.8661623 -2.177074
20.367735 13.635025 -2.1443799
40.517551 27.103661 -2.5547276
6.7390027 4.4909549 -2.169939
7.9193873 5.2755876 -2.196872
9.6406641 6.4173713 -2.2511647
12.166525 8.0956726 -2.3146045
14.806301 9.8447285 -2.1831677
20.664135 13.729226 -2.1705265
40.397579 26.829912 -2.541539
6.7538548 4.4685874 -2.169939
7.9296274 5.2425361 -2.1946225
9.665164 6.3875389 -2.2519279
12.18812 8.0487967 -2.3133533
14.959862 9.8717146 -2.2007167
20.822647 13.73522 -2.1823797
40.444275 26.657984 -2.5386081
6.753264 4.4343791 -2.1647625
7.9420795 5.2130046 -2.1932726
9.6644192 6.3386846 -2.2465851
12.198221 7.9975071 -2.3102245
15.03237 9.848156 -2.2065666
20.940475 13.708288 -2.1897008
40.458927 26.47559 -2.5340025
6.7889705 4.4256768 -2.1714919
7.9732904 5.1937609 -2.196872
9.6722231 6.2980332 -2.2435322
12.216127 7.9484172 -2.3083472
15.11825 9.8291616 -2.2141225
20.958122 13.615577 -2.1865633
40.437202 26.26022 -2.5268848
61.442204 39.870583 -1.2784935
6.7889228 4.390275 -2.1663156
7.9750075 5.1553159 -2.192373
9.6902962 6.2593422 -2.2423875
12.228584 7.8928738 -2.3052187
15.199171 9.8064671 -2.220947
21.104322 13.606025 -2.1968477
6.7993293 4.3634186 -2.1647625
7.9790845 5.1165862 -2.188324
9.7120857 6.225481 -2.2423875
12.239424 7.8394876 -2.3020899
15.298549 9.7913523 -2.2302091
21.254063 13.597776 -2.2074807
6.8063712 4.3344707 -2.1621742
7.9943643 5.0890493 -2.1878741
9.7238169 6.1852217 -2.2400978
12.262022 7.7967343 -2.3014641
27.175461 17.272697 3.9536855
15.359416 9.758667 -2.2343528
21.395596 13.583299 -2.217242
40.369331 25.61916 -2.5057411
8.0153742 5.0631962 -2.1887739
9.7309961 6.1445537 -2.2370448
12.282478 7.7496705 -2.3002126
27.109657 17.098314 3.935405
15.376592 9.6944094 -2.2319155
21.568623 13.593011 -2.2304897
40.411186 25.448296 -2.5028102
6.8259001 4.281878 -2.1590683
8.0313473 5.0341535 -2.188324
9.7424049 6.1042919 -2.234755
12.302756 7.702559 -2.2989612
27.317261 17.096247 3.9568543
15.42717 9.6512003 -2.2343528
21.771351 13.614832 -2.2465265
26.770061 16.727791 -1.6543397
6.8424444 4.259048 -2.1595864
8.0372887 4.9988809 -2.1851747
26.816425 16.672285 1.6548631
9.7669868 6.0723228 -2.2355182
26.826714 16.67219 2.76336
12.302722 7.6428852 -2.2939553
26.715706 16.590279 3.8613086
15.528227 9.6391716 -2.2441022
21.960955 13.62699 -2.2611687
26.655148 16.526899 -1.6436633
26.664547 16.519827 -0.54751688
6.8605556 4.2371688 -2.1606214
26.741508 16.509439 0.54856402
8.0463982 4.9656763 -2.182925
26.75547 16.50518 1.647536
9.7780972 6.0320096 -2.2332287
26.799955 16.52615 2.7546444
12.315877 7.591599 -2.2914524
26.78697 16.505257 3.8632584
15.659813 9.6452847 -2.258239
26.895422 16.559114 5.0024619
22.101706 13.607694 -2.2707555
26.918823 16.567062 6.1440496
26.678656 16.412817 -1.6415697
26.711817 16.420383 -0.54730743
6.8712769 4.2123737 -2.1595864
26.789286 16.416496 0.54842442
8.059494 4.9369354 -2.1820252
26.844128 16.437218 1.6496296
9.793025 5.9964728 -2.2320838
26.895391 16.462156 2.7588279
12.334238 7.5466008 -2.2902007
26.953331 16.48469 3.8793452
15.773005 9.6430073 -2.2699387
27.061436 16.537813 5.0231113
22.209614 13.572762 -2.2772052
26.763617 16.342999 -1.643454
6.8776865 4.183341 -2.1569982
8.073349 4.9067459 -2.1811254
26.874031 16.326815 1.6479547
9.7937641 5.9500175 -2.2275043
12.353753 7.4993973 -2.2889495
15.893128 9.640399 -2.2823691
22.270475 13.503433 -2.2785997
40.397297 24.47513 -2.4753864
6.8839746 4.1543221 -2.1544099
8.0904284 4.8785329 -2.1811254
26.907497 16.225235 1.6466986
9.8144693 5.9158015 -2.2275043
12.369704 7.45011 -2.2870722
16.020243 9.6449823 -2.2960186
22.327724 13.431769 -2.2796457
40.568081 24.385405 -2.4806199
26.564711 15.961692 -0.54095483
6.8960567 4.130477 -2.1538923
8.103219 4.8496737 -2.1802256
26.908033 16.104116 1.643454
9.8205566 5.8751569 -2.2244515
12.373998 7.3968835 -2.2833178
26.944424 16.100376 3.8539963
16.162907 9.6579866 -2.3118618
22.358461 13.349475 -2.2782512
40.641857 24.246656 -2.4802012
26.61063 15.869408 -0.54081517
6.9080553 4.1066008 -2.1533747
8.1192532 4.8227806 -2.1802256
26.928007 15.988695 1.6412557
9.8410063 5.8408384 -2.2244515
12.381469 7.3457327 -2.280189
26.963516 15.990692 3.8491216
16.287025 9.6551542 -2.3247797
22.377487 13.255117 -2.2754622
58.050808 34.344868 -1.1773394
6.9180679 4.0783081 -2.1518216
8.1184053 4.7821078 -2.1752765
26.929634 15.856442 1.6378015
9.8555784 5.8007488 -2.2229249
12.401498 7.296299 -2.2789376
16.418135 9.6517353 -2.3384292
22.419056 13.168959 -2.2747648
40.638626 23.852089 -2.4695246
6.9396415 4.0568228 -2.1538923
8.1426086 4.7562542 -2.1770763
26.931356 15.731123 1.6345568
9.8639002 5.7593794 -2.2202537
12.411092 7.2408447 -2.2758088
16.554615 9.6543646 -2.3530533
22.440784 13.076583 -2.2723243
40.707825 23.702055 -2.4686873
6.9413586 4.0270033 -2.1502688
8.1499071 4.7243371 -2.1748266
26.938452 15.615677 1.6318353
9.8727522 5.7207336 -2.2179639
12.42478 7.193706 -2.2739315
16.699932 9.6650448 -2.3691401
22.477123 12.99811 -2.2716272
6.9513273 4.0020332 -2.1492336
8.1486378 4.6875701 -2.1703279
26.9928 15.521543 1.6318353
9.8882656 5.6860027 -2.2172008
12.428016 7.1406522 -2.2701774
16.80415 9.6472187 -2.3791335
20.422239 11.719603 -2.0600131
40.579979 23.268616 -2.4515212
6.9669313 3.9787037 -2.1497512
8.1666412 4.6600647 -2.1707778
27.032934 15.419314 1.6309979
9.9012308 5.6475625 -2.2156742
12.445999 7.0933166 -2.2689257
16.815298 9.5757256 -2.3759649
22.551226 12.836926 -2.2702327
40.626236 23.107067 -2.4494276
6.9807763 3.9543619 -2.1497512
8.1709881 4.6248078 -2.1676283
9.9140501 5.6090965 -2.2141476
12.450047 7.0381656 -2.2651713
16.810595 9.4954977 -2.3706028
22.599365 12.760094 -2.2705815
40.654465 22.935659 -2.4462874
6.9911675 3.9280789 -2.1487157
8.1828833 4.5957761 -2.1667287
9.9181576 5.5658164 -2.2107131
12.459536 6.9891067 -2.2626684
16.786575 9.4086437 -2.362803
21.155743 11.847786 -2.1213708
40.636177 22.748066 -2.4406352
6.9906569 3.897346 -2.1445746
8.2073879 4.5719237 -2.168978
9.9331312 5.530983 -2.20995
12.473501 6.939806 -2.2607911
16.78809 9.3326254 -2.3584158
21.302895 11.837561 -2.1321781
40.771217 22.637093 -2.4439847
6.9991488 3.8701146 -2.1430218
8.2003307 4.5324287 -2.1631293
9.9386292 5.4886804 -2.206897
12.472234 6.8850422 -2.2564111
16.773752 9.2519703 -2.3520784
20.492548 11.293847 -2.0471141
40.685127 22.413094 -2.434355
7.0153303 3.8487427 -2.144057
8.2126837 4.5019045 -2.1622295
9.9636612 5.4594684 -2.2084234
12.475397 6.8300824 -2.2526565
16.69449 9.1323862 -2.3364792
40.598366 22.180916 -2.424516
65.254715 35.622379 -1.2976911
7.0287218 3.8242328 -2.144057
8.2334852 4.4759994 -2.1635792
9.9688578 5.4171586 -2.2053704
12.488749 6.7808347 -2.2507794
16.663445 9.0399904 -2.3277047
19.94544 10.815969 -1.9850591
40.636894 22.018158 -2.4222128
7.0420289 3.7996728 -2.144057
8.2404804 4.4426141 -2.1613297
9.9721527 5.3739429 -2.201936
12.501901 6.7315893 -2.2489021
16.673923 8.970479 -2.3247797
20.491947 11.019944 -2.0356095
40.583317 21.80621 -2.4144673
7.0484362 3.7714205 -2.1419864
8.2714052 4.4220891 -2.1653788
9.9804621 5.3335457 -2.1996462
12.51487 6.6823225 -2.2470248
16.705133 8.9122248 -2.3247797
21.504236 11.467736 -2.1321781
40.595734 21.630613 -2.4106991
7.0564365 3.7440827 -2.1404335
8.2730179 4.3858852 -2.1617796
9.9955492 5.2968388 -2.1988828
12.503206 6.6201072 -2.2407675
16.708069 8.8390017 -2.3208799
21.586411 11.41495 -2.1363616
40.632141 21.468237 -2.4083962
7.0711732 3.7203257 -2.1409512
8.2710266 4.3479142 -2.1572804
10.005286 5.2573519 -2.196975
12.515742 6.5709157 -2.2388902
16.735306 8.7787771 -2.3203926
21.790224 11.425581 -2.1525726
40.678532 21.311434 -2.4067216
7.0772643 3.6920474 -2.1388805
8.2809715 4.3163123 -2.155931
10.002684 5.2115111 -2.1923954
12.524588 6.5198865 -2.2363873
16.732624 8.7067509 -2.3160052
20.88423 10.857746 -2.0593157
40.646324 21.114077 -2.4004412
7.0929017 3.6703322 -2.1399159
8.2986994 4.2906194 -2.1568308
10.016423 5.1765075 -2.1916323
12.546138 6.4783206 -2.2363873
16.733181 8.6366425 -2.3121052
20.686373 10.667894 -2.0363066
40.723213 20.98284 -2.4008598
7.0844092 3.6362064 -2.1337044
8.3076811 4.2604065 -2.1554811
10.031786 5.1423688 -2.1912506
12.553489 6.4294734 -2.2338843
16.744059 8.5720634 -2.3096681
21.801888 11.151786 -2.1424625
40.678757 20.789499 -2.394161
7.0947075 3.6118155 -2.1331868
8.3200245 4.2319555 -2.1550312
10.045284 5.1072917 -2.1904874
12.535994 6.3681293 -2.2270014
16.768854 8.5146885 -2.3091805
21.943579 11.132616 -2.1527467
40.736778 20.649078 -2.3935328
7.1165214 3.5901401 -2.1357749
8.3163395 4.1917787 -2.1500821
10.048156 5.0624919 -2.187053
12.566308 6.3256888 -2.2282526
16.769501 8.4341869 -2.3047931
22.091043 11.105803 -2.1632056
40.715809 20.451233 -2.3878806
7.1203713 3.5609543 -2.1331868
8.3309183 4.1627288 -2.1500821
10.06928 5.0291381 -2.1878161
12.567098 6.2712102 -2.2244983
16.756205 8.3543367 -2.2989435
22.186729 11.057076 -2.1687834
40.72617 20.278706 -2.3843217
7.1327591 3.5360761 -2.1331868
8.3453989 4.1336212 -2.1500821
10.062142 4.9817615 -2.1824734
12.571208 6.2185426 -2.2213697
16.771029 8.288764 -2.2969937
22.132305 10.933668 -2.1597192
40.785954 20.131124 -2.3836937
7.131186 3.5043454 -2.1290457
8.3625603 4.1076403 -2.1509819
10.090042 4.9518042 -2.1847632
12.591762 6.1768174 -2.2213697
16.76277 8.2156334 -2.2921188
22.213285 10.87737 -2.1639028
40.630035 19.886892 -2.3707142
7.1358218 3.4772911 -2.1269751
8.366334 4.0733075 -2.1482825
10.111705 4.9208918 -2.1859078
12.58127 6.1172752 -2.2157381
16.784204 8.1535969 -2.2911439
21.227644 10.307583 -2.0645452
40.749535 19.769346 -2.3736453
63.034767 30.553694 -1.2227156
7.1513958 3.4540396 -2.1280103
8.3805008 4.0440807 -2.1482825
10.107602 4.8753271 -2.1813285
12.584747 6.064754 -2.2126093
16.783945 8.0811844 -2.2872441
22.218584 10.693093 -2.1572788
40.821892 19.628702 -2.3738544
7.1686363 3.4315598 -2.1295633
8.3840199 4.0097556 -2.1455832
10.122786 4.8391709 -2.1809468
12.609407 6.0224876 -2.2132351
16.786972 8.0105753 -2.2838318
22.374464 10.672076 -2.1687834
40.666588 19.379555 -2.3608751
7.1788249 3.405689 -2.1290457
8.3944416 3.9787982 -2.1446834
10.120099 4.7945623 -2.1767492
12.616069 5.9716773 -2.2107322
16.796888 7.9434376 -2.2813942
22.703388 10.731853 -2.197022
40.585903 19.167534 -2.3522921
7.180181 3.3756759 -2.1259398
8.411808 3.9511263 -2.1455832
10.122558 4.7525296 -2.173696
12.618954 5.91921 -2.2076035
16.806538 7.8763366 -2.2789569
22.589157 10.581537 -2.1823797
40.721298 19.057926 -2.3562696
7.188417 3.3489616 -2.1249044
8.4184818 3.9184523 -2.1437836
10.146204 4.7204809 -2.1752226
12.632376 5.8717923 -2.206352
16.819527 7.8109293 -2.2770069
22.654871 10.516038 -2.1851687
40.787579 18.915655 -2.3562696
7.1983104 3.3230374 -2.1243868
8.4108744 3.8792462 -2.1383848
10.139443 4.6743474 -2.1702616
12.634851 5.8193998 -2.2032232
16.814224 7.7372451 -2.2726197
22.689632 10.436066 -2.1849945
40.798912 18.748156 -2.3531294
7.2116218 3.2986956 -2.1249044
8.4272356 3.8529553 -2.1392844
12.643297 5.7725492 -2.2013459
16.807283 7.6666117 -2.2682326
22.831076 10.404716 -2.1951044
24.993443 11.384909 -1.4393436
25.080698 11.414071 -0.48098832
7.2190013 3.2731686 -2.1238692
8.4335346 3.8202968 -2.137485
10.154928 4.5979395 -2.1668272
12.652573 5.7234926 -2.1994689
16.826708 7.6046214 -2.2672575
22.938084 10.36176 -2.2020769
40.870964 18.44536 -2.3499892
7.219811 3.2431982 -2.1207633
8.4468174 3.790837 -2.137485
10.151213 4.5536222 -2.1626294
12.668868 5.6776786 -2.198843
16.842283 7.5409679 -2.265795
23.106865 10.341045 -2.2148015
40.781948 18.234095 -2.3411968
7.229322 3.2171926 -2.1202457
8.4564381 3.7597432 -2.136585
12.656114 5.6189895 -2.1932113
16.843092 7.4708743 -2.2623827
23.288536 10.324921 -2.2287467
40.834381 18.086803 -2.340569
7.233438 3.1888187 -2.118175
8.4570236 3.724709 -2.1334357
10.189943 4.4858065 -2.1641557
12.668414 5.5716052 -2.1919601
16.843628 7.4008517 -2.2589705
23.499556 10.320493 -2.2454805
40.955799 17.969822 -2.3439183
7.2480674 3.1650946 -2.1192105
8.4646168 3.6928263 -2.132086
10.191144 4.4439292 -2.1611028
12.673298 5.5210352 -2.1894569
16.843874 7.3309236 -2.255558
23.524477 10.233625 -2.2444346
40.970646 17.806061 -2.3411968
7.259069 3.1397798 -2.1192105
8.4774561 3.6632545 -2.132086
10.195776 4.4036646 -2.158813
12.681612 5.4720645 -2.1875796
16.851133 7.2642202 -2.2531207
23.669844 10.198746 -2.2548933
41.028889 17.661348 -2.3409877
7.2593307 3.1098554 -2.1161046
8.4919834 3.634409 -2.1325359
10.198452 4.3626399 -2.1561418
12.689736 5.4231091 -2.1857026
16.850832 7.194438 -2.2497082
23.862894 10.183318 -2.2698841
41.395275 17.648035 -2.3583629
7.2772546 3.0875161 -2.118175
8.4902649 3.5986581 -2.1289368
10.217234 4.3285484 -2.1569052
12.675846 5.3649187 -2.1800709
16.857555 7.1278462 -2.2472708
24.122196 10.194577 -2.2911501
41.762058 17.632399 -2.3757386
7.2773023 3.0576029 -2.1150692
8.4866009 3.5622129 -2.1248875
10.22685 4.2905755 -2.15576
12.683564 5.3160601 -2.1781938
16.853035 7.0566955 -2.243371
24.418615 10.219543 -2.3159022
42.199257 17.643692 -2.3970916
7.3146868 3.0433116 -2.122834
8.4947681 3.5325563 -2.1239879
10.227262 4.2488227 -2.1527071
12.693824 5.2709427 -2.1769423
16.83234 6.9825106 -2.2375214
24.756001 10.259334 -2.3444896
42.641346 17.662622 -2.4188635
7.3140216 3.0146229 -2.1197281
8.5070496 3.5028801 -2.1239879
10.224956 4.2081623 -2.1492727
12.70484 5.2235928 -2.1756909
16.838247 6.916173 -2.2350838
25.088467 10.299767 -2.3727279
43.039051 17.651611 -2.4379137
7.2976699 2.9781265 -2.1119635
8.5150099 3.473176 -2.1230881
10.239582 4.1724467 -2.1492727
12.69465 5.1702533 -2.1709976
16.831669 6.848331 -2.231184
25.120579 10.210623 -2.3723793
43.430416 17.644114 -2.4567547
7.3420534 2.9663825 -2.1217985
8.5240669 3.4404869 -2.1221881
10.250443 4.1352067 -2.1485093
12.689695 5.1140943 -2.1669304
16.841927 6.7806587 -2.2292342
25.074739 10.090153 -2.3647096
43.809837 17.611425 -2.4745488
7.3380132 2.9349978 -2.1176574
8.5215492 3.4049244 -2.1185889
10.257522 4.0964904 -2.1469829
12.690959 5.0631766 -2.1641147
16.847052 6.7144828 -2.2267969
25.028368 9.9701147 -2.3570397
7.3518076 2.9107864 -2.1186929
8.5279446 3.3730135 -2.1172395
10.258979 4.0556049 -2.1443117
12.728763 5.0268359 -2.1675563
16.829763 6.6396027 -2.2214346
24.922146 9.8271608 -2.3437922
7.372715 2.889333 -2.1217985
8.5396671 3.3432229 -2.1172395
10.256619 4.0133286 -2.140877
12.718636 4.9715829 -2.162863
16.819551 6.5678215 -2.2170475
24.792969 9.6763535 -2.3284528
7.3575382 2.8538046 -2.1145515
8.5458336 3.3112788 -2.1158895
10.257749 3.9725456 -2.1382058
12.723016 4.9221635 -2.1606731
16.841238 6.5120134 -2.2170475
24.733667 9.5538483 -2.3197372
7.3633556 2.8280032 -2.1135163
8.5549479 3.2822251 -2.1154397
10.274533 3.9399111 -2.1389689
12.713443 4.8700552 -2.1562929
16.840494 6.447608 -2.2141225
24.687057 9.4418774 -2.3124161
7.3853326 2.8083777 -2.1171398
8.5548544 3.2496877 -2.1127403
10.287541 3.9058201 -2.1389689
16.825773 6.3747134 -2.2092476
24.699593 9.3529215 -2.310673
7.3968987 2.7832594 -2.1176574
8.5661469 3.2198036 -2.1127403
10.280897 3.8622882 -2.1347711
16.825617 6.3075838 -2.2063227
24.698511 9.2540569 -2.3075354
40.712143 15.237854 -2.2781844
7.4120011 2.7594461 -2.1192105
8.5773344 3.1898801 -2.1127403
10.283274 3.8222759 -2.1324816
12.735141 4.7285652 -2.1515999
16.836363 6.2446747 -2.2048604
24.685829 9.1511583 -2.3033519
40.652714 15.054025 -2.2719042
7.405273 2.7275453 -2.1145515
8.5957317 3.1626139 -2.1145399
10.281814 3.7809339 -2.1294286
16.850605 6.1831269 -2.2038856
24.661505 9.0443583 -2.2981226
40.644997 14.890051 -2.2685544
7.422009 2.7043264 -2.1166222
8.6195364 3.1372571 -2.1176891
10.298637 3.7463648 -2.1301918
12.721428 4.6226764 -2.1437781
16.842228 6.1134353 -2.1999855
24.6255 8.9337511 -2.2918475
40.584057 14.707262 -2.2622743
7.4241343 2.6757801 -2.1145515
8.6170607 3.1040311 -2.1145399
10.317194 3.712384 -2.1313365
12.714379 4.5724454 -2.1400237
27.064842 9.727953 3.5312865
16.839994 6.0494938 -2.1970608
27.287146 9.7970867 4.5919781
24.596519 8.8262205 -2.2862694
40.557411 14.545619 -2.2580874
7.4384255 2.6530948 -2.1161046
8.6131573 3.0687027 -2.1109407
10.303555 3.6689329 -2.125994
12.722818 4.5253911 -2.1387722
27.010727 9.6021605 3.5198307
16.834822 5.9813652 -2.1936483
27.235544 9.6713762 4.5775857
24.603123 8.7365999 -2.2841778
40.551472 14.383918 -2.2549472
7.4567513 2.6303248 -2.1186929
8.6072741 3.0327873 -2.1068916
10.305189 3.6290288 -2.1237042
12.727358 4.4770164 -2.1368952
27.072172 9.5176849 3.5234866
16.821882 5.9107308 -2.189261
24.5658 8.626893 -2.2779024
40.54488 14.222472 -2.251807
7.4458222 2.5972826 -2.1129987
8.6251669 3.0052948 -2.1086912
10.310378 3.5904546 -2.1221778
12.727983 4.4273667 -2.1343923
27.176479 9.4479036 3.5327487
16.834915 5.8493657 -2.1882861
24.550594 8.5253983 -2.2737191
40.552769 14.066448 -2.2495043
7.4511909 2.5700142 -2.1119635
8.6356058 2.9751666 -2.1086912
10.326561 3.5557184 -2.122941
12.717205 4.3739247 -2.1300118
16.825191 5.7802491 -2.1843865
24.519896 8.4189606 -2.268141
40.59029 13.920908 -2.2488763
7.4710846 2.547735 -2.1150692
8.642251 2.9437459 -2.1077914
10.331474 3.517127 -2.1214147
12.739877 4.3320475 -2.1312635
16.822708 5.7138166 -2.1814616
24.526497 8.3256264 -2.2660494
40.593239 13.763754 -2.2463641
7.4781027 2.5210214 -2.1145515
8.6519661 2.9150686 -2.1077914
10.336246 3.4785342 -2.1198881
53.999794 18.162436 4.984437
12.735452 4.2834764 -2.1281347
16.822746 5.6516809 -2.179024
24.460964 8.2082758 -2.2573338
40.706829 13.651937 -2.2501323
7.4937534 2.4986515 -2.1166222
8.6713305 2.8879342 -2.1100409
10.329098 3.4380357 -2.1160717
12.740953 4.2358818 -2.1265705
16.823534 5.5866637 -2.1765866
24.466778 8.1153078 -2.2552419
40.803524 13.526089 -2.2528539
7.482676 2.4645224 -2.1109281
8.6832094 2.8582549 -2.1104908
10.343493 3.4007704 -2.1164536
12.739502 4.1836047 -2.1237545
16.808981 5.5167656 -2.1721995
24.46088 8.0186758 -2.2521045
40.985691 13.419959 -2.2601807
7.5059299 2.4431696 -2.1150692
8.6899223 2.8252029 -2.109591
10.353436 3.3640344 -2.1160717
12.731481 4.1317959 -2.1200001
16.761106 5.4330883 -2.1634247
24.443228 7.91851 -2.247921
41.207119 13.333368 -2.2698107
7.5052176 2.4139984 -2.1124811
8.6904535 2.7918739 -2.1073413
10.361376 3.3266759 -2.1153085
12.734539 4.0837131 -2.1181231
24.406202 7.8124924 -2.2419941
41.569199 13.290421 -2.2871861
7.5209627 2.3901238 -2.1145515
8.7057171 2.7632923 -2.1086912
10.374796 3.2910783 -2.1156902
12.748715 4.0392389 -2.1181231
16.825127 5.3243179 -2.166837
24.391529 7.7140393 -2.2381594
41.996246 13.265543 -2.3081205
7.5274167 2.3632791 -2.1140339
8.7134523 2.7323015 -2.1082413
10.399335 3.258955 -2.1183615
12.740116 3.9876289 -2.1143684
16.798136 5.2513433 -2.1609874
24.387882 7.6193371 -2.2353704
42.49987 13.26166 -2.3332417
7.5167613 2.3325803 -2.1088579
8.7261887 2.7045429 -2.1091411
10.376328 3.2139983 -2.1114926
12.751383 3.9447715 -2.1140556
16.79649 5.1897526 -2.1585498
24.367327 7.5243073 -2.2311869
42.974945 13.253687 -2.3568976
7.5414815 2.3114207 -2.1135163
8.7313814 2.6744514 -2.1082413
10.391239 3.1789043 -2.1122558
12.749281 3.8978472 -2.1115527
16.726276 5.1073537 -2.1473379
24.328644 7.4194603 -2.2252605
7.5361619 2.2824812 -2.1098928
8.7294722 2.6405733 -2.1055419
10.394205 3.142158 -2.1107292
12.742007 3.8470423 -2.1081111
24.307333 7.3249393 -2.221077
7.5477853 2.257266 -2.1109281
8.7405033 2.610641 -2.1059918
10.393824 3.102484 -2.1084394
12.732642 3.7957656 -2.1043568
16.778645 4.9955635 -2.1495316
24.283106 7.2252669 -2.2165449
7.5556183 2.2309072 -2.1109281
8.7551718 2.5817661 -2.1073413
10.406473 3.0667415 -2.1088212
12.74392 3.7507362 -2.1040437
24.231714 7.1179905 -2.2095723
7.5522323 2.2012742 -2.1078224
8.7603865 2.550106 -2.1064417
10.420886 3.0314915 -2.1095843
12.743654 3.7023797 -2.1018538
16.773077 4.8666806 -2.1444132
24.202829 7.0178437 -2.2046916
7.5598698 2.1749001 -2.1078224
8.7673626 2.5189705 -2.1059918
10.416307 2.9907651 -2.1065314
12.74131 3.6535141 -2.0993509
16.747978 4.796082 -2.1390507
24.165884 6.9157691 -2.1991136
