# .PCD v0.7 - Point Cloud Data file format
VERSION 0.7
FIELDS x y z
SIZE 4 4 4
TYPE F F F
COUNT 1 1 1
WIDTH 1481
HEIGHT 1
VIEWPOINT 0 0 0 1 0 0 0
POINTS 1481
DATA ascii
-23.884369 10.148146 -2.270407
-40.663799 17.285887 -2.3156569
-7.3336473 3.1326036 -2.1368101
-8.5255051 3.645231 -2.1406343
-10.238165 4.3796225 -2.1645374
-12.769482 5.4677281 -2.2000947
-17.070663 7.3164959 -2.2804193
-23.813961 10.21159 -2.2669208
-7.313797 3.1543603 -2.1342218
-8.5145178 3.6757407 -2.1410842
-10.224617 4.4161153 -2.1649189
-12.76845 5.5201073 -2.2032232
-17.06324 7.3839188 -2.2828567
-23.295475 10.085673 -2.2209024
-7.3310823 3.1922095 -2.1425042
-8.5194988 3.7132282 -2.1455832
-10.210939 4.4525609 -2.1653006
-12.759964 5.5693884 -2.2051005
-0.85866398 0.37496266 0.11504468
-17.066465 7.4561515 -2.2867565
-23.285685 10.178107 -2.2233431
-7.3128204 3.2146707 -2.1404335
-8.5100536 3.7445121 -2.1464829
-10.209709 4.4945054 -2.1683536
-12.747677 5.6170821 -2.206352
-0.81738865 0.3603408 0.10968242
-17.062128 7.5252962 -2.2896814
-23.071379 10.180502 -2.2062604
-40.798496 18.019806 -2.3374288
-7.2874279 3.2339091 -2.1362925
-8.4844646 3.7686579 -2.1433337
-10.199341 4.5325089 -2.1694984
-12.742431 5.6679649 -2.2088549
-0.80524427 0.35834932 0.10821999
-17.043011 7.5880394 -2.2906563
-23.163103 10.317718 -2.2184622
-40.738995 18.163736 -2.3376379
-22.008184 9.8216972 -0.42067283
-7.2884374 3.2648542 -2.1399159
-8.4748135 3.7998457 -2.1442335
-10.197788 4.5745091 -2.1725514
-12.744194 5.7221203 -2.2126093
-0.79312366 0.35627767 0.10675755
-17.041769 7.6588726 -2.2940688
-23.2069 10.43446 -2.2261319
-40.748199 18.33861 -2.341825
-7.2664342 3.2855022 -2.1368101
-8.4686012 3.8326178 -2.146033
-42.582062 19.271278 2.4495323
-10.187122 4.6125107 -2.173696
-12.731339 5.7698326 -2.2138608
-0.79187524 0.35904384 0.10675755
-17.011316 7.7166739 -2.2935812
-23.094137 10.480824 -2.218811
-7.2514062 3.3092427 -2.1357749
-8.4664812 3.8655357 -2.1487324
-10.156674 4.6415143 -2.1706433
-12.722914 5.8169479 -2.2157381
-0.79068029 0.36166784 0.10675755
-17.018124 7.7879114 -2.2979686
-22.912497 10.494995 -2.2048659
-40.960148 18.770315 -2.361294
-7.2456565 3.3356948 -2.1373277
-8.4617853 3.8991437 -2.1509819
-10.157273 4.6825671 -2.174078
-12.724056 5.871253 -2.2194924
-0.784006 0.3619296 0.10602634
-17.026878 7.8639159 -2.3028433
-22.031124 10.179801 -2.1232882
-41.075653 18.997017 -2.3717611
-21.957781 10.164525 -0.42234823
-7.2357206 3.3617809 -2.1378453
-8.4392872 3.9245508 -2.1487324
-41.161018 19.149988 2.3791928
-10.165787 4.729589 -2.1794205
-12.717809 5.922307 -2.2219954
-0.76654327 0.35711932 0.10383269
-17.013718 7.9300079 -2.3047931
-22.793581 10.628821 -2.2003338
-40.907742 19.092968 -2.3658993
-21.934847 10.247036 -0.42259258
-7.236186 3.3927569 -2.1414688
-8.4308281 3.9564691 -2.1500821
-10.154548 4.7675462 -2.1805654
-12.693482 5.9649844 -2.2213697
-0.76888508 0.3614819 0.10432017
-16.98234 7.9876633 -2.3043058
-22.576063 10.623489 -2.1829028
-40.743271 19.189705 -2.3602471
-21.922455 10.329947 -0.42301142
-7.2277918 3.4196479 -2.1425042
-8.4282303 3.989408 -2.1527817
-10.143166 4.8054848 -2.1817102
-12.698623 6.0188899 -2.2257497
-0.76768208 0.36402965 0.10432017
-16.96652 8.049036 -2.305768
-22.646832 10.753501 -2.1933613
-40.690239 19.329842 -2.3608751
-21.900711 10.413273 -0.42329067
-7.2129245 3.4419334 -2.1414688
-8.4300804 4.0263605 -2.1568308
-10.137803 4.844173 -2.1839998
-12.695357 6.0717006 -2.2288785
-0.77356935 0.37013432 0.10529512
-16.977711 8.1270723 -2.3111303
-22.560732 10.804447 -2.1884806
-40.579288 19.45105 -2.3583629
-21.909302 10.511282 -0.42416328
-7.2008657 3.4670904 -2.1414688
-8.4124641 4.0540709 -2.155931
-12.670527 6.1142616 -2.2282526
-0.76869726 0.3711063 0.10480764
-16.95639 8.1897364 -2.3121052
-22.748917 10.992354 -2.210444
-40.450016 19.563005 -2.3548043
-21.931871 10.616454 -0.42531514
-7.1939344 3.4947362 -2.1430218
-8.3982611 4.0834117 -2.155931
-10.112565 4.9191246 -2.1859078
-12.659762 6.163641 -2.23013
-0.75312006 0.36683312 0.10285773
-16.945545 8.2575712 -2.3145428
-22.789207 11.110113 -2.2181137
-7.1973028 3.5274804 -2.1476805
-8.3822069 4.1118417 -2.1554811
-10.097094 4.9552593 -2.1862895
-12.65945 6.2182431 -2.2338843
-0.75539815 0.37121078 0.10334522
-16.934433 8.3254309 -2.3169801
-22.689499 11.159698 -2.2121871
-40.98621 20.176598 -2.394161
-7.1970668 3.5585756 -2.151304
-8.3765345 4.1454 -2.1577303
-10.076217 4.9887328 -2.1855264
-12.651824 6.2694149 -2.2363873
-0.75409782 0.37384537 0.10334522
-16.940836 8.4021292 -2.3218548
-22.400541 11.114851 -2.1877835
-7.169045 3.5759146 -2.1466453
-8.3655005 4.1763558 -2.1586304
-10.062255 5.0256271 -2.1862895
-12.633396 6.3153067 -2.2370131
-0.75278831 0.37647521 0.10334522
-16.932705 8.4718761 -2.3247797
-22.272522 11.148386 -2.1790679
-7.1616945 3.6035223 -2.1481981
-8.3560934 4.208159 -2.1599801
-10.069199 5.0730882 -2.1916323
-12.618331 6.3629217 -2.2382646
-0.76564819 0.38625351 0.10529512
-16.927839 8.5434523 -2.328192
-22.233473 11.226059 -2.1790679
-7.1594086 3.6337454 -2.151304
-8.3413525 4.2373018 -2.1599801
-10.065428 5.1153231 -2.1946852
-12.613651 6.4158854 -2.2413933
-0.75014156 0.38172168 0.10334522
-16.919144 8.6132927 -2.3311169
-21.626026 11.014252 -2.1232882
-7.1501203 3.6604755 -2.1523392
-8.3351822 4.2708364 -2.1622295
-10.052753 5.1531115 -2.1958301
-12.598208 6.4634833 -2.2426448
-0.74703854 0.3834312 0.10310147
-16.913698 8.6849947 -2.3345292
-22.133287 11.370085 -2.176976
-7.1458812 3.6898434 -2.1549275
-8.3358049 4.3079576 -2.1662786
-10.04168 5.1917777 -2.1973565
-0.93261796 0.48239106 0.09186215
-12.617676 6.5292087 -2.2501535
-0.74569553 0.38603655 0.10310147
-16.897381 8.7512856 -2.3364792
-7.1329575 3.7147648 -2.1549275
-0.91154265 0.47492328 0.017941073
-8.3155327 4.3343272 -2.1649289
-0.92097586 0.48004273 0.054429401
-10.040903 5.2358756 -2.2011726
-0.90619802 0.47274205 0.089421786
-12.594807 6.5732131 -2.2501535
-0.74962252 0.39139348 0.10383269
-7.1473136 3.7540128 -2.1632097
-0.85331142 0.44818825 0.016824121
-8.3804674 4.4035759 -2.1856244
-0.87332982 0.45909187 0.051707931
-10.203279 5.3659277 -2.2408609
-12.677831 6.6701293 -2.2689257
-0.75534695 0.39757556 0.10480764
-0.94497532 0.49759647 -0.13113143
-0.83370602 0.43937731 -0.082449332
-0.89926952 0.47413066 -0.053278007
-0.89489496 0.47222376 -0.017661836
-0.86901784 0.46012104 -0.2634778
-0.85881019 0.45490828 0.016963739
-0.85406792 0.45258749 -0.22315145
-0.87172204 0.46213737 0.051707931
-0.86381871 0.45794746 -0.19004577
-0.85367465 0.45276085 0.084541067
-0.85154188 0.45182008 -0.15268005
-0.74518776 0.39555603 0.10358895
-0.83102643 0.44130659 -0.11553215
-0.85687745 0.45522618 -0.084889688
-0.83765072 0.44538674 -0.049719162
-0.86146575 0.45843515 -0.017033549
-0.90489745 0.48317006 -0.27486584
-0.82546812 0.44094416 0.016335452
-0.84904557 0.45372885 -0.22225164
-0.83839941 0.44822767 0.049823835
-0.85528946 0.45725751 -0.1885193
-0.82046515 0.438824 0.081403457
-0.80467486 0.43055898 -0.14454547
-0.74730265 0.40002853 0.10407643
-0.82948089 0.44420475 -0.11553215
-0.84474587 0.45256916 -0.083843827
-0.82200938 0.44075754 -0.048881788
-0.82462007 0.44252801 -0.016335452
-0.83856922 0.45152289 -0.25519559
-0.83800811 0.4514094 0.01661469
-0.81657761 0.44004932 -0.21415339
-0.80870086 0.43598697 0.048149083
-0.81912583 0.44160727 -0.18088694
-0.80840695 0.43601039 0.080357596
-0.83793622 0.45212564 -0.15080284
-0.74240798 0.40074894 0.10358895
-0.82093853 0.44332448 -0.11455719
-0.85334104 0.46101466 0.15361866
-0.84316099 0.45551494 -0.083843827
-0.83803469 0.45312366 -0.049928509
-0.81603551 0.44159693 -0.016195834
-0.84717441 0.45997807 -0.25830141
-0.82939851 0.45051396 0.016475072
-0.82531011 0.4484798 -0.21685281
-0.82121199 0.44643849 0.048986461
-0.81412971 0.44258833 -0.1801237
-0.78937721 0.42931056 0.078614481
-0.81206048 0.44183069 -0.14642268
-0.75495291 0.41093028 0.10553886
-0.82287294 0.44808593 -0.11504468
-0.85172647 0.46399078 0.15361866
-0.84156573 0.45845556 -0.083843827
-0.83294088 0.45413387 -0.049719162
-0.80044621 0.43677995 -0.015916595
-0.82861853 0.4536553 -0.25312504
-0.81378996 0.44572154 0.016195834
-0.79297739 0.43450245 -0.20875457
-0.82848465 0.45395821 0.04950982
-0.80569351 0.44165269 -0.17859723
-0.79136765 0.43397939 0.078963101
-0.81917244 0.44941351 -0.14798702
-0.74307269 0.40783224 0.10407643
-0.828264 0.45477721 -0.11601962
-0.82247871 0.45160067 0.14861277
-0.81900489 0.44987959 -0.081752084
-0.83310074 0.45800081 -0.049823835
-0.79198456 0.43557727 -0.015776975
-0.81011724 0.44720867 -0.24794866
-0.78954881 0.43585429 0.015742071
-0.7864148 0.43430308 -0.20740487
-0.8129096 0.44912043 0.048672445
-0.79899216 0.44161326 -0.17745239
-0.79159147 0.43770343 0.079137415
-0.8107627 0.44830403 -0.14673555
-0.74171615 0.41029415 0.10407643
-0.80764574 0.44694841 -0.1133385
-0.82781005 0.45829624 0.14986424
-0.81585425 0.45204914 -0.048881788
-0.79920346 0.44318789 -0.015951499
-0.82213503 0.45740655 -0.25208977
-0.79850632 0.44444266 0.015951499
-0.79170418 0.44083786 -0.20920448
-0.77818543 0.43348825 0.046683677
-0.80266863 0.44712663 -0.17859723
-0.77621269 0.43256664 0.077742919
-0.80229163 0.44728366 -0.14548407
-0.7558825 0.42158315 0.10627007
-0.79741305 0.44492871 -0.1121198
-0.79860765 0.44577801 0.14485833
-0.81418413 0.45447272 -0.08157777
-0.80206585 0.44807589 -0.048149083
-0.79939699 0.44695085 -0.015986405
-0.81379396 0.4564929 -0.25001919
-0.79520619 0.44624865 0.015916595
-0.78336346 0.43978289 -0.20740487
-0.79408175 0.44598216 0.047730397
-0.78056198 0.43838903 -0.17401782
-0.77469796 0.43527374 0.077742919
-0.79211539 0.44524184 -0.14391972
-0.75094569 0.42227313 0.1057826
-0.79758525 0.44868279 -0.11236355
-0.79704672 0.44856298 0.14485833
-0.78133911 0.43972307 -0.078440167
-0.78135467 0.44009101 -0.046997696
-0.78041202 0.43991894 -0.015637357
-0.81051403 0.45837983 -0.24950157
-0.7988649 0.45197606 0.016021309
-0.77843171 0.44059485 -0.20650508
-0.80294794 0.45465592 0.048358425
-0.78415209 0.44401306 -0.17516267
-0.75930524 0.43011922 0.076348431
-0.78540063 0.4450824 -0.14298111
-0.76155537 0.43174478 0.10748877
-0.80119431 0.45440215 -0.11309476
-0.78860372 0.44744322 0.14360686
-0.80405992 0.45621285 -0.08088053
-0.7840873 0.44560453 -0.015742071
-0.79716128 0.45450845 -0.2458781
-0.7729643 0.44089112 0.015532642
-0.78196675 0.44620666 -0.20785476
-0.80655962 0.46042672 0.048672445
-0.77236724 0.44090793 -0.17287296
-0.75606906 0.43177903 0.076174118
-0.77526635 0.44292152 -0.14141677
-0.76521397 0.43735582 0.10821999
-0.77720058 0.44438672 -0.10992616
-0.76989037 0.44038495 0.14047816
-0.79381537 0.4540703 -0.080008969
-0.79386318 0.45446572 -0.04793974
-0.77211648 0.4423742 -0.015532642
-0.79724473 0.45825103 -0.24639574
-0.76795363 0.44159278 0.015462833
-0.77702606 0.44699013 -0.20695497
-0.78771585 0.45313951 0.047625724
-0.78783947 0.45339388 -0.17668915
-0.78563756 0.45230898 0.079311721
-0.77371538 0.44562522 -0.14141677
-0.74648255 0.43011379 0.1057826
-0.79292274 0.45687205 -0.11236355
-0.76842576 0.44293562 0.14047816
-0.77841759 0.44887635 -0.078614481
-0.77324367 0.44625229 -0.04678835
-0.77237701 0.44593206 -0.015567547
-0.79237741 0.45895582 -0.24536048
-0.77686632 0.45015243 0.015672261
-0.77553952 0.4495644 -0.20695497
-0.78620887 0.45574921 0.047625724
-0.78123659 0.4530493 -0.17554428
-0.78413332 0.4549118 0.079311721
-0.77735895 0.45116305 -0.14235538
-0.74848557 0.43458036 0.10627007
-0.78281975 0.45451528 -0.11114486
-0.75328755 0.43754405 0.13797522
-0.77520216 0.45045406 -0.078440167
-0.78384531 0.45584241 -0.047521055
-0.78990716 0.45955241 -0.015951499
-0.80086201 0.46742332 -0.2484663
-0.78227675 0.45675933 0.015811879
-0.77909255 0.45508245 -0.20830467
-0.78461319 0.45849088 0.047625724
-0.78651023 0.45959944 -0.17707075
-0.78090036 0.45650405 0.079137415
-0.78097415 0.4567301 -0.14329399
-0.72819293 0.42603335 0.10358895
-0.77437562 0.45323399 -0.11016989
-0.78925824 0.4621295 0.14485833
-0.78230089 0.45805579 -0.079311721
-0.79266846 0.46449789 -0.048149083
-0.77449864 0.45421404 -0.015672261
-0.80089045 0.47119582 -0.24898393
-0.78757101 0.46354455 0.015951499
-0.79093337 0.46570939 -0.21190389
-0.80021703 0.47136381 0.048672445
-0.78659278 0.46333849 -0.17745239
-0.76900297 0.45315811 0.078091539
-0.7929886 0.46747884 -0.14579694
-0.73012125 0.43058926 0.10407643
-0.79501504 0.46904746 -0.1133385
-0.83527291 0.49299556 0.15361866
-0.78927618 0.46584734 -0.080183282
-0.80823886 0.47741994 -0.049195804
-0.78495836 0.46403798 -0.015916595
-0.80256402 0.47595945 -0.25001919
-0.78594816 0.46629083 0.015951499
-0.7876271 0.46747279 -0.21145399
-0.81230557 0.48231167 0.04950982
-0.77484196 0.46006742 -0.17516267
-0.77084243 0.45787469 0.078440167
-0.78965378 0.46923494 -0.14548407
-0.74226457 0.44125023 0.10602634
-0.79166675 0.47080508 -0.11309476
-0.79963124 0.47573048 -0.081403457
-0.79455471 0.47308582 -0.048463102
-0.78161585 0.46575156 -0.015881689
-0.79426503 0.4747932 -0.24794866
-0.77401847 0.46287337 0.015742071
-0.7742843 0.46321607 -0.20830467
-0.78833783 0.47181043 0.048149083
-0.78333884 0.46881863 -0.17745239
-0.78633374 0.47079715 0.080183282
-0.77953774 0.46691334 -0.14391972
-0.73390859 0.43975726 0.10505138
-0.79172111 0.47458631 -0.1133385
-0.77404386 0.4641735 -0.078963101
-0.7706356 0.46249551 -0.047102366
-0.77827108 0.46744746 -0.015846785
-0.79591238 0.47955659 -0.24898393
-0.7775358 0.46866953 0.015846785
-0.76765615 0.46289709 -0.20695497
-0.78155565 0.47146428 0.047835067
-0.77665454 0.46850771 -0.17630751
-0.77445042 0.4673627 0.079137415
-0.77113885 0.46554789 -0.14266825
-0.73916614 0.44642127 0.10602634
-0.78666157 0.47529393 -0.11285102
-0.76559842 0.46275017 -0.078265861
-0.77072543 0.46621647 -0.047207039
-0.76979184 0.46601912 -0.015707165
-0.79588479 0.48333475 -0.24950157
-0.78785819 0.47864878 0.016091119
-0.76270521 0.46354955 -0.20605516
-0.77478546 0.47107676 0.047521055
-0.77333683 0.47019598 -0.17592591
-0.77451652 0.47109866 0.079311721
-0.77119666 0.46926349 -0.14298111
-0.73760319 0.4489989 0.10602634
-0.77482492 0.47184214 -0.11138859
-0.76738161 0.46749279 -0.078614481
-0.77250391 0.47098333 -0.047416382
-0.74767631 0.45620444 -0.015288308
-0.77763265 0.47616041 -0.24432519
-0.772457 0.47317666 0.015811879
-0.77429354 0.47448775 -0.20965438
-0.78675979 0.48212704 0.048358425
-0.76658702 0.46994898 -0.17478105
-0.7744832 0.47497565 0.079486035
-0.77115524 0.47312015 -0.14329399
-0.73933637 0.45377597 0.10651381
-0.78324044 0.48091078 -0.11285102
-0.77075589 0.47343078 -0.079137415
-0.76907104 0.47276565 -0.047311708
-0.7614097 0.46823919 -0.015602452
-0.76774573 0.4737992 -0.24173699
-0.76577842 0.47258511 0.015707165
-0.76110846 0.46988684 -0.20650508
-0.79356861 0.49011779 0.048881788
-0.75659096 0.46746236 -0.17287296
-0.76265168 0.4713912 0.078440167
-0.76286077 0.47152045 -0.14204252
-0.73107392 0.45204926 0.10553886
-0.79345876 0.49081552 -0.11455719
-24.244062 15.002682 4.5156379
-0.75215828 0.46563101 -0.077394299
-24.274637 15.027454 5.549489
-0.76749915 0.47531325 -0.047311708
-0.77166867 0.47826815 -0.015846785
-6.8938923 4.2860627 -2.1751153
-24.229528 15.069818 0.4980568
-8.0413809 5.0033708 -2.1865242
-0.80889696 0.5032981 0.049928509
-9.7621403 6.076396 -2.2351367
-0.77292347 0.48128954 0.079660349
-12.308469 7.6673079 -2.296771
-0.71938306 0.44829917 0.10407643
-15.423779 9.6154051 -2.2316716
-24.244467 15.114348 4.5250239
-21.536083 13.431115 -2.2205539
-24.2187 15.110018 5.5487261
-24.237329 15.127525 -1.4973319
-24.262556 15.149157 -0.49927846
-6.883801 4.3131785 -2.1766684
-8.0313492 5.0341496 -2.188324
-9.7475224 6.1146083 -2.2366631
-0.78811485 0.49457514 0.081403457
-12.291341 7.7133317 -2.2983353
-0.72629869 0.45595959 0.10529512
-15.309438 9.6147642 -2.2197285
-21.318693 13.399126 -2.2029486
-41.183052 25.894209 -2.549494
-6.879261 4.3421688 -2.179774
-8.0334988 5.0746431 -2.1937227
-9.7255325 6.1458502 -2.2362814
-12.27102 7.7604136 -2.299587
-0.71799254 0.45424679 0.10432017
-15.227139 9.6373596 -2.2126598
-20.776943 13.160026 -2.151701
-41.227371 26.123337 -2.5578678
-6.8584108 4.364243 -2.1782212
-8.0190229 5.1047468 -2.1946225
-9.7228107 6.1941128 -2.2408609
-12.245827 7.8074574 -2.3002126
-0.72309792 0.4610188 0.10529512
-15.154913 9.6659021 -2.2070539
-21.533649 13.744871 -2.2350218
-41.259277 26.355976 -2.5658228
-6.8415089 4.387114 -2.1777036
-8.0101004 5.140419 -2.1973219
-9.7077379 6.2322578 -2.2423875
-12.235117 7.8608375 -2.3033414
-0.71472365 0.459373 0.10432017
-15.072635 9.6913195 -2.2002294
-20.771698 13.360803 -2.1607652
-41.237564 26.545229 -2.570219
-6.8293986 4.413064 -2.1787388
-7.9806533 5.1609411 -2.1941726
-9.6941671 6.2714348 -2.2442954
-12.207603 7.9034986 -2.3033414
-0.70811737 0.45862752 0.10358895
-15.007055 9.7233686 -2.1955984
-20.818558 13.493915 -2.1705265
-41.275345 26.773806 -2.5783834
-6.8236661 4.4432011 -2.1818447
-7.9740195 5.1962132 -2.1973219
-9.6755066 6.3073807 -2.2450588
-12.199795 7.959012 -2.3070958
-0.70484972 0.4600116 0.10334522
-14.8949 9.7246876 -2.1841426
-20.514439 13.398719 -2.1436825
-41.322067 27.00951 -2.5871758
-6.8145766 4.4712329 -2.1839154
-7.9616303 5.2258348 -2.1986716
-9.6550713 6.3421941 -2.2454405
-12.183236 8.0059366 -2.3089728
-0.70663792 0.46452737 0.10383269
-14.880814 9.786026 -2.1868236
-20.547434 13.522818 -2.1520495
-41.245617 27.155178 -2.5880132
-6.8109932 4.5012622 -2.1875386
-7.9449663 5.2546697 -2.1991215
-9.6356239 6.3752608 -2.245822
-12.1651 8.0549555 -2.3108501
-0.70335716 0.46589494 0.10358895
-14.677779 9.7260675 -2.1619625
-21.814396 14.46054 -2.2897556
-41.373596 27.446939 -2.6020393
-42.593925 28.267191 -0.89230663
-6.7839847 4.5175133 -2.1839154
-7.9404726 5.2896314 -2.2027209
-9.6296453 6.4197493 -2.2496383
-12.148183 8.1018286 -2.3127275
-0.71336746 0.47593674 0.10529512
-14.72635 9.8286858 -2.1739056
-41.428486 27.681637 -2.6112504
-42.475048 28.402361 -0.89188778
-6.7657566 4.5378323 -2.1828799
-7.9154873 5.3129725 -2.2009211
-9.626235 6.4636812 -2.2538359
-12.136224 8.1552029 -2.3158562
-0.7051121 0.47399402 0.10432017
-14.599706 9.8179922 -2.1602564
-21.708849 14.604244 -2.2890584
-41.371376 27.852842 -2.6137626
-42.435341 28.590687 -0.89314437
-6.7658825 4.5722389 -2.1880562
-7.9033518 5.3449359 -2.2027209
-9.6068649 6.4994464 -2.2545993
-12.117496 8.2041616 -2.3177333
-0.70016599 0.47422618 0.10383269
-14.501253 9.825469 -2.1507504
-21.812767 14.785012 -2.3054438
-41.409435 28.089024 -2.6223457
-42.193001 28.642044 -0.89014256
-6.7371054 4.587132 -2.1839154
-7.8975296 5.3812695 -2.20632
-9.5906076 6.5373645 -2.2561257
-12.101842 8.2553129 -2.3202362
-0.71162379 0.48561883 0.1057826
-14.453752 9.867075 -2.1488004
-21.882776 14.944211 -2.3183427
-41.42326 28.310032 -2.6294632
-6.7003431 4.5964127 -2.177186
-7.8835144 5.4121146 -2.2076695
-9.567729 6.5708022 -2.2561257
-12.085973 8.3064594 -2.3227391
-0.70665276 0.4858506 0.10529512
-14.357072 9.8747177 -2.1395385
-21.919113 15.081493 -2.3277557
-41.350517 28.472567 -2.6311381
-6.6953821 4.6274619 -2.1808095
-7.8709855 5.4440346 -2.2094693
-9.5689526 6.620914 -2.2618499
-12.053657 8.3463478 -2.3221135
-0.70821631 0.4905749 0.1057826
-14.286616 9.8999023 -2.1341763
-22.026804 15.269153 -2.3448381
-41.336201 28.675945 -2.6365809
-6.6934566 4.6607404 -2.185468
-7.8503375 5.4703608 -2.2090194
-9.5554457 6.6610117 -2.2641397
-12.027691 8.3906307 -2.3227391
-0.69673228 0.48622781 0.10432017
-14.149428 9.8781233 -2.1188207
-22.090982 15.428078 -2.3573885
-41.301334 28.865826 -2.6407681
-6.6834741 4.6885133 -2.1875386
-7.8375735 5.5022087 -2.2108188
-9.5417747 6.7010989 -2.2664294
-12.027419 8.4530087 -2.3283708
-0.69827849 0.49094051 0.10480764
-14.0353 9.8714924 -2.1068773
-22.405254 15.764204 -2.3967829
-41.285252 29.069603 -2.6462109
-6.6765327 4.7185063 -2.1906445
-7.8278661 5.5362859 -2.2135184
-9.5183268 6.7343631 -2.2664294
-12.007512 8.501791 -2.3302481
-0.69656062 0.49337482 0.10480764
-14.159489 10.032896 -2.1307638
-22.285069 15.796236 -2.3898106
-41.34317 29.326782 -2.6564689
-6.6490049 4.7339396 -2.187021
-7.8116674 5.5658383 -2.2144182
-9.4963598 6.7686868 -2.2668109
-11.980979 8.545948 -2.3308737
-0.69806588 0.49810931 0.10529512
-14.124524 10.078643 -2.1305199
-22.002796 15.711827 -2.3654068
-41.354294 29.552208 -2.6637957
-6.6442599 4.7638426 -2.1906445
-7.7947516 5.5928464 -2.2148681
-9.4850264 6.8081541 -2.2694824
-11.955782 8.5879354 -2.3314996
-0.70285851 0.50505501 0.10627007
-14.242557 10.234314 -2.1534314
-22.274088 16.017345 -2.400269
-24.564943 17.677715 -1.5860937
-6.6409554 4.7948966 -2.1947856
-24.555872 17.736328 0.52873808
-7.7777419 5.6198058 -2.215318
-9.4830818 6.8545222 -2.2744434
-11.943244 8.6391106 -2.3346283
-0.71726197 0.51902026 0.10870746
-14.092751 10.197701 -2.1358824
-22.340269 16.177591 -2.4131682
-24.570875 17.805958 -1.5902805
-24.534594 17.786198 -0.52894753
-6.6453319 4.8316598 -2.201515
-24.509859 17.827072 0.52901739
-7.7653661 5.6501536 -2.2171178
-24.484966 17.815493 1.586931
-9.4634752 6.8882403 -2.2752066
-11.936884 8.694952 -2.3390083
-0.71553683 0.52139592 0.10870746
-14.123028 10.291141 -2.1456318
-22.263962 16.235151 -2.4107277
-24.627304 17.978287 -0.53222859
-6.6118612 4.8480177 -2.1968563
-7.7599039 5.6939607 -2.2220664
-9.4389114 6.9284987 -2.2759697
-11.924172 8.7591715 -2.3433886
-0.71343803 0.5242641 0.10870746
-14.151775 10.403115 -2.1566
-22.211447 16.333841 -2.4121222
-24.567877 18.093149 -0.53257763
-6.577805 4.8584414 -2.1911621
-7.7290106 5.7129078 -2.2189171
-9.4178267 6.963737 -2.2767329
-11.957039 8.847744 -2.3559034
-0.70522171 0.5220269 0.10773251
-13.978177 10.350856 -2.1356385
-22.183113 16.432623 -2.4152598
-6.5639057 4.8836784 -2.1921973
-7.7215271 5.7491608 -2.2225163
-9.4044838 7.0047784 -2.2794044
-11.973598 8.9248419 -2.3652894
-14.036076 10.465977 -2.1497755
-21.978712 16.400331 -2.3992233
-6.5538588 4.9100523 -2.194268
-7.6993008 5.772397 -2.2216165
-9.3921976 7.0441728 -2.2820759
-24.560526 18.427158 2.6863143
-11.966054 8.9810991 -2.3696697
-14.037805 10.539878 -2.1553814
-21.981548 16.516209 -2.4054983
-24.470293 18.399546 -1.6045159
-24.461771 18.399822 -0.53428799
-6.5437093 4.9364128 -2.1963384
-24.434437 18.439426 0.53432286
-7.6832285 5.8002439 -2.2225163
-24.423735 18.444735 1.6039925
-9.3781862 7.0823793 -2.2843654
-24.445232 18.467669 2.6803877
-11.958268 9.037406 -2.3740497
-13.939178 10.542115 -2.1458757
-21.983854 16.632296 -2.4117737
-6.5356674 4.9662371 -2.1994443
-7.6722407 5.8341074 -2.2252157
-24.470476 18.614523 1.6113197
-9.3487186 7.111506 -2.2832205
-24.447214 18.603554 2.6877086
-11.951797 9.098237 -2.3790557
-13.837555 10.541385 -2.1358824
-21.935175 16.716173 -2.4128196
-6.5152245 4.986671 -2.1984091
-7.659564 5.8667779 -2.2274654
-24.494135 18.767847 1.6171812
-9.3253984 7.145288 -2.2836022
-11.935641 9.1519213 -2.3821843
-13.934537 10.692345 -2.1566
-21.813471 16.744112 -2.4058471
-6.4993081 5.0105624 -2.1989267
-7.6344118 5.8899064 -2.2261157
-24.523342 18.926453 1.6234616
-9.3112793 7.186193 -2.2862735
-11.919259 9.2056017 -2.385313
-13.818594 10.680223 -2.1444132
-21.735979 16.805525 -2.4037554
-6.4863553 5.0367756 -2.2004797
-7.6168828 5.918911 -2.2270155
-9.2954359 7.2258835 -2.2885633
-11.901085 9.2580681 -2.3881288
-13.945703 10.856434 -2.1700058
-21.692904 16.893538 -2.4054983
-6.4778643 5.0665255 -2.2035854
-24.486885 19.158791 0.54269999
-7.603848 5.9514689 -2.229265
-24.547869 19.220322 1.6339287
-9.2794323 7.2655468 -2.290853
-11.851589 9.2861557 -2.3846872
-12.975127 10.173796 -2.0244937
-21.571091 16.919977 -2.398526
-24.500378 19.245298 -0.54381698
-6.4631748 5.0914979 -2.2046208
-7.5830269 5.9779749 -2.229265
-9.2463064 7.2918153 -2.2889447
-11.784987 9.3005457 -2.3778043
-13.763637 10.869862 -2.1534314
-21.533785 17.012463 -2.4009664
-6.4423356 5.1116261 -2.2035854
-7.5712709 6.0116796 -2.2319643
-9.2377071 7.3374786 -2.2931426
-11.704515 9.3035202 -2.3681052
-13.096421 10.417366 -2.0547173
-21.589642 17.179323 -2.4138653
-6.430491 5.1389055 -2.2056561
-7.5563273 6.0429401 -2.2337639
-9.2212381 7.3770366 -2.2954323
-11.608743 9.293704 -2.3552775
-12.750135 10.214783 -2.0059695
-21.386509 17.13995 -2.3978288
-6.4200373 5.1673794 -2.2082443
-7.536706 6.0705004 -2.2342138
-9.200016 7.4128771 -2.2965772
-11.537786 9.3031712 -2.3474557
-13.636697 11.003427 -2.1514816
-21.335852 17.222008 -2.3988748
-24.45052 19.750225 -1.647222
-24.434565 19.751434 -0.54842442
-6.4094644 5.1958413 -2.2108324
-24.428362 19.80994 0.54898292
-7.5215235 6.1016827 -2.2360134
-24.456821 19.847185 1.6506763
-9.1801815 7.4498954 -2.2981036
-24.485001 19.87714 2.7591765
-11.460773 9.3072758 -2.3383827
-13.61515 11.064731 -2.1541626
-18.814425 15.29552 -2.1213708
-22.454094 18.267475 -1.5170102
-24.443008 19.899733 -0.55016965
-6.389791 5.2169604 -2.2103145
-7.4986687 6.1266694 -2.2355635
-24.449251 19.982994 1.6548631
-9.1526003 7.4806528 -2.2977221
-24.421642 19.967527 2.7598739
-11.376226 9.3047037 -2.3277452
-13.56723 11.104643 -2.1527004
-21.356924 17.486664 -2.4149113
-22.461256 18.403971 -1.5218251
-6.3521442 5.2232809 -2.2035854
-7.4847608 6.158999 -2.2378132
-9.1340122 7.5187922 -2.2996302
-11.297935 9.3066778 -2.3183591
-13.557485 11.175928 -2.1573315
-21.366463 17.619415 -2.4229295
-22.412281 18.494976 -1.5228719
-6.3532152 5.2614408 -2.2103145
-7.4672966 6.1862721 -2.238713
-9.1243362 7.5644131 -2.303828
-11.218355 9.3037415 -2.3083472
-13.553954 11.248714 -2.1626935
-19.152889 15.906677 -2.1781962
-22.335464 18.556435 -1.5218251
-6.3416677 5.2874289 -2.2123852
-7.4396729 6.2073045 -2.2369132
-9.0946798 7.5908551 -2.3026831
-11.14791 9.311183 -2.3005254
-13.304418 11.120275 -2.1290576
-21.26438 17.779776 -2.4250214
-22.374714 18.721441 -1.5289427
-6.3276119 5.3132606 -2.2139382
-7.4284029 6.2420115 -2.2400625
-9.0681267 7.6225557 -2.3026831
-11.073012 9.314436 -2.2917652
-13.136435 11.057983 -2.1083398
-21.21438 17.864161 -2.4264159
-22.183992 18.69389 -1.5203596
-24.532743 20.687777 -0.56015241
-6.3105011 5.3365631 -2.2144558
-24.481899 20.710789 0.55973363
-7.4080567 6.2691631 -2.2405124
-24.527163 20.763773 1.6841712
-9.0444613 7.6567001 -2.3034463
-10.99823 9.3172789 -2.2830048
-13.2734 11.252678 -2.1366136
-18.176649 15.414915 -2.085114
-22.155149 18.802229 -1.5228719
-6.2903638 5.3573065 -2.2139382
-7.399477 6.3063607 -2.2445617
-9.0251484 7.694593 -2.3053544
-10.919053 9.3158684 -2.2733059
-13.110245 11.193247 -2.1166267
-18.507545 15.806934 -2.129389
-22.153151 18.93395 -1.5272681
-6.271625 5.3792315 -2.2139382
-7.3818541 6.335959 -2.2459114
-9.005682 7.7324457 -2.3072627
-10.847513 9.3204556 -2.2651713
-12.831767 11.033164 -2.0778725
-17.775551 15.289385 -2.0512974
-22.108116 19.029408 -1.5287334
-6.2601199 5.4074035 -2.2165263
-7.3567438 6.3591394 -2.2450116
-8.9890327 7.7728209 -2.3099339
-10.780557 9.3285351 -2.2579753
-12.968754 11.229925 -2.1063898
-17.655811 15.293942 -2.043628
-6.2484941 5.4355617 -2.2191145
-7.3374424 6.3873382 -2.2459114
-8.9618454 7.8041515 -2.3099339
-10.724101 9.3453417 -2.2529695
-12.749942 11.118565 -2.0771413
-18.834967 16.430779 -2.1867375
-23.095699 20.176071 -0.5353002
-6.2280283 5.4560685 -2.2185969
-24.441561 21.419577 0.56727302
-7.3151016 6.4129114 -2.2459114
-8.9404516 7.8405662 -2.3114603
-10.685476 9.3775072 -2.251718
-12.603662 11.068686 -2.0595922
-21.363985 18.768711 -2.4879477
-22.924641 20.153961 -1.599701
-24.412403 21.477034 -0.56755227
-6.206049 5.4752183 -2.2175617
-24.450605 21.578865 0.5692277
-7.3102007 6.4538856 -2.2513101
-24.410299 21.558455 1.7067804
-8.9189157 7.8769231 -2.3129869
-24.405262 21.56159 2.8491213
-10.649714 9.4121361 -2.2510922
-12.582793 11.128396 -2.0625172
-17.737917 15.693185 -2.0720406
-22.890041 20.265636 -1.6022131
-6.2013402 5.5096788 -2.222738
-7.2934551 6.4845419 -2.2531099
-8.9031019 7.9184465 -2.3160398
-10.631553 9.4623833 -2.254221
-12.606127 11.227705 -2.0727541
-17.212954 15.336176 -2.016958
-22.94438 20.457069 -1.6110055
-6.174871 5.5248513 -2.2201498
-7.2678709 6.5073609 -2.2522099
-8.8797951 7.9534054 -2.3171847
-10.58669 9.4888906 -2.251718
-13.586511 12.186201 -2.2409337
-17.269054 15.494632 -2.0298572
-22.91147 20.57173 -1.6137271
-23.127085 20.779911 -0.54269999
-6.1612911 5.5515437 -2.2222204
-7.2509003 6.5379119 -2.2540095
-8.8592672 7.9909258 -2.3190925
-10.524176 9.4993162 -2.2454607
-12.503868 11.294146 -2.0688543
-18.693167 16.89057 -2.2041686
-22.824709 20.63818 -1.6126803
-6.1504574 5.5808072 -2.2253263
-7.2381353 6.5723505 -2.2571588
-8.8284121 8.0191641 -2.3183293
-10.460257 9.5080891 -2.2388902
-12.214728 11.110649 -2.0274186
-17.136887 15.593356 -2.0270681
-19.426853 17.689472 -1.3769592
-6.1295128 5.6009393 -2.2248087
-7.2223387 6.6041532 -2.2594085
-8.8061609 8.055233 -2.3198559
-10.399318 9.5192051 -2.2329459
-13.466942 12.335848 -2.2423961
-18.463154 16.91836 -2.1909211
-23.095196 21.177679 -1.6421978
-6.1113472 5.6236081 -2.2253263
-7.2021084 6.6319647 -2.2603083
-8.801095 8.1072035 -2.3259618
-10.328262 9.5206375 -2.2248113
-13.420879 12.380095 -2.2419088
-18.462553 17.036755 -2.1978934
-6.0973473 5.6501584 -2.2273967
-7.1743603 6.6505122 -2.2585087
-8.7770586 8.1418819 -2.3271067
-10.261881 9.5225878 -2.2173023
-13.382663 12.42723 -2.2423961
-16.622368 15.446458 -1.9852335
-6.0771642 5.6690292 -2.2268791
-7.1596479 6.6834931 -2.2612078
-8.7600565 8.1803226 -2.329778
-10.248784 9.5772333 -2.2216825
-13.333399 12.468448 -2.241421
-16.830044 15.74377 -2.0162609
-24.412718 22.853012 -1.7525219
-24.424299 22.879843 -0.58416694
-6.0643792 5.6968222 -2.2294674
-24.394152 22.923668 0.5843066
-7.1419559 6.7137818 -2.2630076
-24.38554 22.931599 1.7543013
-8.7228661 8.2027826 -2.3274884
-24.42222 22.974134 2.9334879
-10.159189 9.5601511 -2.2094805
-13.284014 12.509471 -2.2404461
-18.326754 17.264214 -2.2027743
-24.405371 23.022596 -0.58563292
-6.0416512 5.7152996 -2.2284322
-7.1297984 6.7493892 -2.2666068
-8.7084322 8.2466812 -2.3313043
-24.460487 23.171597 2.9477816
-10.117152 9.5874014 -2.2076035
-13.234508 12.550299 -2.2394712
-18.488979 17.539248 -2.2296181
-22.786682 21.631306 -1.646594
-6.0230618 5.7376885 -2.2289498
-7.1090183 6.7769237 -2.2675066
-8.6881189 8.2851562 -2.3335941
-10.039323 9.5803833 -2.1979043
-13.207846 12.61287 -2.2423961
-18.537128 17.708282 -2.2428658
-22.63596 21.638948 -1.6411511
-6.0016017 5.7573404 -2.2284322
-7.0839105 6.8003492 -2.2670567
-8.6563139 8.3127146 -2.3328309
-9.9901524 9.6003132 -2.194463
-13.146567 12.642387 -2.2394712
-18.452234 17.750776 -2.2400768
-22.571798 21.728912 -1.6419884
-5.9925838 5.7889924 -2.2325733
-7.064333 6.8290992 -2.2684064
-8.6385345 8.3537979 -2.3358839
-9.9551601 9.6337538 -2.1941502
-13.0938 12.679914 -2.2380087
-18.567606 17.986977 -2.2616913
-24.428904 23.68152 -1.7830863
-24.448988 23.71755 -0.59456855
-5.9695721 5.8071799 -2.2315381
-24.474756 23.817291 0.59610438
-7.044641 6.8577948 -2.2697561
-24.419468 23.780077 1.7863309
-8.6121359 8.3866386 -2.336647
-24.448549 23.816723 2.98613
-9.989378 9.7346191 -2.2091677
-13.043774 12.719999 -2.2370338
-21.097506 20.581005 -2.5785899
-24.408966 23.844673 -0.59561574
-5.949264 5.8279824 -2.2315381
-7.0317945 6.8932557 -2.2733555
-8.5814056 8.4152775 -2.3362653
-9.9807177 9.7943325 -2.2147994
-13.019123 12.784925 -2.2404461
-21.022696 20.651724 -2.5782411
-5.9288831 5.8487153 -2.2315381
-7.0132365 6.9232354 -2.2751548
-8.5533743 8.4465609 -2.336647
-9.8776188 9.761076 -2.1994689
-12.994178 12.849832 -2.2438586
-17.17993 16.995024 -2.114224
-5.9111729 5.872097 -2.2325733
-6.9862614 6.9449277 -2.2742553
-8.5377617 8.4902086 -2.3404634
-9.8532848 9.8052511 -2.201659
-12.940805 12.886708 -2.2423961
-20.928818 20.848612 -2.5845163
-5.8947368 5.8967943 -2.2341261
-6.9592237 6.9665141 -2.2733555
-8.510848 8.5227375 -2.3412266
-9.8036518 9.8242035 -2.1982174
-12.857893 12.893852 -2.235815
-20.985329 21.051352 -2.600553
-24.389641 24.483475 -1.8111384
-24.389679 24.500597 -0.60343438
-5.878201 5.9214482 -2.2356789
-24.37088 24.558756 0.60392302
-6.9444704 7.0004482 -2.2765048
-24.377628 24.58271 1.8143831
-8.4893389 8.5607576 -2.3435161
-24.379837 24.593519 3.0297079
-9.7400999 9.8288994 -2.1916471
-12.761129 12.886466 -2.2267969
-16.260933 16.426374 -2.0221875
-5.8561397 5.9405541 -2.2351615
-6.9254622 7.0301995 -2.2783043
-8.4662924 8.5973339 -2.3454244
-9.7112732 9.8684711 -2.1928985
-12.679881 12.894132 -2.2204597
-20.851818 21.211554 -2.6022961
-5.838069 5.9637218 -2.2361965
-6.9063325 7.0599017 -2.2801039
-8.4389763 8.6296415 -2.3461876
-9.6160202 9.8401442 -2.1791322
-12.619538 12.922691 -2.2177784
-20.877851 21.386866 -2.6148465
-5.8223028 5.9872031 -2.2377496
-6.8815241 7.0813675 -2.279654
-8.4253597 8.67307 -2.3503854
-9.609479 9.8989086 -2.1850767
-12.533767 12.9203 -2.2102227
-20.823469 21.473135 -2.6169384
-5.8053918 6.0116601 -2.2393024
-6.8594699 7.10815 -2.2805538
-8.4100266 8.7179689 -2.354583
-9.5872059 9.9451914 -2.1878927
-12.44039 12.913932 -2.2016916
-20.908695 21.712173 -2.6371584
-5.7843728 6.0318871 -2.2393024
-6.8427038 7.1404943 -2.2832532
-8.3999186 8.7685366 -2.3603075
-9.5619917 9.9885874 -2.1900828
-12.370535 12.931458 -2.1973045
-20.843794 21.796547 -2.6385529
-22.490528 23.534983 -1.7060478
-5.7606177 6.0492435 -2.2382672
-6.8190827 7.1657472 -2.2837031
-8.3814373 8.810606 -2.3637419
-9.4944048 9.9875412 -2.1825738
-12.285668 12.932827 -2.1902359
-20.792278 21.89518 -2.6416905
-22.567709 23.781404 -1.7181896
-5.7407947 6.0707188 -2.2387848
-6.7940278 7.1895065 -2.2837031
-8.3600683 8.8498001 -2.3664134
-9.498807 10.06228 -2.1916471
-12.226829 12.961193 -2.1877987
-20.685654 21.93573 -2.6378555
-24.410437 25.903728 -1.8653584
-5.7222147 6.0935364 -2.23982
-24.398596 25.99095 0.62224811
-6.7742243 7.218863 -2.2855027
-8.3358402 8.8860903 -2.3683214
-9.4271488 10.056464 -2.1831996
-12.163871 12.984959 -2.1846299
-20.832304 22.246307 -2.6664429
-24.306305 25.992468 -0.62116605
-5.7088127 6.1219521 -2.2429259
-24.359535 26.131542 0.6235745
-6.7463284 7.2396121 -2.2846029
-24.326187 26.11404 1.8703827
-8.3154774 8.9266233 -2.3713744
-24.34923 26.147923 3.1259277
-9.3354607 10.028582 -2.1700592
-12.065742 12.970655 -2.1751244
-20.854918 22.426865 -2.6793418
-5.6939716 6.1489296 -2.2455142
-6.7289557 7.2717009 -2.2873023
-8.2882671 8.9599199 -2.3725193
-9.3419619 10.106076 -2.1797581
-12.015003 13.00686 -2.1741493
-20.733257 22.452681 -2.6737638
-5.6607051 6.1559677 -2.2408552
-6.7061691 7.2980151 -2.2882023
-8.2675676 9.0003614 -2.3755722
-9.3306723 10.164819 -2.1853898
-11.999047 13.080904 -2.1795115
-20.823076 22.708477 -2.6955528
-5.6404858 6.1771178 -2.2413731
-6.6806531 7.3213797 -2.2882023
-8.2506533 9.0451202 -2.3797698
-9.2565422 10.15499 -2.1763165
-11.910538 13.075749 -2.1717119
-20.740997 22.778078 -2.6952043
-24.352516 26.763063 -1.8963412
-24.35807 26.787945 -0.63198656
-5.6279721 6.2067866 -2.2449965
-24.360277 26.875071 0.63313836
-6.6602917 7.35043 -2.2900016
-24.323908 26.853777 1.8988533
-8.2282534 9.084053 -2.3824413
-24.372259 26.916599 3.1768267
-9.2568331 10.22678 -2.1847639
-14.488132 16.017466 -2.6518769
-20.78163 22.983341 -2.7108922
-5.6101484 6.2307024 -2.2465494
-6.6319861 7.3707366 -2.2891018
-8.201745 9.1185589 -2.3839676
-9.193347 10.228179 -2.1781938
-14.429482 16.064983 -2.6513896
-20.711918 23.067606 -2.7122867
-5.590941 6.2531266 -2.2475846
-6.6114082 7.3996563 -2.2909014
-8.1646366 9.1412745 -2.3824413
-9.1483774 10.249893 -2.1760037
-14.357628 16.09201 -2.6479774
-20.692263 23.208174 -2.720305
-5.5676088 6.268744 -2.2465494
-6.5945983 7.4302812 -2.2936008
-8.1512156 9.1873903 -2.3874023
-9.1497202 10.320084 -2.1844511
-14.198852 16.020685 -2.6284783
-16.440895 18.563461 -2.1694808
-15.856426 17.916122 -1.253865
-24.441656 27.62627 -0.6438542
-5.549346 6.2900696 -2.2475846
-24.344002 27.603132 0.64242309
-6.5699205 7.4521112 -2.2936008
-24.37603 27.658905 1.932139
-8.1064253 9.1981688 -2.3832045
-9.084116 10.314788 -2.1769423
-11.378274 12.928843 -2.114677
-16.347054 18.58782 -2.1656458
-24.365957 27.715662 -1.9340231
-24.26589 27.621277 -0.64175993
-5.532618 6.3176336 -2.2501729
-6.5387354 7.4691329 -2.2918015
-8.0571461 9.2100878 -2.3786252
-8.9825439 10.275141 -2.1616118
-11.534237 13.198674 -2.1522129
-16.342354 18.713799 -2.1736641
-5.5194073 6.3471112 -2.2537963
-6.5164261 7.4989338 -2.2936008
-8.0094995 9.2203684 -2.3740456
-24.34099 28.030735 3.247946
-8.9505053 10.310907 -2.1625502
-14.300647 16.485846 -2.6796634
-20.70813 23.889259 -2.7659745
-5.4998918 6.3716865 -2.2553494
-6.4978485 7.5304875 -2.2963004
-7.9423156 9.2110071 -2.3641236
-24.33695 28.234455 3.2611938
-8.9087868 10.339154 -2.1616118
-14.131598 16.406315 -2.6587019
-16.17943 18.797043 -2.1698294
-15.406203 17.911362 -1.2381642
-5.4763618 6.3893785 -2.2548318
-24.345913 28.41489 0.65313888
-6.4727416 7.5572114 -2.2972002
-7.8973484 9.2237606 -2.3603075
-8.8752117 10.373189 -2.1622374
-14.182307 16.587761 -2.6796634
-16.09042 18.826139 -2.1666918
-22.721575 26.603556 -1.8335381
-5.4540262 6.4084549 -2.2548318
-6.4526939 7.5845728 -2.2989998
-7.842216 9.2243462 -2.3534384
-8.8420401 10.40407 -2.1625502
-14.168344 16.683115 -2.687463
-15.864741 18.69383 -2.1450772
-22.71076 26.770136 -1.8398185
-5.4389787 6.4338827 -2.2574198
-6.4186358 7.5981174 -2.2963004
-7.7963805 9.2323036 -2.3488588
-8.7152205 10.327684 -2.1403368
-13.590466 16.116343 -2.5885053
-15.612615 18.520876 -2.1192791
-22.334097 26.513187 -1.8167905
-5.4202151 6.4572673 -2.2589729
-6.3970819 7.626451 -2.2981
-7.7388797 9.229372 -2.3412266
-8.7197113 10.406496 -2.1503484
-13.567259 16.20326 -2.5948424
-15.532518 18.556934 -2.1171873
-22.295225 26.655336 -1.8211867
-24.248302 29.010933 -0.65998024
-5.3988771 6.477634 -2.2594905
-24.230865 29.082785 0.66074806
-6.3828945 7.6637063 -2.302599
-24.26149 29.140217 1.9871964
-7.678978 9.2231388 -2.3328309
-8.6820726 10.435349 -2.1500356
-14.084242 16.94047 -2.7050121
-15.383602 18.509905 -2.1056828
-15.791159 19.013784 -1.295315
-5.3799257 6.5009055 -2.2610431
-6.357348 7.6874404 -2.3030491
-7.624218 9.2226524 -2.3259618
-8.599041 10.409247 -2.1384594
-13.9214 16.863997 -2.6850257
-15.209833 18.431335 -2.0906918
-15.80602 19.167404 -1.302014
-5.349843 6.5106888 -2.2579374
-6.3366561 7.7171168 -2.3052983
-7.579524 9.2340326 -2.3221457
-8.6328106 10.524727 -2.1559801
-13.902713 16.96162 -2.6928251
-15.137831 18.475067 -2.0896461
-14.840652 18.125275 -1.2276969
-5.3344131 6.5383034 -2.2610431
-6.3036418 7.7290254 -2.302599
-7.5199604 9.2269516 -2.31375
-8.5417128 10.484384 -2.141901
-13.95167 17.13694 -2.7132993
-14.991525 18.427334 -2.0783157
-14.845996 18.254961 -1.2331399
-24.264721 29.857714 -0.67156863
-5.3187819 6.5634637 -2.2636313
-24.237919 29.92066 0.67212707
-6.2839804 7.7600708 -2.3052983
-24.262043 29.971825 2.0209007
-7.4769664 9.2365808 -2.3099339
-8.4827042 10.486489 -2.1362693
-13.702078 16.95088 -2.6762509
-14.728043 18.23312 -2.0506003
-15.005525 18.583273 -1.2517716
-15.440517 19.135641 -0.42918959
-5.2934799 6.5814071 -2.2631137
-6.2580781 7.7834768 -2.3057485
-7.414782 9.2287207 -2.3011565
-8.459054 10.535991 -2.1400237
-13.764594 17.150322 -2.7001374
-14.7042 18.334152 -2.0561783
-14.749961 18.404369 -1.2360708
-15.10607 18.855446 -0.42171997
-5.2680616 6.596827 -2.2620785
-6.240449 7.8200679 -2.3097975
-7.3641558 9.2315283 -2.2954323
-8.3778954 10.509851 -2.1287606
-14.520423 18.228539 -2.8614924
-14.663689 18.414986 -2.0594902
-14.59111 18.336969 -1.2281157
-14.769272 18.574173 -0.41421542
-5.2486048 6.6197157 -2.2636313
-6.2155323 7.8448606 -2.3106971
-7.3172622 9.2387075 -2.290853
-8.4282007 10.649004 -2.1509743
-13.683385 17.301317 -2.7084246
-14.683347 18.572336 -2.0713434
-14.472529 18.318838 -1.22351
-14.834454 18.790409 -0.41788042
-5.2326365 6.6471033 -2.2667372
-24.190935 30.741177 0.68280792
-6.1869035 7.8649783 -2.3102474
-24.172142 30.728357 2.0489528
-7.2655535 9.2395 -2.2847471
-8.3409338 10.614678 -2.1381464
-13.709324 17.452749 -2.7249987
-14.71807 18.750427 -2.0854626
-14.457807 18.432102 -1.2276969
-14.651135 18.685287 -0.41445976
-5.2141337 6.6689868 -2.2682903
-6.1571908 7.8808446 -2.3088977
-7.2203708 9.244978 -2.2801676
-8.396842 10.759072 -2.1616118
-13.680674 17.535681 -2.7308486
-14.562715 18.679708 -2.0722148
-14.331554 18.396437 -1.2221494
-14.684932 18.856829 -0.41718233
-5.1931758 6.6877651 -2.2688079
-6.1417766 7.9150739 -2.3129468
-7.1652002 9.2406454 -2.2729168
-8.3441715 10.765002 -2.1572316
-14.380339 18.565758 -2.8834291
-14.53401 18.777693 -2.0774441
-14.34667 18.549042 -1.228953
-24.272083 31.393059 -0.69265115
-5.1639099 6.7006345 -2.2667372
-24.212358 31.429041 0.69251144
-6.1174793 7.9437094 -2.3147464
-7.1121235 9.2419519 -2.2668109
-8.3480225 10.851876 -2.1684947
-13.489511 17.548141 -2.7176867
-14.562181 18.957241 -2.0913892
-14.25184 18.566645 -1.2266502
-5.1404915 6.7210498 -2.2672548
-6.0989747 7.9800105 -2.3187954
-7.0702863 9.2542391 -2.2637579
-8.2902145 10.858848 -2.1638019
-14.208578 18.617689 -2.8756292
-14.39926 18.88122 -2.0774441
-14.364902 18.849794 -1.2420369
-5.1251845 6.7472911 -2.2703607
-6.0618763 7.9862204 -2.3147464
-7.0229435 9.2557411 -2.2584155
-8.2744455 10.91304 -2.1691206
-14.468111 19.08869 -2.9409513
-14.306499 18.889156 -2.0730865
-14.452975 19.096399 -1.255121
-5.1074367 6.7704177 -2.2724314
-24.200487 32.091808 0.70158672
-6.0412226 8.01406 -2.3169959
-6.9815803 9.2648668 -2.2549808
-8.2500954 10.956198 -2.1722493
-15.828883 21.036167 -3.2324629
-14.349442 19.083889 -2.0889487
-14.20957 18.904739 -1.2394203
-24.191677 32.208565 -0.70312256
-5.088378 6.7968225 -2.2750194
-6.0132127 8.0350981 -2.3169959
-6.9252377 9.260519 -2.24773
-8.1862316 10.954717 -2.1659918
-13.897315 18.603973 -2.8512554
-14.292269 19.146641 -2.0903432
-14.092414 18.892658 -1.2352333
-5.0577059 6.8052421 -2.2719138
-5.9883685 8.063343 -2.3187954
-6.8835058 9.272027 -2.2446773
-8.0938053 10.910246 -2.1515999
-13.701356 18.482559 -2.8249316
-14.166039 19.116371 -2.0816276
-14.178522 19.147182 -1.2486314
-15.172812 20.504871 -0.4452458
-5.038506 6.8290744 -2.2739842
-5.9601874 8.0841961 -2.3187954
-6.8441076 9.2865171 -2.2423875
-8.0275612 10.900256 -2.1440909
-13.761471 18.699751 -2.8507679
-14.273963 19.403225 -2.1074257
-13.9862 19.025986 -1.2375362
-15.02774 20.457794 -0.44308168
-5.0169215 6.8497362 -2.2750194
-24.186205 33.034161 0.71464115
-5.9388356 8.1143894 -2.3214948
-24.189905 33.051311 2.1465073
-6.8116512 9.3103495 -2.2423875
-8.0127773 10.960106 -2.1503484
-13.766377 18.843847 -2.8653922
-14.664404 20.08045 -2.1754072
-14.204621 19.465118 -1.2628667
-14.96218 20.510744 -0.44315153
-5.0009356 6.8781443 -2.2786431
-5.9118962 8.134037 -2.3214948
-6.7768049 9.3308916 -2.2416241
-7.9671059 10.973828 -2.1478455
-15.121293 20.843246 -3.1617787
-13.89491 19.166885 -2.0711691
-13.713395 18.923433 -1.2247661
-14.956167 20.653549 -0.44510618
-4.9769659 6.8931241 -2.2781253
-5.8811884 8.1514616 -2.3205953
-6.7538619 9.3644609 -2.2442954
-7.9091153 10.974331 -2.1425269
-14.890668 20.67683 -3.1286299
-13.6427 18.950907 -2.0429306
-13.68924 19.029558 -1.2285343
-14.928339 20.767328 -0.44643256
-4.9506249 6.9073138 -2.2770901
-24.170866 33.73661 0.72441453
-5.861774 8.184618 -2.3241944
-6.7211342 9.3879776 -2.2442954
-7.8822546 11.017936 -2.1456554
-14.982337 20.957994 -3.1632409
-14.301631 20.01317 -2.1520495
-13.78522 19.304787 -1.2431885
-24.152517 33.848061 -0.72581065
-4.9298458 6.9292746 -2.2786431
-5.8331661 8.2050314 -2.3241944
-24.09528 33.89283 2.1793742
-6.6974196 9.4241867 -2.2473485
-7.8265877 11.021226 -2.1409624
-14.833262 20.90332 -3.1471541
-13.616117 19.195192 -2.0589671
-15.175344 21.40913 -1.3752844
-4.9100833 6.9527535 -2.2807136
-5.8025551 8.2195511 -2.3228445
-6.644114 9.4186296 -2.2404792
-7.7945533 11.053576 -2.1422138
-13.839982 19.641245 -2.9502134
-13.397623 19.027565 -2.0359581
-14.881251 21.142479 -1.3549781
-24.225266 34.443489 -0.73502553
-4.891438 6.9753237 -2.2827842
-24.159639 34.46513 0.73467648
-5.7749443 8.241354 -2.3232944
-6.6038356 9.4277449 -2.2374265
-7.7525201 11.075863 -2.1412752
-14.811235 21.176231 -3.1729906
-13.408655 19.178028 -2.0472884
-14.846247 21.249968 -1.358537
-4.8681612 6.9939418 -2.2833018
-5.7498112 8.2636576 -2.3241944
-6.5518308 9.4233379 -2.2309389
-7.705605 11.086911 -2.1384594
-14.788495 21.293707 -3.1832275
-13.665376 19.691216 -2.0969672
-14.859946 21.420517 -1.3662826
-14.671217 21.164238 -0.44950417
-4.837007 7.0037889 -2.2807136
-5.7302122 8.303318 -2.329143
-6.5083318 9.4343586 -2.227886
-7.6293406 11.067626 -2.1290734
-14.548977 21.12146 -3.1491041
-13.337743 19.370306 -2.0575728
-14.773053 21.47084 -1.3658639
-14.693265 21.36286 -0.4525758
-4.8114357 7.0190382 -2.280196
-14.772757 21.550854 0.45606631
-5.6971402 8.3142357 -2.3268938
-24.108458 35.196335 2.2357922
-6.4620481 9.437582 -2.2233064
-7.5479698 11.027658 -2.1165586
-14.534883 21.251518 -3.1612909
-13.247564 19.383844 -2.0540864
-14.341247 20.991982 -1.332369
-14.408903 21.106827 -0.44608352
-4.7903085 7.0381479 -2.2812312
-14.654699 21.539459 0.45473993
-5.659317 8.3211794 -2.3232944
-6.4185758 9.4410982 -2.2191086
-7.5271931 11.080081 -2.1215644
-12.828353 18.897635 -2.8044577
-13.084759 19.289816 -2.0392699
-14.283571 21.065062 -1.3338344
-14.465261 21.34903 -0.45013249
-4.7698846 7.0636644 -2.2838194
-14.62642 21.660089 0.4562059
-5.636776 8.3505754 -2.3259938
-6.391613 9.475956 -2.2217801
-7.4887366 11.110874 -2.1221902
-14.443842 21.438082 -3.1739655
-13.062961 19.403137 -2.0464168
-14.279851 21.226643 -1.3407427
-14.314763 21.286558 -0.44775897
-4.7441239 7.0786653 -2.2833018
-14.431185 21.54077 0.4525758
-5.6104708 8.377655 -2.3277936
-6.3552213 9.4933128 -2.2206352
-7.7958803 11.65414 -2.2207439
-14.402682 21.546986 -3.1822526
-13.043859 19.521503 -2.0540864
-14.13913 21.176691 -1.3344623
-14.218174 21.303127 -0.44706085
-4.7193842 7.0951838 -2.2833018
-14.348592 21.571861 0.45222676
-5.5891347 8.4059496 -2.330493
-6.3090048 9.4958172 -2.2160556
-7.7714009 11.701319 -2.2248113
-14.379442 21.667406 -3.192977
-12.931587 19.500504 -2.0471141
-14.183588 21.396595 -1.3453482
-14.24973 21.512674 -0.45041171
-4.6979604 7.114018 -2.284337
-14.085926 21.338104 0.44629294
-5.5640488 8.4319153 -2.3322923
-6.2580247 9.4871874 -2.2091868
-7.1293278 10.816298 -2.0517945
-14.262233 21.654469 -3.1837149
-13.633781 20.708151 -2.169132
-14.238348 21.642862 -1.3576995
-14.07789 21.415237 -0.4473401
-4.6752191 7.133605 -2.2853725
-14.044236 21.437323 0.4473401
-5.5271068 8.4398766 -2.329143
-6.2076674 9.4826908 -2.2030807
-7.1564069 10.940307 -2.0705669
-13.806421 21.122559 -3.0984066
-13.498199 20.65888 -2.1590221
-13.998926 21.441578 -1.3419988
-13.777976 21.119236 -0.44014969
-4.651341 7.1515007 -2.2858899
-14.078313 21.65387 0.45083055
-5.5050473 8.4705544 -2.3322923
-14.192345 21.837601 1.3649219
-6.158483 9.4796095 -2.1973565
-7.2902699 11.230319 -2.120626
-13.73477 21.17395 -3.0988939
-13.536573 20.876383 -2.1768019
-13.81757 21.326044 -1.3317409
-13.820915 21.339369 -0.4437798
-4.6294932 7.1725621 -2.2874427
-14.134397 21.898689 0.45494932
-5.4832687 8.4985867 -2.3349919
-6.1317406 9.5109472 -2.1996462
-7.5333519 11.689466 -2.2025976
-13.797743 21.426336 -3.1291175
-13.493812 20.970419 -2.1816826
-13.748928 21.375111 -1.3319502
-13.809055 21.485044 -0.44580427
-4.6067228 7.1895022 -2.2879603
-14.116106 22.038826 0.4568342
-5.4577708 8.5242414 -2.3367915
-6.0895815 9.5146942 -2.1958301
-7.0391173 11.006761 -2.0693154
-13.82335 21.631601 -3.1520288
-13.417755 21.004978 -2.1806366
-14.379172 22.52737 -1.400615
-13.921076 21.826481 -0.45187771
-4.5805645 7.203908 -2.2874427
-13.770927 21.666052 0.44810799
-5.4342542 8.5531092 -2.3394909
-13.962893 21.98502 1.3649219
-6.0531759 9.5309191 -2.1946852
-7.5415292 11.883542 -2.2291915
-13.949748 21.998243 -3.1983392
-13.387024 21.118998 -2.187609
-13.633577 21.524563 -1.3352997
-13.821268 21.83777 -0.4511098
-4.5595117 7.2263899 -2.2895133
-13.635469 21.619276 0.44615331
-5.3981309 8.5621338 -2.3367915
-6.0104461 9.5370445 -2.1912506
-7.5052667 11.918151 -2.2307556
-13.595878 21.606611 -3.1344798
