# .PCD v0.7 - Point Cloud Data file format
VERSION 0.7
FIELDS x y z
SIZE 4 4 4
TYPE F F F
COUNT 1 1 1
WIDTH 1467
HEIGHT 1
VIEWPOINT 0 0 0 1 0 0 0
POINTS 1467
DATA ascii
-23.540232 -1.8113232 -2.0655911
-38.990131 -2.9864395 -2.0493715
-7.7655778 -0.58117026 -2.0865991
-8.953042 -0.66689897 -2.0726991
-10.621367 -0.7893036 -2.0702777
-12.980302 -0.96005017 -2.0614936
-16.764404 -1.2340429 -2.0639794
-23.56628 -1.7306 -2.0673342
-39.115849 -2.858763 -2.0554426
-7.7656317 -0.55392396 -2.0860815
-8.9592037 -0.63591653 -2.0735989
-10.620142 -0.75194573 -2.0695145
-12.981605 -0.91459233 -2.0611808
-16.756729 -1.1746873 -2.0625172
-23.468828 -1.6411003 -2.05827
-39.261078 -2.7316406 -2.0625603
-7.7733002 -0.52720541 -2.0876343
-8.9497023 -0.60385185 -2.0708995
-10.634455 -0.71566314 -2.0718043
-12.980777 -0.8690083 -2.060555
-16.780531 -1.1175027 -2.0649543
-23.494293 -1.5604885 -2.0600131
-36.627769 -2.4199717 -1.9237653
-7.7750931 -0.50006807 -2.0876343
-8.9459229 -0.57223666 -2.0695498
-10.638847 -0.6786623 -2.0721858
-12.99556 -0.82444483 -2.0624323
-16.776409 -1.0584205 -2.0639794
-36.532337 -2.2856159 -1.9183224
-7.7729349 -0.47269207 -2.0865991
-8.9574957 -0.54315704 -2.071799
-10.637233 -0.64128256 -2.0714226
-12.998221 -0.78134495 -2.0624323
-16.783789 -1.0030183 -2.0644667
-36.523766 -2.1635115 -1.9174849
-36.730774 -2.1629171 -0.64224857
-7.7667451 -0.44646972 -2.0845287
-36.738113 -2.1054413 0.64231837
-8.9612837 -0.51199722 -2.0722492
-36.769855 -2.0943842 1.9301503
-10.63734 -0.6058951 -2.0710409
-12.998896 -0.73585582 -2.0621192
-16.807007 -0.94554448 -2.0669043
-23.578741 -1.322387 -2.0661139
-36.547047 -2.0369036 -1.9183224
-7.7740431 -0.41966632 -2.0860815
-8.968854 -0.4810262 -2.0735989
-10.647232 -0.56917906 -2.0725675
-12.995469 -0.69016212 -2.0611808
-16.814169 -0.88707995 -2.0673916
-36.685577 -1.9161931 -1.9252307
-7.7831788 -0.39291671 -2.0881522
-8.9568539 -0.44903499 -2.0704496
-10.649154 -0.53200954 -2.0725675
-13.005692 -0.64518642 -2.0624323
-16.817163 -0.82838166 -2.0673916
-23.587397 -1.1577442 -2.0661139
-40.905254 -1.9934474 -2.1462977
-7.784503 -0.36574572 -2.0881522
-8.9564209 -0.41767386 -2.0699997
-10.647024 -0.49465132 -2.0718043
-13.021677 -0.60042065 -2.0646224
-16.815987 -0.76949584 -2.0669043
-23.607218 -1.0761269 -2.0675085
-40.911964 -1.8506482 -2.1462977
-7.7915215 -0.33882391 -2.089705
-8.9714527 -0.38699523 -2.073149
-10.642801 -0.45723268 -2.0706592
-13.009878 -0.55437392 -2.0624323
-16.818571 -0.71078795 -2.0669043
-23.602867 -0.99337989 -2.0668113
-40.778488 -1.7019963 -2.1389709
-7.7772145 -0.31100661 -2.0855639
-8.9765797 -0.35739738 -2.0740488
-10.65414 -0.42046639 -2.0725675
-13.015593 -0.51138306 -2.0630579
-26.796122 -1.0481431 3.2926662
-16.840672 -0.65578747 -2.0693417
-23.602209 -0.9108358 -2.0664625
-40.500507 -1.5558717 -2.1241074
-7.7859249 -0.28549761 -2.0876343
-8.9777727 -0.32606295 -2.0740488
-10.651553 -0.38499144 -2.0718043
-13.017298 -0.4659498 -2.0630579
-26.706377 -0.95127898 3.2812104
-16.850792 -0.59727532 -2.0703166
-23.581205 -0.8317194 -2.0643709
-40.449802 -1.4125363 -2.1211765
-7.788806 -0.25838175 -2.0881522
-8.963275 -0.294211 -2.0704496
-10.652832 -0.34780794 -2.0718043
-13.016871 -0.42044404 -2.0627451
-26.687708 -0.85734868 3.2785292
-16.848806 -0.53832823 -2.0698292
-23.599897 -0.74990618 -2.0657654
-40.075188 -1.25942 -2.1012888
-7.7935219 -0.23130657 -2.0891874
-8.9642477 -0.26292127 -2.0704496
-10.657906 -0.31073463 -2.0725675
-13.020234 -0.37506059 -2.0630579
-26.769911 -0.76645768 3.2882788
-16.850584 -0.47951114 -2.0698292
-23.618303 -0.66797251 -2.0671599
-39.278759 -1.0971605 -2.0593154
-7.7981439 -0.20420161 -2.0902226
-8.9729033 -0.23183185 -2.0722492
-10.651075 -0.27332792 -2.0710409
-13.015539 -0.32945886 -2.0621192
-16.852156 -0.42068824 -2.0698292
-23.604557 -0.58512956 -2.0657654
-39.785507 -0.97234112 -2.0856926
-7.7872214 -0.17671658 -2.0871167
-8.981451 -0.20068087 -2.0740488
-10.648039 -0.23605977 -2.0702777
-13.018585 -0.28406692 -2.0624323
-16.861458 -0.36203468 -2.0708041
-23.614424 -0.50289971 -2.0664625
-7.7858591 -0.14949758 -2.0865991
-8.9859638 -0.17097215 -2.0749483
-10.65665 -0.19903862 -2.0718043
-13.019456 -0.24089365 -2.0624323
-16.866535 -0.30618945 -2.0712914
-23.624002 -0.42060813 -2.0671599
-7.7921076 -0.12376968 -2.0881522
-8.9748154 -0.13942024 -2.0722492
-10.669029 -0.16387932 -2.0740941
-13.018241 -0.19541578 -2.0621192
-16.855593 -0.24713732 -2.0698292
-23.625267 -0.34226489 -2.0671599
-7.8156719 -0.096856423 -2.0943637
-8.9830217 -0.1097528 -2.0740488
-10.673462 -0.12668276 -2.0748572
-13.016843 -0.15222107 -2.0618064
-16.860289 -0.19128519 -2.0703166
-23.634289 -0.25988784 -2.0678573
-7.8024273 -0.070815153 -2.0907402
-8.9872475 -0.078431435 -2.0749483
-10.662045 -0.091186434 -2.0725675
-13.033099 -0.10691526 -2.0643096
-16.848946 -0.13233259 -2.0688543
-23.623098 -0.17729682 -2.0668113
-7.7871804 -0.042133603 -2.0865991
-8.9991589 -0.047120579 -2.0776479
-10.662308 -0.052107286 -2.0725675
-13.037353 -0.059163548 -2.0649352
-16.869154 -0.073604144 -2.0712914
-23.611618 -0.094787098 -2.0657654
-7.7853479 -0.014947088 -2.0860815
-8.9934244 -0.0141295 -2.0762982
-10.66635 -0.014893756 -2.0733306
-13.021678 -0.013634313 -2.0624323
-16.865341 -0.011776067 -2.0708041
-23.615791 -0.0082465354 -2.0661139
-7.7950101 0.013602875 -2.0886698
-8.9934196 0.017265892 -2.0762982
-10.685966 0.024242654 -2.0771468
-13.025591 0.034100078 -2.0630579
-16.86528 0.04709148 -2.0708041
-23.619661 0.074201189 -2.0664625
-7.8045874 0.038140956 -2.0912578
-8.9874668 0.047058783 -2.0749483
-10.681911 0.057795264 -2.0763836
-13.037271 0.075089835 -2.0649352
-16.880911 0.10312018 -2.0727541
-23.611343 0.14835514 -2.0657654
-7.8082705 0.065414548 -2.0922933
-9.0028372 0.078566916 -2.0785477
-10.675754 0.095027059 -2.0752387
-13.040879 0.12063485 -2.0655608
-16.864569 0.16189297 -2.0708041
-23.650526 0.23116331 -2.0692515
-7.7886772 0.092441045 -2.0871167
-9.0005598 0.10996865 -2.0780978
-10.681248 0.13236511 -2.0763836
-13.04433 0.16620599 -2.0661867
-16.85993 0.22070879 -2.0703166
-23.609732 0.31318977 -2.0657654
-39.691845 0.54038024 -2.0803545
-7.792171 0.11968761 -2.0881522
-9.0020943 0.13984559 -2.0785477
-10.692498 0.16983618 -2.0786731
-13.023955 0.20914495 -2.0630579
-16.867044 0.27674803 -2.0712914
-23.616463 0.39572975 -2.0664625
-7.7955942 0.14559916 -2.0891874
-8.9898605 0.17104359 -2.0758483
-10.69184 0.20716177 -2.0786731
-13.021172 0.25456443 -2.0627451
-16.873915 0.33578178 -2.0722666
-23.614937 0.47816482 -2.0664625
-7.8065963 0.17442952 -2.0922933
-8.9930696 0.20408265 -2.0767481
-10.694935 0.24643604 -2.0794365
-13.045824 0.30288708 -2.0668125
-16.856693 0.39724764 -2.0703166
-23.628962 0.5650962 -2.0678573
-7.8078356 0.20308946 -2.0928109
-8.9922619 0.23704053 -2.0767481
-10.688121 0.28361085 -2.0782917
-13.05055 0.35085675 -2.0677509
-16.847269 0.45587578 -2.0693417
-23.634811 0.64779222 -2.0685544
-7.7897406 0.2284725 -2.0881522
-9.0128527 0.26749492 -2.0816972
-10.702822 0.31952152 -2.0813446
-13.043391 0.39395359 -2.0668125
-16.857569 0.51209909 -2.0708041
-23.632532 0.72616541 -2.0685544
-7.7908707 0.25436628 -2.0886698
-9.0099688 0.29731724 -2.0812473
-10.693854 0.35475162 -2.0798182
-13.042013 0.43720537 -2.0668125
-16.87155 0.57147795 -2.0727541
-23.645924 0.80507302 -2.0699489
-7.7937961 0.28169787 -2.089705
-8.9932947 0.32819775 -2.0776479
-10.708246 0.39265126 -2.082871
-13.032511 0.48243588 -2.0655608
-16.873421 0.63051593 -2.0732415
-23.666862 0.88850546 -2.0720406
-7.8024173 0.30928436 -2.0922933
-8.992095 0.3595863 -2.0776479
-10.702887 0.4298729 -2.0821078
-13.040616 0.52832198 -2.0671253
-16.863182 0.68908757 -2.0722666
-23.679541 0.97176129 -2.0734351
-7.80129 0.33652008 -2.0922933
-8.998641 0.38974085 -2.0794475
-10.697399 0.46705934 -2.0813446
-13.032872 0.57130432 -2.0661867
-16.852871 0.74465418 -2.0712914
-23.660084 1.0537096 -2.0720406
-7.7943416 0.36211771 -2.0907402
-8.9933329 0.42096764 -2.0785477
-10.684025 0.50197822 -2.0790551
-13.040665 0.61726141 -2.0677509
-26.853817 1.2757909 3.3009531
-16.858103 0.80385184 -2.0722666
-23.660439 1.1323493 -2.0723894
-39.649475 1.9114293 -2.0803545
-7.7872419 0.38903391 -2.0891874
-9.0015402 0.45284742 -2.0807972
-10.697893 0.54005897 -2.0821078
-13.032513 0.66247755 -2.0668125
-26.702494 1.3620317 3.2829168
-16.843298 0.86208433 -2.0708041
-23.652363 1.2147347 -2.0720406
-39.642559 2.0498214 -2.0803545
-7.7935524 0.41662675 -2.0912578
-8.9940662 0.48395208 -2.0794475
-10.688101 0.57697529 -2.0805814
-13.032093 0.70807302 -2.0671253
-26.628204 1.4514518 3.2743859
-16.83622 0.92065686 -2.0703166
-23.659685 1.3020682 -2.0730865
-7.7900448 0.44507685 -2.0907402
-8.9903765 0.51523304 -2.0789976
-10.689835 0.61637151 -2.0813446
-13.027438 0.75571913 -2.0668125
-26.656662 1.5463477 3.2785292
-16.828941 0.97919053 -2.0698292
-23.643064 1.3839502 -2.0720406
-7.7903714 0.47238547 -2.0912578
-8.9942636 0.54853481 -2.0803473
-10.687618 0.65368253 -2.0813446
-13.024721 0.80118603 -2.0668125
-26.789511 1.6525952 3.2955911
-16.825239 1.0408654 -2.0698292
-23.634111 1.466231 -2.071692
-7.7771087 0.4988344 -2.0881522
-8.9922943 0.57992977 -2.0803473
-10.685271 0.69098562 -2.0813446
-13.027759 0.84703386 -2.0677509
-16.805656 1.0985506 -2.0678792
-23.632826 1.5489762 -2.0720406
-7.7733922 0.52584648 -2.0876343
-8.9941034 0.61157984 -2.0812473
-10.678876 0.72801059 -2.0805814
-13.010926 0.89155912 -2.0655608
-16.809641 1.1577567 -2.0688543
-23.611372 1.6303633 -2.070646
-7.7772903 0.55338907 -2.0891874
-8.9861937 0.64098632 -2.0798974
-10.695853 0.76668638 -2.0843976
-12.996077 0.93385094 -2.0636837
-16.80571 1.2134898 -2.0688543
-23.637333 1.7150801 -2.0734351
-7.7792654 0.57946372 -2.0902226
-84.75515 6.3281345 1.4835244
-8.9800158 0.67205739 -2.0789976
-10.677589 0.8009764 -2.0813446
-13.000618 0.97980124 -2.0649352
-16.793453 1.2715502 -2.0678792
-23.603703 1.7913449 -2.0709946
-7.7848992 0.607216 -2.0922933
-8.9913378 0.702896 -2.0821469
-10.682557 0.83885837 -2.082871
-13.001235 1.0232178 -2.0655608
-16.804976 1.3284806 -2.0698292
-23.581417 1.8724597 -2.0696001
-7.7693648 0.63193238 -2.0886698
-8.986886 0.73411888 -2.0816972
-10.687544 0.87491953 -2.0843976
-13.00546 1.0692422 -2.0668125
-16.800238 1.3871372 -2.0698292
-23.571106 1.9503205 -2.0692515
-7.7728863 0.65953702 -2.0902226
-8.982461 0.76375175 -2.0812473
-10.684425 0.91221851 -2.0843976
-12.997906 1.1120276 -2.0661867
-16.7995 1.4431735 -2.0703166
-23.540335 2.0305333 -2.0671599
-7.7705359 0.68666744 -2.0902226
-8.971837 0.79597813 -2.0794475
-10.681175 0.94951135 -2.0843976
-12.997679 1.1600083 -2.0668125
-16.802006 1.50545 -2.0712914
-23.552578 2.1185846 -2.068903
-7.7737389 0.71567291 -2.0917757
-8.9690037 0.82729101 -2.0794475
-10.685443 0.989375 -2.0859239
-12.989405 1.2072771 -2.0661867
-16.780838 1.562619 -2.0693417
-23.549006 2.2011571 -2.0692515
-7.7731166 0.74298799 -2.0922933
-8.9659109 0.86016083 -2.0794475
-10.674108 1.0259173 -2.0843976
-12.989044 1.252991 -2.0668125
-16.778948 1.6244962 -2.0698292
-23.521349 2.2814221 -2.0675085
-7.7608633 0.76916426 -2.089705
-8.9785223 0.89142871 -2.0830467
-10.678275 1.063952 -2.0859239
-12.98875 1.2964503 -2.0674381
-16.78137 1.6809202 -2.0708041
-23.513243 2.3635082 -2.0675085
-7.7621131 0.79529005 -2.0907402
-8.9831114 0.92355949 -2.0848465
-10.678595 1.0997567 -2.0866873
-12.976284 1.3409665 -2.0661867
-16.77145 1.7390788 -2.0703166
-23.451769 2.4359112 -2.0628021
-7.7650533 0.82299298 -2.0922933
-8.9662676 0.95346856 -2.0816972
-10.686403 1.1382757 -2.0889771
-12.97349 1.3864642 -2.0664995
-16.761332 1.7971847 -2.0698292
-23.409447 2.514142 -2.0598388
-7.7678943 0.85072237 -2.0938461
-8.9648218 0.98497403 -2.0821469
-10.686268 1.1759986 -2.0897403
-12.976423 1.4326123 -2.0677509
-16.75528 1.852758 -2.0698292
-23.444092 2.6006799 -2.0636737
-7.7650304 0.87647724 -2.0938461
-8.9653788 1.0151358 -2.0830467
-10.666704 1.2096597 -2.0866873
-12.981416 1.4767495 -2.0693154
-16.737209 1.9069628 -2.0683665
-23.443258 2.6793094 -2.0643709
-7.7640004 0.90244371 -2.0943637
-8.9716415 1.0459892 -2.0852964
-10.670433 1.2459337 -2.0882137
-12.980371 1.5202495 -2.069941
-16.746222 1.9672282 -2.0703166
-23.442158 2.7579672 -2.065068
-7.7435393 0.92747402 -2.089705
-8.9718056 1.0777627 -2.0861959
-10.681613 1.2850517 -2.0912669
-12.951451 1.5627078 -2.0661867
-16.747135 2.0266259 -2.0712914
-23.420523 2.8383358 -2.0640223
-7.7479243 0.95544434 -2.0917757
-8.9621868 1.1083584 -2.0848465
-10.675114 1.3220886 -2.0908849
-12.949839 1.6083977 -2.0668125
-16.7439 2.0855591 -2.071779
-23.418379 2.9210639 -2.0647194
-7.7541246 0.98369777 -2.0943637
-8.9582634 1.1396358 -2.0848465
-10.676277 1.3600858 -2.09203
-12.951982 1.6545929 -2.0680637
-16.732578 2.1434934 -2.0712914
-23.408039 3.0027924 -2.0647194
-7.7448969 1.0100096 -2.0928109
-8.9600277 1.1716551 -2.0861959
-10.651997 1.3947958 -2.0882137
-12.953963 1.7008197 -2.0693154
-16.717121 2.2008522 -2.0703166
-23.413219 3.0865614 -2.0661139
-7.735579 1.0362687 -2.0912578
-8.9638186 1.2023978 -2.0879958
-10.650955 1.4324936 -2.0889771
-12.94042 1.7427129 -2.0680637
-16.705799 2.2557454 -2.0698292
-23.386507 3.1661325 -2.0647194
-7.7397566 1.0629669 -2.0933285
-8.9576368 1.2334146 -2.0875459
-10.65976 1.4696831 -2.0916483
-12.930346 1.7873323 -2.0674381
-16.701756 2.3145869 -2.0703166
-23.38772 3.2453115 -2.0657654
-7.7398243 1.0905147 -2.0943637
-8.9474869 1.2638576 -2.0861959
-10.666228 1.5085332 -2.0939381
-16.693573 2.3728733 -2.0703166
-23.36047 3.3246846 -2.0643709
-7.7436185 1.118632 -2.0964344
-8.9430218 1.2950805 -2.0861959
-10.653127 1.5446297 -2.0924115
-12.905823 1.8758515 -2.0655608
-16.665546 2.4282689 -2.0678792
-23.368437 3.4090846 -2.0661139
-7.7339339 1.1448071 -2.0948815
-8.9442291 1.3271502 -2.0875459
-10.637959 1.5803645 -2.0905035
-12.918735 1.9238031 -2.0686896
-16.676601 2.4893548 -2.0703166
-23.326836 3.486218 -2.0634992
-7.7203403 1.1703472 -2.0922933
-8.9376154 1.3580707 -2.087096
-10.642084 1.6189623 -2.0924115
-12.906082 1.9679931 -2.0677509
-16.66781 2.5475562 -2.0703166
-23.334219 3.570637 -2.0652425
-7.7352977 1.2002513 -2.0974696
-8.9443741 1.3910556 -2.0897954
-10.632488 1.6554966 -2.0916483
-12.912796 2.015161 -2.069941
-16.674507 2.6081769 -2.0722666
-23.360983 3.6582272 -2.0687287
-7.7234302 1.2260339 -2.0953991
-8.9279165 1.4204319 -2.087096
-10.642154 1.695074 -2.0947013
-12.899831 2.059289 -2.0690024
-16.669222 2.6669898 -2.0727541
-23.389383 3.7463675 -2.0723894
-7.7305441 1.2548437 -2.098505
-8.9250813 1.4503431 -2.0875459
-12.90658 2.1042807 -2.0711925
-16.621103 2.7158546 -2.0678792
-23.431217 3.8370109 -2.07727
-7.7320585 1.2814183 -2.1000578
-8.9199638 1.4814888 -2.0875459
-10.597445 1.7619971 -2.0882137
-12.89331 2.1483464 -2.0702538
-16.611523 2.7738531 -2.0678792
-23.481249 3.9251976 -2.0828478
-7.7046809 1.3045324 -2.0938461
-8.9303732 1.5136659 -2.091145
-10.598973 1.8002937 -2.0897403
-12.88222 2.190429 -2.0696282
-16.621799 2.8322582 -2.0703166
-23.500792 4.012846 -2.0858111
-7.7115016 1.3333939 -2.096952
-8.9247656 1.5463873 -2.091145
-10.582953 1.8356028 -2.0878322
-12.862428 2.2356005 -2.0677509
-16.607399 2.8924766 -2.0698292
-23.537672 4.1037469 -2.0903432
-7.7029958 1.3596308 -2.0959167
-8.9077988 1.575495 -2.0884457
-12.860381 2.2815206 -2.0686896
-16.5972 2.9504342 -2.0698292
-23.578129 4.1956582 -2.0952239
-7.7058072 1.3878808 -2.0979872
-8.9022446 1.6065774 -2.0884457
-10.612384 1.9171166 -2.0962276
-12.860113 2.3278055 -2.069941
-16.582893 3.0076432 -2.0693417
-23.629992 4.2900367 -2.1011508
-7.6990161 1.4144218 -2.0974696
-8.9099979 1.6401122 -2.0915949
-10.58825 1.9509501 -2.0927932
-12.85968 2.3741133 -2.0711925
-16.580099 3.0669544 -2.0703166
-23.634462 4.3761168 -2.1028936
-82.311333 15.300084 -1.4613597
-7.6902337 1.4405785 -2.0964344
-8.9118805 1.6726421 -2.0933945
-10.587164 1.988986 -2.0939381
-12.855197 2.4197185 -2.0718184
-16.553688 3.1218643 -2.0683665
-23.685608 4.4711618 -2.1088202
-7.6908512 1.4684989 -2.0979872
-10.576301 2.0251894 -2.0931747
-16.558285 3.1826265 -2.0703166
-23.70899 4.5613418 -2.1123066
-7.685678 1.4953362 -2.0979872
-8.8846846 1.7318354 -2.0897954
-10.582656 2.0647271 -2.0958462
-12.841868 2.5101638 -2.0724442
-16.539284 3.2388854 -2.0693417
-23.692924 4.6440692 -2.1123066
-7.6955729 1.5251582 -2.1021285
-8.880496 1.7632178 -2.0902452
-10.577309 2.1020377 -2.0962276
-12.823341 2.5530469 -2.0708797
-16.523983 3.2958181 -2.0688543
-23.696106 4.7306457 -2.1140497
-7.6788397 1.5497185 -2.0990226
-8.8742876 1.794206 -2.0902452
-10.558361 2.1366107 -2.0939381
-12.814352 2.5977936 -2.0708797
-16.500706 3.3511074 -2.0673916
-23.714592 4.8204761 -2.1171873
-7.6714907 1.5761266 -2.098505
-10.54507 2.1722651 -2.0927932
-12.801336 2.6417067 -2.0702538
-16.488907 3.4086854 -2.0673916
-23.713228 4.906456 -2.1185818
-7.6659422 1.6028956 -2.098505
-8.8653603 1.8569156 -2.091145
-10.552795 2.2122841 -2.0958462
-12.786238 2.6851611 -2.0693154
-16.461369 3.4629493 -2.0654416
-23.750546 5.0006952 -2.1234624
-7.6659694 1.6308494 -2.1000578
-8.8629656 1.8871136 -2.0920448
-10.54501 2.2491045 -2.0958462
-12.783057 2.7287848 -2.0702538
-16.488617 3.5258205 -2.0703166
-23.7836 5.0944204 -2.1279945
-8.8601341 1.9188672 -2.0929446
-10.545168 2.2857246 -2.0973725
-12.775385 2.773809 -2.0705669
-16.460691 3.5799804 -2.0683665
-23.809406 5.1825852 -2.1318295
-7.6509175 1.6821625 -2.0990226
-8.8571882 1.9506195 -2.0938444
-10.525621 2.3199849 -2.0950828
-12.767554 2.8188095 -2.0708797
-16.44422 3.6365645 -2.0678792
-23.909834 5.2919226 -2.1424625
-7.6600819 1.7122306 -2.1031637
-8.8503246 1.9815251 -2.0938444
-10.513628 2.3558538 -2.0943196
-12.77113 2.8663881 -2.0730698
-16.462414 3.7009063 -2.071779
-7.640871 1.7359631 -2.0995402
-8.8509541 2.0141363 -2.095644
-10.520654 2.3960268 -2.0973725
-12.745638 2.9074359 -2.0705669
-16.453264 3.7592332 -2.0722666
-7.6385293 1.7634934 -2.1005754
-8.8248844 2.0406275 -2.091145
-10.508401 2.4318514 -2.0966094
-12.735412 2.9519091 -2.0705669
-16.459379 3.8211324 -2.0747037
-23.938498 5.5618591 -2.1501322
-8.8196039 2.0718677 -2.0915949
-10.511315 2.4712141 -2.0988991
-12.734643 2.99861 -2.0721312
-16.461397 3.8822048 -2.0766537
-23.969357 5.65728 -2.1546643
-7.6241531 1.8163279 -2.1000578
-8.8199005 2.1044505 -2.0933945
-10.498806 2.5069759 -2.0981357
-12.750996 3.0494769 -2.0765114
-16.46319 3.943346 -2.0786037
-23.992085 5.7511325 -2.158499
-72.476952 17.426929 -1.3011466
-7.6252775 1.8447475 -2.1021285
-8.820076 2.1370585 -2.0951941
-10.489991 2.5436084 -2.0981357
-16.472469 4.0064192 -2.0815284
-24.018328 5.8461494 -2.1626825
-7.6112866 1.8695121 -2.1000578
-8.8182402 2.1692302 -2.0965438
-10.484861 2.5811515 -2.0988991
-12.700627 3.1313252 -2.0718184
-16.48222 4.0667286 -2.0844533
-24.044195 5.9414253 -2.1668661
-44.085743 10.910118 -2.3801348
-7.6069202 1.8952072 -2.1005754
-8.7977629 2.1951587 -2.0933945
-10.476244 2.6159043 -2.0988991
-12.657596 3.1652787 -2.0664995
-16.499456 4.1290751 -2.0883534
-24.043688 6.02597 -2.1686091
-43.847855 11.005686 -2.3692489
-7.6099582 1.9227889 -2.1031637
-8.7885456 2.2238433 -2.0929446
-10.477027 2.6530402 -2.1008072
-12.696814 3.2198608 -2.0746341
-16.497217 4.1866927 -2.0898156
-24.073778 6.1184297 -2.1731412
-43.679501 11.117534 -2.3621314
-7.6016688 1.9475347 -2.1026461
-8.7943354 2.2563651 -2.0960939
-10.454861 2.6843514 -2.0981357
-12.682239 3.2609637 -2.0740085
-16.498625 4.2453351 -2.0917656
-24.053354 6.1982288 -2.1731412
-43.479946 11.220399 -2.353339
-7.5795226 1.9714928 -2.098505
-8.7935495 2.2905457 -2.0978935
-10.448752 2.7236431 -2.0988991
-12.670202 3.3074217 -2.0740085
-16.522532 4.3191967 -2.0968843
-24.069025 6.2964315 -2.1766274
-43.31488 11.347281 -2.3466399
-7.5744624 1.9984313 -2.0990226
-8.7760801 2.3187404 -2.095644
-10.446772 2.7621067 -2.1004255
-12.668127 3.3541605 -2.0755727
-16.509274 4.3773537 -2.0971277
-24.104673 6.3957396 -2.1818569
-43.132164 11.460458 -2.3388941
-7.5823708 2.028852 -2.1031637
-8.7585211 2.346839 -2.0933945
-10.436578 2.8003752 -2.1004255
-12.627726 3.3906763 -2.0708797
-16.486225 4.4328938 -2.0961528
-24.134939 6.4985504 -2.1867375
-42.993454 11.592472 -2.3336606
-7.5692902 2.0551128 -2.1016109
-8.764905 2.383013 -2.0969937
-10.441399 2.842737 -2.1034784
-12.628555 3.4405687 -2.0730698
-16.462206 4.4911995 -2.0951779
-24.130177 6.5922165 -2.1884806
-42.900585 11.73627 -2.3309391
-7.5635695 2.083353 -2.1021285
-8.7504749 2.4135697 -2.095644
-10.416272 2.8749859 -2.1004255
-12.621571 3.4884131 -2.0740085
-16.506857 4.56845 -2.1029775
-24.179981 6.6966138 -2.1951044
-42.990231 11.922245 -2.3380568
-7.5488086 2.1076643 -2.1000578
-8.753685 2.4457207 -2.0983434
-10.406174 2.9113286 -2.1004255
-12.667001 3.5462258 -2.0833945
-16.50691 4.6274476 -2.1049275
-24.167971 6.7842026 -2.1961505
-43.373482 12.183569 -2.3610845
-7.5250478 2.1279545 -2.0953991
-8.7488451 2.4773221 -2.0992434
-10.392684 2.9447505 -2.0996623
-12.62794 3.5828688 -2.0790143
-16.521206 4.6937237 -2.1088274
-24.210501 6.8828344 -2.2020769
-43.411369 12.357864 -2.3654807
-7.5547156 2.1648526 -2.105752
-8.7293425 2.5030982 -2.0965438
-10.399324 2.9858866 -2.1030967
-12.638772 3.6312711 -2.0827687
-16.520813 4.7528753 -2.1107774
-24.247593 6.9849524 -2.207655
-43.358631 12.498437 -2.3648527
-7.5345078 2.1861248 -2.1021285
-8.7242937 2.5346413 -2.0974436
-10.379939 3.0176151 -2.1011887
-12.63171 3.6770232 -2.0837073
-16.526991 4.8171773 -2.1137023
-24.291914 7.0896449 -2.2139301
-43.180546 12.61051 -2.3575256
-7.5301509 2.2148159 -2.1031637
-8.7172623 2.5656297 -2.0978935
-10.357512 3.0523102 -2.0988991
-12.608674 3.7205012 -2.0821428
-16.525307 4.8793354 -2.1156518
-24.312876 7.1879544 -2.2181137
-43.153183 12.774359 -2.3585725
-7.5112653 2.2377782 -2.1000578
-8.7190056 2.6009054 -2.1005929
-10.350555 3.0895691 -2.0996623
-12.586147 3.7616627 -2.0805786
-16.538603 4.9460907 -2.1195517
-24.329626 7.2853532 -2.2219484
-43.115978 12.927208 -2.3589911
-7.5093522 2.264348 -2.1016109
-8.7047358 2.6281149 -2.0992434
-10.340253 3.1238761 -2.0996623
-12.594402 3.8096712 -2.0840201
-16.529711 5.0032082 -2.1205268
-24.332027 7.3740835 -2.2243888
-43.103462 13.079387 -2.3606658
-7.498106 2.2881095 -2.1005754
-8.6978369 2.6575341 -2.0996931
-10.334919 3.1616721 -2.1008072
-12.610033 3.8600852 -2.0887132
-16.563389 5.0765791 -2.1271076
-24.370899 7.4788475 -2.2303154
-43.057537 13.229777 -2.3606658
-7.5007439 2.3189983 -2.1036813
-8.6824532 2.6876669 -2.0983434
-10.321384 3.1989517 -2.1004255
-12.612781 3.9115436 -2.0915291
-16.506756 5.1254849 -2.1222329
-24.366154 7.5752134 -2.2324071
-42.795177 13.32101 -2.3489428
-7.4921937 2.3464744 -2.1036813
-8.6855593 2.7235529 -2.1014926
-10.298917 3.2314322 -2.0981357
-12.643589 3.9719577 -2.0990379
-16.503008 5.1907115 -2.1241827
-24.385176 7.674583 -2.2365906
-42.348381 13.344258 -2.3269615
-7.4692254 2.3679426 -2.0995402
-8.6759996 2.753855 -2.1014926
-10.302543 3.2721167 -2.1011887
-16.550993 5.2693639 -2.1327136
-24.377222 7.7657046 -2.2383337
-41.879116 13.35728 -2.3037243
-7.4664326 2.3957715 -2.1010931
-8.6737556 2.7865076 -2.1032922
-10.306012 3.3128662 -2.1042418
-12.60239 4.0558906 -2.0968478
-16.559881 5.3327398 -2.136126
-24.372723 7.8580813 -2.2404256
-41.573742 13.419945 -2.289489
-7.4584465 2.4205182 -2.1010931
-8.653348 2.8116429 -2.1005929
-10.29497 3.3470244 -2.1042418
-12.549424 4.0848203 -2.0902774
-16.557207 5.3925438 -2.1380758
-24.380625 7.9499798 -2.2435629
-41.491039 13.54534 -2.2873955
-7.4632273 2.449455 -2.1047165
-8.6421251 2.8397152 -2.100143
-10.276353 3.3786929 -2.1027153
-12.592099 4.1449428 -2.0996637
-16.549597 5.454031 -2.1395385
-24.375429 8.0425272 -2.2456548
-41.468655 13.69035 -2.2886517
-7.4615335 2.479228 -2.1067872
-8.6340094 2.8704791 -2.1005929
-10.260176 3.4150927 -2.1019521
-12.586195 4.1941872 -2.101228
-16.55682 5.5205612 -2.1429508
-24.362328 8.1326122 -2.2470493
-41.539425 13.882774 -2.2953506
-7.4345222 2.499105 -2.1016109
-8.6289721 2.9039683 -2.1019428
-10.246331 3.4502628 -2.1015704
-12.593939 4.2456684 -2.1049824
-16.574089 5.5939045 -2.1478255
-24.348892 8.2226973 -2.2484438
-41.138798 13.90871 -2.2758818
-7.4275827 2.5256615 -2.1021285
-8.6229839 2.9338226 -2.1028426
-10.2398 3.487905 -2.1027153
-16.566721 5.6526823 -2.1492879
-24.346437 8.3166647 -2.2508843
-41.111343 14.051515 -2.2769282
-7.4264736 2.5527904 -2.1041989
-8.6034765 2.9607341 -2.1005929
-10.239315 3.5256801 -2.105005
-12.538604 4.3222814 -2.1006021
-16.569408 5.7182441 -2.1522129
-24.341322 8.405159 -2.2529759
-41.012966 14.177959 -2.2742069
-7.4175167 2.5786982 -2.1041989
-8.5954514 2.9898882 -2.1010427
-10.23807 3.5652726 -2.1072946
-12.533528 4.3670878 -2.1021667
-16.550356 5.7731595 -2.1522129
-24.364504 8.5084677 -2.2578566
-40.97327 14.316523 -2.2746255
-7.4080162 2.605866 -2.1041989
-8.5875854 3.0241654 -2.1019428
-10.221232 3.6014657 -2.1065314
-16.572989 5.8525295 -2.1580625
-24.329399 8.5963783 -2.257508
-40.899166 14.467082 -2.2735789
-7.3897748 2.628474 -2.1016109
-8.5830164 3.0545864 -2.1032922
-10.212296 3.638443 -2.1072946
-12.555916 4.4758987 -2.1112397
-16.575924 5.9154625 -2.1609874
-24.336769 8.6946583 -2.2609942
-40.866009 14.608008 -2.2744162
-43.085354 15.418313 -0.79876173
-7.3973799 2.6588445 -2.1062696
-8.5723019 3.0845282 -2.1032922
-42.664963 15.360331 2.3764713
-10.211258 3.6762788 -2.1095843
-12.540215 4.5197005 -2.1112397
-16.562645 5.9759836 -2.1619625
-24.341534 8.7874918 -2.2641318
-40.822285 14.753286 -2.2748349
-43.008713 15.560441 -0.79834288
-7.3898683 2.6853116 -2.1067872
-42.800037 15.561025 0.79492217
-8.545001 3.1084352 -2.0992434
-42.727448 15.551519 2.382961
-10.203897 3.7139146 -2.1107292
-42.72353 15.558539 3.9779623
-12.542925 4.5702066 -2.1143684
-42.654892 15.550408 5.5745478
-16.560329 6.0405631 -2.1643996
-24.325684 8.8778715 -2.2655263
-40.763031 14.892952 -2.2744162
-42.770084 15.643161 -0.79492217
-7.3731956 2.708426 -2.1047165
-42.70792 15.696525 0.79422414
-8.5322695 3.1375735 -2.0987935
-42.671894 15.691747 2.3827517
-10.200083 3.7529001 -2.1126373
-42.680183 15.711699 3.9790082
-12.545429 4.6207919 -2.1174972
-42.611526 15.703326 5.5760102
-16.572672 6.1106915 -2.168787
-24.324455 8.9737644 -2.2683153
-40.707054 15.033758 -2.2742069
-42.901798 15.852834 -0.79834288
-7.3727527 2.7375076 -2.1073048
-8.534606 3.1705995 -2.1019428
-10.190601 3.7898488 -2.1134005
-12.557809 4.6726999 -2.1221902
-16.563478 6.1697726 -2.1702495
-24.296715 9.0600119 -2.2686639
-40.664463 15.17146 -2.2746255
-7.3545899 2.7585495 -2.1047165
-8.5289574 3.2024281 -2.1032922
-10.181654 3.8250027 -2.1141639
-16.560419 6.2345471 -2.1726868
-24.27986 9.1503839 -2.2700584
-40.570141 15.297811 -2.2723229
-7.3335929 2.7813768 -2.1016109
-8.5122623 3.2301049 -2.1019428
-10.178577 3.8664801 -2.1164536
-16.568239 6.3036146 -2.1765866
-24.359484 9.2776279 -2.2805171
-40.517532 15.447827 -2.272532
-7.3310547 2.8097246 -2.1036813
-8.5021858 3.2619801 -2.1023927
-10.168685 3.9033914 -2.1172168
-12.490754 4.7997532 -2.1193743
-16.567259 6.3728466 -2.1795115
-24.297197 9.3511591 -2.2777281
-40.474545 15.593477 -2.2731602
-7.3212018 2.8352978 -2.1036813
-8.4858694 3.2880442 -2.1010427
-10.169641 3.9445429 -2.1202698
-16.553434 6.4306264 -2.1804864
-24.420393 9.4965677 -2.2923703
-40.430058 15.730508 -2.2735789
-7.3171568 2.8616712 -2.1052344
-8.4707127 3.3162231 -2.100143
-10.149192 3.9753811 -2.1187432
-12.512968 4.9062939 -2.1287606
-16.556755 6.4985232 -2.1838987
-24.644688 9.6779995 -2.3164253
-40.419514 15.889077 -2.2760909
-7.3035297 2.8857758 -2.1041989
-8.4759789 3.3507428 -2.104192
-10.138905 4.0122294 -2.1195064
-12.514995 4.9550338 -2.1318891
-16.55357 6.5607066 -2.1863363
-24.581125 9.7522106 -2.3136363
-40.351746 16.017132 -2.2752535
-7.288537 2.9078321 -2.1026461
-8.4660416 3.3810322 -2.1046422
-10.147422 4.0545716 -2.1240859
-12.530635 5.0118971 -2.1375208
-16.560055 6.6302514 -2.1902359
-24.393291 9.7714386 -2.2989943
-40.306721 16.16234 -2.2758818
-7.2819262 2.9346988 -2.1036813
-8.4433441 3.4061918 -2.1019428
-10.140489 4.0929046 -2.1256123
-16.566256 6.6999254 -2.1941359
-24.163258 9.7773104 -2.2805171
-40.283371 16.316444 -2.2777658
-7.284163 2.9651985 -2.1073048
-8.4386215 3.4385831 -2.1037421
-10.122503 4.1267943 -2.1248491
-12.493513 5.0985055 -2.137208
-16.535414 6.7547131 -2.1931608
-23.948244 9.7877226 -2.2634346
-40.30011 16.487211 -2.2819526
-7.2648339 2.9869339 -2.1047165
-8.4355774 3.4717271 -2.1059918
-10.104407 4.1606092 -2.1240859
-12.453723 5.1330523 -2.1334534
-16.552107 6.8290439 -2.198523
-23.703981 9.7845945 -2.2435629
-40.282925 16.644566 -2.2842555
-7.2525792 3.011534 -2.1041989
-8.4270058 3.5026476 -2.1068916
-10.098885 4.1996241 -2.125994
-12.475851 5.1931939 -2.1403368
-16.557486 6.8989964 -2.2024229
-23.483944 9.7898483 -2.2259576
-40.250389 16.795837 -2.2857208
-24.057705 10.04876 -0.45508897
-7.2348971 3.033844 -2.1021285
-8.4255104 3.5365655 -2.109591
-10.096834 4.2401714 -2.1286652
-12.463108 5.2390108 -2.1412752
-16.566238 6.9706092 -2.2068105
-23.265995 9.794466 -2.2085266
-40.184151 16.933132 -2.2853019
-7.229599 3.0613399 -2.1036813
-8.4131126 3.5659568 -2.109591
-10.098239 4.2822886 -2.1320999
-12.459293 5.2886558 -2.1437781
-16.571041 7.0408111 -2.21071
-23.099648 9.8194933 -2.195976
-40.198307 17.104591 -2.289489
-7.2206459 3.0873153 -2.1041989
-8.4006138 3.5953023 -2.109591
-10.085036 4.3182826 -2.1324816
-12.466174 5.343009 -2.1481583
-16.542711 7.0970511 -2.2102227
-22.926085 9.8403435 -2.1827283
-40.186069 17.265295 -2.2922103
-7.227562 3.1201584 -2.1093752
-8.4005365 3.6300135 -2.1127403
-10.06089 4.3495646 -2.1305733
-12.461953 5.3927655 -2.1506615
-0.92359698 0.39986724 0.12357552
-16.546982 7.167377 -2.2141225
-22.81847 9.8886223 -2.175756
-24.045284 10.430245 -1.3736097
-23.955395 10.39622 -0.45582196
-7.1882901 3.1330202 -2.1010931
-8.3955975 3.6609669 -2.1145399
-10.05644 4.3893719 -2.132863
-12.451241 5.4372263 -2.1519127
-0.81676018 0.35683355 0.10943868
-16.54495 7.231751 -2.2170475
-22.75461 9.95543 -2.172967
-40.210335 17.600903 -2.3003747
-23.975739 10.504648 -0.45690399
-7.1884718 3.1615052 -2.1041989
-8.3934689 3.694962 -2.1172395
-10.058002 4.4298158 -2.1362975
-12.432186 5.4806538 -2.1519127
-0.81550944 0.35968259 0.10943868
-16.537767 7.2974739 -2.2194848
-22.595707 9.9753122 -2.1609395
-40.18153 17.755688 -2.302259
-7.1738615 3.1850109 -2.1031637
-8.3740444 3.7196112 -2.1154397
-10.049651 4.468091 -2.1378241
-12.431993 5.5298786 -2.1550415
-0.78892171 0.35108548 0.10602634
-16.524357 7.3571196 -2.220947
-22.420622 9.9916782 -2.1475174
-40.126076 17.890463 -2.3024683
-23.938374 10.683093 -0.45756719
-7.171515 3.2139835 -2.105752
-8.3639126 3.7518721 -2.1163394
-10.048324 4.509572 -2.140877
-12.429658 5.5835047 -2.1581702
-0.7876296 0.35397467 0.10602634
-16.519009 7.4273996 -2.2238719
-22.274767 10.020026 -2.1368845
-40.114872 18.062004 -2.3056083
-23.942814 10.790474 -0.4584049
-7.1708131 3.2437749 -2.1088579
-8.3649673 3.7874775 -2.1199389
-10.025368 4.5413799 -2.1393507
-12.413692 5.6284871 -2.1587958
-0.77915806 0.35344169 0.10505138
-16.511057 7.4932213 -2.2263095
-22.147135 10.055706 -2.1279945
-40.160675 18.251514 -2.3118889
-23.923204 10.882264 -0.45875397
-7.1471457 3.2631676 -2.1052344
-8.3605566 3.8207033 -2.1221881
-43.712032 19.98525 2.5189297
-10.020167 4.5812454 -2.1416404
-12.429894 5.6882253 -2.1650534
-0.78152937 0.35781202 0.10553886
-16.520897 7.5673437 -2.231184
-21.880056 10.02671 -2.1056828
-40.125771 18.404902 -2.3135636
-7.137466 3.2889049 -2.105752
-8.350708 3.8514965 -2.1230881
-12.388443 5.7216401 -2.161299
-0.77306759 0.35720712 0.10456391
-16.516003 7.6349621 -2.2341089
-21.841307 10.101353 -2.105334
-40.075783 18.551571 -2.3144009
-7.1364517 3.3186886 -2.1088579
-8.3248472 3.8748648 -2.1199389
-10.012857 4.6626911 -2.1469829
-12.397043 5.7781987 -2.1663048
-0.77901232 0.3632594 0.10553886
-16.49419 7.6913676 -2.2345965
-21.726477 10.14045 -2.0976644
-40.046967 18.708254 -2.3164942
-7.1254077 3.3423343 -2.1088579
-8.3190069 3.9057624 -2.1217382
-9.9937859 4.6941977 -2.1462197
-12.381389 5.8209581 -2.1669304
-0.77421081 0.36415094 0.10505138
-16.49015 7.7561617 -2.2375214
-21.580965 10.159826 -2.0868571
-40.085888 18.888628 -2.322356
-7.1247625 3.3709023 -2.1119635
-8.313055 3.9366646 -2.123538
-9.9568739 4.717226 -2.1416404
-12.376296 5.8687558 -2.1694334
-0.77658606 0.36841786 0.10553886
-16.470148 7.81708 -2.2384963
-21.624556 10.272715 -2.0945268
-40.091576 19.054033 -2.3263335
-7.093184 3.3878345 -2.1062696
-8.3045359 3.9681785 -2.1248875
-9.9483719 4.7579231 -2.1435483
-12.372519 5.9226098 -2.1725621
-0.77171421 0.36941242 0.10505138
-16.460667 7.8830953 -2.2409337
-21.401712 10.258577 -2.0763984
-40.046688 19.212936 -2.3277988
-7.0795751 3.4117353 -2.105752
-8.3022232 4.0045161 -2.128037
-9.9599943 4.806273 -2.1496544
-12.355329 5.9674778 -2.1731877
-0.76320565 0.36878359 0.10407643
-16.460258 7.9571977 -2.2448335
-21.401646 10.350565 -2.0798845
-40.083641 19.403091 -2.3338699
-7.0763092 3.4406509 -2.1083403
-8.282938 4.0309143 -2.1266873
-9.9625731 4.8504639 -2.153852
-12.345078 6.0157619 -2.175065
-0.76191366 0.37144542 0.10407643
-16.453793 8.0250492 -2.2477584
-21.172001 10.330847 -2.061059
-40.065918 19.567425 -2.3368006
-7.0642567 3.4653292 -2.1083403
-8.268816 4.0598025 -2.1266873
-9.9385338 4.8817463 -2.1523256
-12.341731 6.0675335 -2.1781938
-0.75526851 0.37147442 0.10334522
-16.422117 8.0806828 -2.2472708
-21.285965 10.478606 -2.0757012
-40.112038 19.763659 -2.3434997
-7.0555792 3.4916823 -2.1093752
-8.2685652 4.0955591 -2.1302865
-9.9566145 4.9338455 -2.1599579
-12.331096 6.1158409 -2.1800709
-0.76463658 0.37940255 0.10480764
-16.415148 8.1485491 -2.2501957
-21.402721 10.629051 -2.0906918
-40.128647 19.946224 -2.3485239
-7.0416193 3.5154271 -2.1088579
-8.2559624 4.1252685 -2.1307364
-12.306137 6.1570826 -2.1794453
-0.75265676 0.37673813 0.10334522
-16.415005 8.2200165 -2.2540956
-21.322733 10.682283 -2.0865083
-40.140911 20.127352 -2.353339
-7.0465598 3.5486732 -2.1140339
-8.2449913 4.1558189 -2.1316364
-9.8956337 4.9899735 -2.1542337
-12.309258 6.2124624 -2.1838255
-0.76019734 0.38383657 0.10456391
-16.428738 8.298748 -2.2599452
-21.228413 10.727894 -2.0809305
-40.106045 20.285387 -2.3554323
-7.0392971 3.5758739 -2.115587
-8.2252235 4.181922 -2.1302865
-9.8851528 5.0280457 -2.15576
-12.298062 6.2607665 -2.1857026
-0.74116397 0.37747878 0.10212652
-16.427967 8.3704681 -2.263845
-21.205038 10.809163 -2.082325
-40.088367 20.45249 -2.3585725
-7.0267715 3.6004241 -2.115587
-8.2209806 4.2159438 -2.1329858
-9.8954916 5.07686 -2.1618662
-12.297219 6.3144841 -2.1894569
-0.74337316 0.38187802 0.102614
-16.402182 8.4295731 -2.2643328
-21.05023 10.822989 -2.0708203
-7.0055804 3.6204953 -2.1129987
-8.2114077 4.2473011 -2.1343358
-9.8655043 5.1050553 -2.1591947
-0.93244952 0.48271656 0.09186215
-12.320709 6.3809915 -2.1975915
-0.75084841 0.38903669 0.10383269
-16.448164 8.5222788 -2.2745697
-21.10076 10.942264 -2.079536
-6.9986753 3.6463833 -2.1145515
-0.96465772 0.50281113 0.018988218
-8.2145557 4.2835183 -2.1388347
-0.92266303 0.4811269 0.054534074
-9.8694086 5.1486363 -2.163774
-0.90258282 0.47105679 0.089073166
-12.29948 6.421814 -2.1975915
-0.74779457 0.39060539 0.10358895
-0.93543226 0.48965585 -0.018429741
-7.0549569 3.7055039 -2.135257
-0.88155615 0.46321994 0.017382598
-8.2693033 4.3470058 -2.1568308
-0.9315843 0.48992231 0.055162102
-9.9183102 5.2160621 -2.1782756
-0.92922747 0.4888902 0.09186215
-12.431944 6.5435319 -2.2251241
-0.75703418 0.39863214 0.10505138
-0.94488835 0.49776161 -0.13113143
-0.93761283 0.49434677 -0.092733704
-0.88858724 0.46869701 -0.052649979
-0.8665179 0.45744321 -0.017103357
-0.86885709 0.46042457 -0.2634778
-0.84812897 0.44944033 0.016754311
-0.80922353 0.42900419 -0.21145399
-0.85576117 0.45386744 0.050765883
-0.86365873 0.45824915 -0.19004577
-0.8499971 0.45119029 0.084192447
-0.84789491 0.45026436 -0.15205432
-0.74687189 0.39661729 0.10383269
-0.82043105 0.43586361 -0.11406972
-0.85645932 0.45519546 0.15361866
-0.83736753 0.44523615 -0.082972266
-0.83396894 0.44380254 -0.04950982
-0.8613857 0.45858547 -0.017033549
-0.85361427 0.45617035 -0.25933671
-0.85000312 0.45443127 0.016824121
-0.83857667 0.44851092 -0.21955223
-0.82943785 0.44380894 0.049300473
-0.83435744 0.44644129 -0.18393987
-0.82031202 0.43911016 0.081403457
-0.83586955 0.44762599 -0.15017711
-0.73841399 0.39560229 0.10285773
-0.82232726 0.44074321 -0.11455719
-0.8463437 0.45380548 -0.084018134
-0.82889491 0.4448221 -0.049300473
-0.85617578 0.45984721 -0.016963739
-0.86562169 0.46647891 -0.2634778
-0.81672812 0.44031465 0.016195834
-0.81985432 0.44218445 -0.2150532
-0.83842993 0.45239204 0.049928509
-0.83279401 0.44935104 -0.18393987
-0.81176108 0.43818551 0.080706216
-0.83430195 0.45054102 -0.15017711
-0.73877507 0.39912081 0.10310147
-0.83126187 0.44927415 -0.11601962
-0.84124929 0.45486176 -0.083669513
-0.82382405 0.44581169 -0.04909113
-0.80181444 0.43426308 -0.015916595
-0.84022421 0.45658422 -0.25623086
-0.82572746 0.44889325 0.016405262
-0.81830579 0.44504362 -0.2150532
-0.82631928 0.44958872 0.049300473
-0.81397516 0.44287246 -0.1801237
-0.80322683 0.43720636 0.080008969
-0.81884557 0.44589287 -0.14767416
-0.75306618 0.41024411 0.10529512
-0.83666068 0.45597282 -0.11699458
-0.85156459 0.46428785 0.15361866
-0.82916081 0.45207292 -0.082623646
-0.81700319 0.44581464 -0.048777115
-0.8055588 0.4399347 -0.016021309
-0.82846004 0.45394471 -0.25312504
-0.81012726 0.44408309 0.016126024
-0.79624319 0.43665308 -0.20965438
-0.8299979 0.45535257 0.049614493
-0.80726039 0.44287834 -0.17897885
-0.79470944 0.43617281 0.079311721
-0.81382102 0.44684699 -0.14704841
-0.75336945 0.41382605 0.10553886
-0.83332431 0.45793438 -0.11675084
-0.77723521 0.4272885 0.14047816
-0.8118642 0.4463259 -0.081054844
-0.84693986 0.46599397 -0.05066121
-0.79525977 0.43792105 -0.015846785
-0.81003928 0.44734988 -0.24794866
-0.80339926 0.4438661 0.016021309
-0.78626305 0.4345777 -0.20740487
-0.8179962 0.45230371 0.048986461
-0.79547876 0.43985286 -0.17668915
-0.78454149 0.43398377 0.078440167
-0.81060636 0.44858679 -0.14673555
-0.7363627 0.40766874 0.10334522
-0.80922621 0.44819206 -0.11358224
-0.78618115 0.43560785 0.14235538
-0.81220311 0.45039669 -0.048672445
-0.79555166 0.44152623 -0.015881689
-0.82872665 0.46145278 -0.25416031
-0.80359185 0.4476409 0.016056214
-0.79495484 0.44301125 -0.21010427
-0.79024535 0.44056773 0.047416382
-0.79908293 0.44549477 -0.17783399
-0.77780163 0.43380824 0.077917233
-0.79351032 0.44275111 -0.14391972
-0.7470687 0.41700926 0.10505138
-0.7955246 0.4442392 -0.11187606
-0.76051247 0.424862 0.13797522
-0.81228596 0.45378536 -0.081403457
-0.80016625 0.44738096 -0.048044413
-0.7957508 0.44527686 -0.015916595
-0.81194997 0.45583141 -0.24950157
-0.80202448 0.45044306 0.016056214
-0.78320992 0.44005629 -0.20740487
-0.79052126 0.44416425 0.047521055
-0.78896588 0.44347152 -0.17592591
-0.77280933 0.43456754 0.077568613
-0.7954033 0.44745535 -0.14454547
-0.74387848 0.41864091 0.10480764
-0.80088818 0.45090896 -0.11285102
-0.7969684 0.4487021 0.14485833
-0.78292161 0.44097358 -0.078614481
-0.78294092 0.44134444 -0.047102366
-0.77685159 0.43809056 -0.015567547
-0.80867261 0.45771131 -0.24898393
-0.79530543 0.45014545 0.015951499
-0.79192096 0.44841206 -0.21010427
-0.79070383 0.44790539 0.047625724
-0.7771647 0.44041514 -0.1736362
-0.76435488 0.43333188 0.076871365
-0.79735208 0.45203885 -0.1451712
-0.75284636 0.42698133 0.10627007
-0.79248232 0.44964388 -0.11187606
-0.78165388 0.44368032 0.14235538
-0.79870301 0.45354202 -0.080357596
-0.78227109 0.44475299 -0.015707165
-0.80043811 0.45656189 -0.24691339
-0.76420337 0.4360705 0.015358118
-0.78188878 0.44634333 -0.20785476
-0.80821359 0.46155792 0.048777115
-0.77229029 0.44104272 -0.17287296
-0.75253391 0.42993411 0.075825498
-0.76832891 0.43913615 -0.1401653
-0.7668609 0.43847468 0.10846373
-0.78918493 0.45142165 -0.11163233
-0.75609726 0.43267053 0.13797522
-0.79200679 0.45321944 -0.079834662
-0.7989834 0.45758182 -0.048253756
-0.77724409 0.44549218 -0.015637357
-0.79046601 0.45453796 -0.24432519
-0.77481002 0.44571531 0.015602452
-0.76174682 0.43837783 -0.20290586
-0.78755772 0.45341444 0.047625724
-0.78265619 0.45059252 -0.17554428
-0.79073799 0.45542946 0.079834662
-0.77192611 0.44477403 -0.14110391
-0.74124813 0.42726988 0.10505138
-0.79104346 0.45615712 -0.1121198
-0.79222596 0.45702323 0.14485833
-0.79559731 0.45896813 -0.080357596
-0.77316564 0.44638738 -0.04678835
-0.77049005 0.44520101 -0.015532642
-0.79890257 0.4631075 -0.24743101
-0.78189862 0.45343325 0.015776975
-0.7770682 0.450813 -0.20740487
-0.79115242 0.45916849 0.04793974
-0.78956848 0.45824921 -0.17745239
-0.78052831 0.45318481 0.078963101
-0.78061777 0.45341867 -0.14298111
-0.74661756 0.43384412 0.10602634
-0.78258169 0.45492509 -0.11114486
-26.244341 15.262301 4.8084831
-0.77332264 0.44972298 -0.078265861
-26.238453 15.265016 5.9005775
-0.7871384 0.45812547 -0.047730397
-0.79312229 0.46197888 -0.016021309
-0.80228502 0.46881744 -0.24898393
-0.78376389 0.45817804 0.015846785
-0.7855829 0.45942539 -0.21010427
-0.77747744 0.45486748 0.047207039
-0.77949125 0.45604569 -0.17554428
-0.78066123 0.45691288 0.079137415
-0.78073496 0.45713893 -0.14329399
-0.72968268 0.42741784 0.10383269
-0.78441447 0.4596611 -0.11163233
-26.228395 15.375797 4.8153663
-0.77346683 0.45342723 -0.078440167
-26.201942 15.366444 5.9043941
-0.79242516 0.46491286 -0.048149083
-0.77770954 0.45664451 -0.015742071
-0.7989791 0.47063461 -0.2484663
-0.79249668 0.46700248 0.016056214
-0.79068941 0.46612343 -0.21190389
-0.79480898 0.46873888 0.048358425
-0.78296793 0.4617556 -0.17668915
-0.76876563 0.45356065 0.078091539
-0.79614609 0.4699021 -0.14642268
-0.73331445 0.43299007 0.10456391
-0.78451431 0.46340603 -0.11187606
-0.83501452 0.49343303 0.15361866
-0.79246265 0.46828794 -0.080531903
-0.81314611 0.48089311 -0.04950982
-0.77611095 0.45935622 -0.015742071
-0.80231476 0.47637957 -0.25001919
-0.79258096 0.47078723 0.016091119
-0.78738225 0.46788514 -0.21145399
-0.80861926 0.48069575 0.049300473
-0.78303891 0.46548912 -0.17707075
-0.7688902 0.45725983 0.078265861
-0.78091973 0.4645983 -0.14391972
-0.74544507 0.44366926 0.10651381
-0.78118628 0.46512616 -0.11163233
-0.7976703 0.47512949 -0.08122915
-0.78572905 0.46838838 -0.04793974
-0.77965462 0.46513617 -0.015846785
-0.7873857 0.47124058 -0.2458781
-0.77549171 0.46430576 0.015776975
-0.77069807 0.46161872 -0.20740487
-0.78131944 0.46798053 0.047730397
-0.79151368 0.47427416 -0.17936046
-0.78266931 0.46916029 0.079834662
-0.77590501 0.46528962 -0.14329399
-0.73878503 0.44320506 0.1057826
-0.79155546 0.47486261 -0.1133385
-0.77721703 0.46662983 -0.079311721
-0.76868141 0.46187025 -0.046997696
-0.77125227 0.46359819 -0.015707165
-0.79905355 0.48182973 -0.25001919
-0.78079683 0.47100651 0.015916595
-0.7674945 0.46316499 -0.20695497
-0.77121323 0.46540916 0.047207039
-0.769768 0.46472028 -0.17478105
-0.77428734 0.46763283 0.079137415
-0.77266705 0.46683854 -0.14298111
-0.73731124 0.44565257 0.1057826
-0.77468652 0.46824327 -0.11114486
-0.76714152 0.46404856 -0.078440167
-0.77397966 0.46855432 -0.047416382
-0.75944787 0.4599379 -0.015497738
-0.79249817 0.48146772 -0.2484663
-0.77752173 0.47255459 0.015881689
-0.76595449 0.46570745 -0.20695497
-0.77811593 0.47328797 0.047730397
-0.76319063 0.46420968 -0.1736362
-0.78124261 0.47537634 0.080008969
-0.77111465 0.46939823 -0.14298111
-0.74261123 0.45222506 0.10675755
-0.77813327 0.47404277 -0.11187606
-0.77580649 0.47281116 -0.079486035
-0.77242184 0.471118 -0.047416382
-0.75783777 0.46258608 -0.015497738
-0.77763265 0.47616041 -0.24432519
-0.77416223 0.47422123 0.015846785
-0.77927828 0.47754237 -0.21100408
-0.79008126 0.4843519 0.048567772
-0.76826078 0.47097504 -0.17516267
-0.7642926 0.46872595 0.078440167
-0.77789015 0.47725219 -0.14454547
-0.73595268 0.4516992 0.10602634
-0.7798571 0.47883341 -0.11236355
-0.76056969 0.46717402 -0.078091539
-0.76907104 0.47276565 -0.047311708
-0.7613281 0.4683719 -0.015602452
-0.76938981 0.47481379 -0.24225464
-0.7742036 0.4779714 0.015881689
-7.9683957 4.92138 -2.1622295
-0.78498745 0.48500726 0.048358425
-0.77496296 0.47881356 -0.17707075
-0.76773602 0.47453383 0.078963101
-0.77621955 0.47996444 -0.14454547
-0.73605961 0.45530969 0.10627007
-0.78999698 0.48886499 -0.11406972
-0.74029988 0.45828998 -0.076174118
-0.74025089 0.45861739 -0.045636959
-0.75289035 0.46681157 -0.015462833
-6.7766728 4.2148252 -2.1383629
-0.80139434 0.49862993 0.016475072
-7.94455 4.9450459 -2.16043
-0.76294452 0.47507578 0.047102366
-9.5894232 5.971211 -2.1958301
-0.76945722 0.47931758 0.079311721
-12.000333 7.4782677 -2.239516
-0.72098935 0.44947508 0.10432017
-15.290723 9.5361567 -2.2126598
-21.163546 13.20391 -2.1823797
-42.473812 26.519976 -2.6242297
-0.785173 0.49063054 -0.01616093
-6.77174 4.2446108 -2.1414688
-7.9255896 4.9717126 -2.1599801
-9.5635328 6.0015178 -2.1946852
-0.88927412 0.55827314 0.09186215
-11.994228 7.5327177 -2.2432706
-0.72445869 0.45515704 0.10505138
-15.15818 9.5271492 -2.1982794
-20.975645 13.188622 -2.1677377
-42.492554 26.73827 -2.6311381
-6.75035 4.2640967 -2.1393983
-7.910706 4.9990082 -2.16043
-9.5524807 6.0411606 -2.196975
-11.975861 7.5766754 -2.2445219
-0.71959054 0.45543373 0.10456391
-15.101346 9.5614357 -2.1946235
-20.831861 13.199914 -2.1576276
-42.521736 26.953886 -2.6384652
-6.7280231 4.2812729 -2.1368101
-7.9063601 5.0349641 -2.1640291
-9.5390177 6.077024 -2.1985013
-11.962667 7.6269259 -2.2470248
-0.72469097 0.46221265 0.10553886
-15.089633 9.6279726 -2.1977918
-20.658665 13.186372 -2.1442056
-42.535114 27.170965 -2.6451643
-44.710503 28.582558 -0.92626899
-6.71629 4.3068175 -2.1378453
-7.8920155 5.0646386 -2.1649289
-9.5326157 6.1198306 -2.201936
-11.935968 7.6686401 -2.2470248
-0.71639353 0.4604463 0.10456391
-15.035898 9.6676989 -2.1948669
-20.568939 13.230385 -2.1396735
-26.247278 16.895761 -1.6359174
-26.253214 16.912554 -0.54510844
-6.717442 4.3407192 -2.1430218
-7.8726516 5.0910983 -2.164479
-9.5249567 6.1643262 -2.2053704
-11.919076 7.7166996 -2.2489021
-0.70145279 0.45431104 0.102614
-14.942084 9.6812716 -2.1860926
-20.4618 13.267747 -2.1335726
-42.503788 27.581188 -2.655422
-44.427681 28.840649 -0.9245587
-6.703105 4.3663664 -2.1435394
-7.8621035 5.1252384 -2.1667287
-9.5039434 6.2002683 -2.2057521
-11.90395 7.7689681 -2.2514052
-0.70643151 0.46121997 0.10358895
-14.836695 9.6903791 -2.1758554
-20.331314 13.28924 -2.1250312
-42.509377 27.806763 -2.6621211
-44.264786 28.966063 -0.92337191
-6.687057 4.3909039 -2.1435394
-7.8465204 5.1561623 -2.1676283
-9.4778719 6.2329054 -2.204989
-11.888595 7.8212342 -2.2539082
-0.70141995 0.46162331 0.10310147
-14.766259 9.7217703 -2.1707368
-20.199287 13.308855 -2.1163158
-42.510555 28.030544 -2.6686106
-44.088219 29.08185 -0.92190593
-6.667696 4.4132528 -2.1425042
-7.8405681 5.1934938 -2.1712275
-9.4598732 6.270853 -2.2061336
-11.873021 7.873487 -2.2564111
-0.70468581 0.46748337 0.10383269
-14.666025 9.7330151 -2.161231
-20.103899 13.351942 -2.1114349
-42.484047 28.23702 -2.6734254
-6.6602287 4.4384618 -2.1445746
-7.8258338 5.2191811 -2.1716774
-9.4542913 6.3076115 -2.2091868
-11.864654 7.9217172 -2.2595396
-0.708166 0.47300249 0.10456391
-14.592511 9.7467175 -2.1546502
-19.991312 13.36281 -2.1037652
-42.5196 28.442905 -2.6809618
-6.6518908 4.4648309 -2.1466453
-7.8020134 5.2407584 -2.169878
-9.4414701 6.3444037 -2.2110946
-11.835041 7.9588141 -2.258914
-0.68682873 0.46205184 0.10163904
-14.517285 9.7662458 -2.1483128
-19.917139 13.409003 -2.1006277
-42.517803 28.646246 -2.6868236
-6.6466503 4.4933567 -2.1497512
-7.7942753 5.2731538 -2.1725771
-9.4301338 6.3822799 -2.2133844
-11.834753 8.0157413 -2.2639198
-0.68693608 0.46544039 0.10188278
-14.404233 9.7634001 -2.1366136
-22.055893 14.955426 -2.3314161
-26.448977 17.961206 -0.55805814
-6.6309266 4.5165291 -2.1497512
-26.476919 18.041014 0.55924493
-7.7790413 5.3025246 -2.1734772
-26.456514 18.040646 1.678205
-9.4191523 6.4229016 -2.2160556
-11.826279 8.0703659 -2.2676742
-0.70662063 0.48238537 0.10505138
