# .PCD v0.7 - Point Cloud Data file format
VERSION 0.7
FIELDS x y z
SIZE 4 4 4
TYPE F F F
COUNT 1 1 1
WIDTH 1503
HEIGHT 1
VIEWPOINT 0 0 0 1 0 0 0
POINTS 1503
DATA ascii
8.1786833 -2.8593276 -2.0002646
9.6715784 -3.3831489 -1.9916644
11.534812 -4.039433 -1.9357203
14.244596 -4.993969 -1.8533891
18.892864 -6.6272945 -1.7516562
27.801117 -9.7630577 -1.5442249
16.355719 -5.7469258 4.0023293
7.1971641 -2.5415831 -2.0451882
8.1778383 -2.8911064 -2.0025144
9.6486053 -3.4129603 -1.9893748
11.518778 -4.0790133 -1.9354074
14.219593 -5.0410089 -1.8524141
18.839573 -6.6825457 -1.7488672
27.714169 -9.8413277 -1.541294
16.445734 -5.8431282 4.0293231
7.1755128 -2.5621433 -2.0415647
8.1750374 -2.9222591 -2.0043139
9.6384811 -3.4472804 -1.9897563
11.510049 -4.1211939 -1.9363459
14.190699 -5.0865946 -1.8509518
18.752367 -6.725399 -1.7429405
27.657089 -9.9299097 -1.540038
7.1701593 -2.5884867 -2.0425999
8.1794491 -2.9560759 -2.0079131
9.6319284 -3.4829071 -1.9909012
11.484448 -4.1573124 -1.9344687
14.170019 -5.1322727 -1.8504643
18.693188 -6.7779121 -1.7396286
27.513372 -9.986866 -1.533967
7.1742406 -2.6168833 -2.0462234
8.1549578 -2.9778364 -2.0043139
9.6387653 -3.5215654 -1.9947174
11.470599 -4.1953731 -1.9344687
14.126823 -5.1696835 -1.847052
18.666868 -6.8384929 -1.73928
27.375093 -10.039537 -1.5281054
7.1600857 -2.6386557 -2.0446706
8.1688061 -3.0136316 -2.0101628
9.6307173 -3.5548692 -1.9954805
11.462182 -4.2354422 -1.9354074
14.071455 -5.2051892 -1.8421772
18.636612 -6.8975902 -1.7385828
27.349144 -10.133039 -1.528524
7.1544514 -2.6649818 -2.0457058
8.1874514 -3.0530214 -2.0173612
9.6200905 -3.5891509 -1.9958621
11.445478 -4.2747359 -1.9350946
14.049482 -5.2528858 -1.8416896
18.606823 -6.9605079 -1.7380599
27.257494 -10.207429 -1.5253839
7.1432977 -2.6892583 -2.0451882
8.1822138 -3.0836434 -2.0187106
9.5726004 -3.6095493 -1.9886116
11.439727 -4.31815 -1.9366589
14.012491 -5.294879 -1.8392524
18.565641 -7.019074 -1.7364911
27.169394 -10.28272 -1.5224532
7.1573396 -2.7231076 -2.0519176
8.1786842 -3.1149609 -2.0205104
9.5342579 -3.6331539 -1.9832687
11.417202 -4.3552394 -1.9354074
13.982796 -5.3395104 -1.8377899
18.501944 -7.0689049 -1.7328305
27.066177 -10.35181 -1.518685
7.1622157 -2.7536206 -2.0560586
35.625381 -13.703846 0.6662631
8.1513939 -3.1371913 -2.0164614
9.5508318 -3.6777008 -1.9893748
11.403772 -4.3957767 -1.9357203
13.945552 -5.3811402 -1.8353524
18.462286 -7.1277046 -1.731436
26.988892 -10.430386 -1.5163821
7.1579623 -2.7807035 -2.0576115
35.316387 -13.726696 0.66137636
8.1240463 -3.1592689 -2.0124121
9.5306177 -3.7081697 -1.9878482
11.397562 -4.4391413 -1.9372847
13.889693 -5.4153647 -1.8304777
18.407595 -7.180522 -1.728647
26.848135 -10.483849 -1.5105206
7.1733885 -2.8155539 -2.0648584
8.1238518 -3.1918836 -2.0151114
9.5048256 -3.7363868 -1.9851768
11.394865 -4.4839621 -1.9394747
13.863318 -5.460906 -1.8295028
18.371294 -7.2403493 -1.7276011
26.777935 -10.564308 -1.5086365
7.1635165 -2.8405764 -2.0648584
8.1271505 -3.2259731 -2.0187106
9.4953756 -3.770992 -1.9859402
11.375472 -4.5222511 -1.9388491
13.829415 -5.5033927 -1.8275528
18.297781 -7.2852712 -1.723069
26.692657 -10.638491 -1.505915
7.1410041 -2.8605361 -2.061235
8.1086054 -3.2514219 -2.0169113
9.463932 -3.7968035 -1.982124
11.36695 -4.5648756 -1.9401004
13.79907 -5.5471907 -1.8260905
18.26115 -7.3446379 -1.7220231
26.584953 -10.703257 -1.5019374
7.1309752 -2.8854451 -2.061235
8.0917883 -3.2775116 -2.0155613
9.4524403 -3.8305531 -1.9825056
11.360098 -4.6082392 -1.9416648
13.76123 -5.5878563 -1.823653
18.205866 -7.396337 -1.7192342
26.495628 -10.774921 -1.4990066
7.1369548 -2.9168973 -2.0658937
8.0766907 -3.3042614 -2.0146616
9.4371958 -3.8627813 -1.982124
8.8104753 -3.6098468 -1.5080284
9.5724993 -3.9259677 -1.2703662
18.168877 -7.4553041 -1.7181883
26.420904 -10.852168 -1.4969132
7.1517286 -2.9521117 -2.0731406
8.0759144 -3.3368995 -2.0173612
9.4000683 -3.8859494 -1.977163
8.0604105 -3.3354354 -1.3816295
9.4743729 -3.9244142 -1.2591542
18.094887 -7.4988484 -1.7136562
26.279552 -10.901471 -1.4910516
7.1413803 -2.9770577 -2.0731406
8.0660152 -3.3658199 -2.0178108
9.4136219 -3.9300835 -1.9828871
7.8810368 -3.2934771 -1.3528454
9.5997972 -4.0156817 -1.2776783
18.035521 -7.5481205 -1.7105186
26.245024 -10.99468 -1.4912609
7.1273842 -3.0004687 -2.0721054
8.0380554 -3.3871443 -2.013762
9.4360266 -3.9781725 -1.9905195
7.7712135 -3.2794931 -1.3359504
9.563776 -4.0398974 -1.2747533
18.00172 -7.6079268 -1.7098212
26.224878 -11.094008 -1.4923077
7.1364241 -3.033643 -2.0777996
8.0351486 -3.4189968 -2.0160115
9.4545984 -4.0249286 -1.9973886
7.7052016 -3.2833686 -1.3265644
9.556921 -4.0763721 -1.2757283
17.945734 -7.658206 -1.7070323
26.167627 -11.177635 -1.4912609
7.0743093 -3.0364382 -2.0627878
8.0374899 -3.4531779 -2.0196106
7.6501446 -3.291507 -1.3190556
9.5207548 -4.1002846 -1.2728035
17.904255 -7.7144952 -1.7056379
26.077099 -11.246763 -1.4883301
7.0477138 -3.0542004 -2.0581291
8.0218096 -3.4796615 -2.0187106
7.3299413 -3.181066 -1.5531853
7.7980475 -3.3874514 -1.3465881
9.5173073 -4.1382432 -1.2742659
17.84433 -7.7626386 -1.7025002
26.026693 -11.332935 -1.487702
7.0423193 -3.0811057 -2.0596819
8.0381765 -3.5201497 -2.0259092
7.2648454 -3.182997 -1.5417367
7.8078842 -3.4241712 -1.3503424
9.4991693 -4.1698432 -1.2737786
17.795233 -7.8152657 -1.7004085
25.986975 -11.423717 -1.487702
7.0297542 -3.1048889 -2.0591643
8.0472279 -3.5576422 -2.0313082
7.2141905 -3.1908653 -1.5333412
7.7814341 -3.4450076 -1.3478395
9.4809256 -4.2013683 -1.2732911
17.738703 -7.8644147 -1.6976196
25.899475 -11.493295 -1.4849806
7.0665131 -3.1506486 -2.0731406
8.0353861 -3.5843079 -2.0313082
7.163569 -3.1984193 -1.5249456
7.7988253 -3.4836838 -1.3528454
9.4760027 -4.236836 -1.2745097
17.68932 -7.9165206 -1.6955278
25.75914 -11.533412 -1.4791189
7.0595498 -3.1756496 -2.0741758
8.0388184 -3.6195359 -2.0353572
7.0777426 -3.1882904 -1.5089177
7.7902188 -3.5125089 -1.3534712
9.446681 -4.2633548 -1.2725598
17.65934 -7.9734969 -1.6951791
25.736923 -11.631484 -1.4801657
7.0413857 -3.1970782 -2.0721054
8.0225859 -3.6459618 -2.0344574
7.0093803 -3.186974 -1.4967059
7.7671227 -3.5347712 -1.351594
9.4353542 -4.2979498 -1.2730472
17.59514 -8.0185671 -1.6916929
25.667091 -11.707989 -1.4784909
7.0214019 -3.2176137 -2.0695171
7.8681068 -3.608947 -1.9984653
6.6841679 -3.0673094 -1.4295411
13.233141 -6.0837665 -1.7883109
17.53084 -8.0632858 -1.6882067
25.607925 -11.789162 -1.4774442
7.020648 -3.246969 -2.072623
7.7847233 -3.6036444 -1.9804692
6.5558424 -3.0361698 -1.4043542
7.7816839 -3.6071861 -1.358477
13.17581 -6.1132126 -1.7834362
17.506201 -8.1261082 -1.6885552
25.523144 -11.85828 -1.4749321
7.0250258 -3.2788091 -2.0772817
7.7632689 -3.6266723 -1.9782196
6.4758391 -3.0266161 -1.3894712
7.7547317 -3.6276312 -1.3559741
13.152593 -6.1583257 -1.7831924
11.844874 -5.5485449 -1.1443549
25.43458 -11.925256 -1.4722105
7.0065479 -3.3000188 -2.0752113
44.423763 -20.932653 0.8571924
7.7487998 -3.6529181 -1.9777697
6.4314966 -3.0332909 -1.3822205
7.7545252 -3.6605809 -1.3581642
11.081314 -5.2357469 -1.5048428
11.965933 -5.6562705 -1.1579511
25.381966 -12.008842 -1.4715827
6.9967303 -3.3252854 -2.0757289
44.397381 -21.109921 0.85809994
7.7483196 -3.6858037 -1.980919
6.3747787 -3.0337875 -1.3722984
11.055802 -5.2709785 -1.5038677
12.028838 -5.7374616 -1.1659695
25.307447 -12.081878 -1.4696984
6.9746284 -3.3446758 -2.072623
44.391933 -21.297638 0.85942632
7.7336502 -3.7119849 -1.9804692
6.3358331 -3.0424237 -1.3661925
10.990501 -5.2822857 -1.9313401
11.017659 -5.3000727 -1.5011867
12.080549 -5.8139758 -1.1729419
25.275917 -12.175345 -1.4703265
6.9646497 -3.369843 -2.0731406
44.382118 -21.483829 0.8606829
6.302206 -3.0533931 -1.3612314
10.915118 -5.2930355 -1.9213283
10.991947 -5.335032 -1.5002117
12.103195 -5.8769956 -1.1771255
25.197334 -12.246039 -1.468233
6.961525 -3.398371 -2.0757289
44.364353 -21.666704 0.86179984
6.1562324 -3.0079172 -1.5818559
6.2562332 -3.05813 -1.3535991
10.900125 -5.3328409 -1.921954
12.97893 -6.3555036 -1.7744178
12.16849 -5.9612813 -1.1854924
25.08629 -12.300507 -1.4642555
6.9513531 -3.4235044 -2.0762465
40.948433 -20.175764 0.79680705
6.1054931 -3.0095713 -1.5715082
6.22439 -3.0695295 -1.3490196
57.560669 -28.398272 5.6154442
10.883215 -5.3717308 -1.9222668
57.446766 -28.367012 7.8666668
12.935309 -6.3902187 -1.7714928
12.222626 -6.0407972 -1.1928135
25.021719 -12.377373 -1.4629995
6.9341707 -3.4451697 -2.0746937
6.0670319 -3.0169818 -1.5643097
9.0365801 -4.4956307 -1.9618982
10.860861 -5.4079266 -1.9216411
12.692616 -6.3255391 -1.7412694
12.283485 -6.12432 -1.2008318
24.903303 -12.427184 -1.4586033
6.9151936 -3.4658906 -2.072623
6.0460124 -3.0328984 -1.5616102
10.856039 -5.4528985 -1.9241441
12.709476 -6.3894215 -1.7466316
12.35103 -6.2119203 -1.2095473
24.850853 -12.509547 -1.4580798
6.9082255 -3.4926229 -2.0741758
6.0133152 -3.0414972 -1.5557615
9.0032244 -4.5577211 -1.9615166
10.862569 -5.5013638 -1.9285244
12.686449 -6.4306355 -1.7463878
12.407451 -6.2946591 -1.2172171
24.787861 -12.581039 -1.4568238
6.8983269 -3.5163898 -2.0746937
5.9644728 -3.0429852 -1.5458636
8.8166933 -4.5000854 -1.924118
10.769416 -5.5015044 -1.9153838
12.633877 -6.4595175 -1.7422442
12.461008 -6.3738761 -1.2245381
24.669123 -12.629261 -1.4524276
6.8946004 -3.5448642 -2.0772817
5.9243569 -3.0486281 -1.5382153
8.7223816 -4.4903955 -1.9069452
10.73083 -5.5291109 -1.9119422
12.124304 -6.252461 -1.6749724
12.420978 -6.4081993 -1.222795
24.568102 -12.685973 -1.4490781
6.8804698 -3.5680201 -2.0767641
5.8963828 -3.0603125 -1.5337163
8.6927156 -4.5135775 -1.9038923
10.704453 -5.5628905 -1.9106908
12.134105 -6.3112326 -1.6793597
12.370255 -6.4368033 -1.2200061
24.513041 -12.76612 -1.4484501
6.8765321 -3.5964923 -2.0793524
5.8528609 -3.0637047 -1.5251682
8.6438627 -4.5265884 -1.8966415
10.161831 -5.3260341 -1.817143
12.1454 -6.3710713 -1.6839907
12.203045 -6.4040251 -1.2057126
24.422356 -12.82746 -1.4457285
6.846849 -3.6114612 -2.0741758
5.8111105 -3.0677407 -1.5170699
8.7096014 -4.5998254 -1.9145776
10.25495 -5.4205527 -1.8371665
12.231877 -6.4709797 -1.6991025
12.284513 -6.5015702 -1.2159969
24.328012 -12.886457 -1.4427978
6.8614902 -3.6498551 -2.0824583
5.7487626 -3.060533 -1.5035729
5.9989772 -3.195087 -1.3211615
57.528225 -30.652723 5.702949
57.443481 -30.633322 7.9934111
12.130401 -6.4715905 -1.6881342
12.200224 -6.5115771 -1.209896
24.244127 -12.950596 -1.440495
6.845304 -3.6719577 -2.081423
5.6951199 -3.0575368 -1.4923253
5.9912472 -3.2178657 -1.3219248
10.277754 -5.5247483 -1.8481169
12.20039 -6.5637403 -1.7010525
12.13356 -6.5305176 -1.2055383
24.160088 -13.014307 -1.4381922
6.8120537 -3.6848004 -2.0752113
5.6518517 -3.0597706 -1.4837772
5.9316416 -3.2125802 -1.3112395
10.23583 -5.5483532 -1.8440496
12.16519 -6.5996618 -1.6993462
24.082922 -13.081404 -1.4363081
39.42585 -21.433224 -0.78329897
6.7923656 -3.7048559 -2.0731406
5.5795598 -3.0458655 -1.4675807
5.92556 -3.2360885 -1.3123844
10.136665 -5.5404677 -1.8296577
11.800735 -6.4553609 -1.6515735
23.991568 -13.140443 -1.4335867
5.9855008 -3.2919176 -1.8303684
5.4425611 -2.9957852 -1.4342879
5.9400239 -3.2709582 -1.3181087
10.435592 -5.7512541 -1.8872255
11.93283 -6.5818424 -1.6732662
12.846014 -7.0884557 -1.2836298
12.528755 -6.9190974 -0.75007898
5.9401841 -3.2940531 -1.8200157
5.341763 -2.9646449 -1.4104432
5.9577498 -3.307874 -1.3245962
10.310124 -5.7291174 -1.8681406
12.493873 -6.9511452 -1.2508591
23.815487 -13.260975 -1.4285624
5.9674315 -3.336452 -1.8319213
5.2837653 -2.9566283 -1.3978459
5.9547324 -3.3334451 -1.3265042
10.047071 -5.6289344 -1.8240261
11.976626 -6.7154732 -1.6859406
10.178504 -5.7095742 1.8484299
12.128949 -6.8036656 -1.2166941
23.716806 -13.314693 -1.4254223
35.465179 -19.926556 -0.71006858
5.8850675 -3.3174183 -1.8101805
5.2462559 -2.9597332 -1.3906474
5.9430599 -3.3542104 -1.3265042
10.280196 -5.8067846 -1.8700178
11.745744 -6.6400104 -1.656692
10.088015 -5.7052002 1.8356022
12.427699 -7.0283909 -1.2491161
23.666706 -13.395432 -1.4252129
5.2352157 -2.9752247 -1.6134779
5.210484 -2.9635766 -1.383899
5.9432602 -3.381732 -1.3291756
10.488166 -5.9726439 -1.9116293
11.605216 -6.6141305 -1.6401178
12.527708 -7.1427808 -1.2616665
13.083179 -7.4655395 -0.78943563
9.4689159 -5.4097385 2.9220672
5.1828928 -2.9694719 -1.6005371
5.1899643 -2.9759307 -1.3811995
5.938231 -3.4063647 -1.3307021
10.484385 -6.0190525 -1.9147581
11.537309 -6.6288881 -1.6337806
12.613841 -7.2562099 -0.76263964
5.1591125 -2.9798157 -1.596396
5.1559248 -2.9803751 -1.3749009
8.5622959 -4.9514165 -1.9225914
10.365858 -5.9992132 -1.8969245
11.280482 -6.5338078 -1.6006321
12.139655 -7.0342808 -1.2275014
23.456024 -13.602451 -1.421026
41.143414 -23.878794 -0.83035064
5.1303153 -2.9871137 -1.5907019
5.1118155 -2.9787321 -1.3659029
8.5636168 -4.9921508 -1.9267894
10.344854 -6.0353599 -1.8969245
11.355321 -6.6301966 -1.6145252
12.085779 -7.0595303 -1.2245381
12.804271 -7.4852099 -0.77729368
40.806797 -23.864677 -0.82514977
9.4410543 -5.5235405 2.930867
5.1081948 -2.9981587 -1.5870785
5.096868 -2.9927065 -1.3645531
8.498745 -4.9941626 -1.9161041
10.266884 -6.0355945 -1.886287
11.285365 -6.6396317 -1.6077005
11.942599 -7.0319204 -1.2125107
23.221779 -13.678674 -1.4124429
40.723244 -24.006975 -0.82514977
9.4350281 -5.5643125 2.935008
5.0666308 -2.9963968 -1.5772433
5.0662661 -2.9985685 -1.3591542
8.5057869 -5.0363216 -1.9214467
9.1270866 -5.4106522 1.3027834
11.407249 -6.7650537 -1.6284183
12.936781 -7.6812987 -0.78849363
9.364069 -5.5666113 2.9189613
5.0191116 -2.9931786 -1.5658553
5.0373592 -3.0052524 -1.3542054
8.51087 -5.0815539 -1.9267894
9.2958784 -5.5546579 -1.7151477
9.063839 -5.4160047 1.2964462
11.480687 -6.8628879 -1.6423115
11.744467 -7.0261335 -1.1973456
9.5466261 -5.7135386 2.1626294
40.64043 -24.342068 -0.826895
9.3213816 -5.5853624 2.9117146
5.0053215 -3.0086896 -1.5648201
4.9929137 -3.0036044 -1.3452073
8.5519543 -5.1466622 -1.940146
9.2258759 -5.5544286 0.94215357
10.152973 -6.1150017 -1.8772138
9.0303249 -5.4409933 1.2944963
9.2945957 -5.6024342 -1.3325195
9.1746655 -5.5301452 1.6966884
9.2185841 -5.5588112 -0.94180495
9.1735992 -5.5338688 2.0824895
9.1827383 -5.5415678 -0.56208825
9.1472368 -5.5223217 2.4668133
9.1792774 -5.5416651 -0.18715961
9.1364622 -5.517992 2.8599505
4.9815707 -3.0181346 -1.5606788
9.1346436 -5.5343156 0.18642659
4.9879246 -3.023175 -1.3465569
9.1198769 -5.5297217 0.55894804
8.5221872 -5.1693554 -1.9374746
9.1280785 -5.5390539 0.9341352
9.1565275 -5.5563173 -1.6963756
8.944356 -5.4297047 1.2847468
9.1317444 -5.5456405 -1.3118018
9.0911531 -5.5231619 1.6847994
9.1344252 -5.5516338 -0.93518108
9.0981569 -5.5295911 2.0695145
9.1301804 -5.5512362 -0.55999482
9.0955753 -5.532371 2.4578152
9.1222944 -5.5508041 -0.1863917
9.0923929 -5.5347838 2.852186
4.9583435 -3.0265856 -1.5565379
9.0913773 -5.551579 0.18593794
7.4053135 -4.5237713 -2.0034139
9.083477 -5.5511084 0.55790138
8.5301256 -5.2129436 -1.9431988
9.0824623 -5.5526657 0.9313463
9.1033735 -5.5676327 -1.6901182
8.9761467 -5.4919734 1.2920588
9.0920134 -5.5650468 -1.3088769
9.0600243 -5.5476408 1.6826093
9.0938759 -5.5683684 -0.93291503
9.0771255 -5.5602903 2.0691328
9.0800934 -5.5642886 -0.55811071
9.0612564 -5.5549202 2.4537661
9.073884 -5.5648408 -0.18579833
9.059845 -5.5584064 2.8480449
4.9164853 -3.024642 -1.5467027
9.0566158 -5.5738463 0.18562379
9.0453386 -5.57126 0.55674994
8.5653696 -5.2756343 -1.9554106
9.0290995 -5.5634322 0.92786002
9.0737944 -5.5931568 -1.688241
9.01437 -5.5586987 1.3003459
9.0505695 -5.5832009 -1.3057083
9.0355625 -5.5761209 1.6816708
9.0574284 -5.5896149 -0.93117195
9.0459681 -5.584722 2.0664616
9.0572176 -5.5938511 -0.55790138
9.0351791 -5.5824194 2.4519665
9.0475988 -5.5922747 -0.18565871
9.038744 -5.5889816 2.8475273
4.8960466 -3.0356772 -1.5435969
9.0201111 -5.5948853 0.18527475
7.2692323 -4.5106287 -1.9750704
9.0309258 -5.6059599 0.55706394
8.5302219 -5.2951469 -1.9515946
9.0113173 -5.5959663 0.92803437
9.0340786 -5.6122866 -1.6844865
9.032711 -5.6158066 -1.305952
9.0177202 -5.6086702 1.6819836
9.0344772 -5.6190925 -0.93082333
9.0147495 -5.6090045 2.0637903
9.0291576 -5.6201553 -0.55737799
9.0272179 -5.6211338 2.4551158
9.0246296 -5.6217089 -0.1855889
9.0306568 -5.6276503 2.8511508
4.8608456 -3.0373936 -1.5358323
9.0090036 -5.6316371 0.18544927
7.0898685 -4.4336834 -1.9305301
9.0011435 -5.631094 0.55643594
8.5116863 -5.3248906 -1.9515946
9.0153732 -5.6421857 0.9304747
9.0043869 -5.6374979 -1.6826093
9.0039444 -5.6394076 1.3044896
9.0096893 -5.6451955 -1.3054645
9.0047827 -5.64431 1.683235
9.0013027 -5.6421289 -0.92942882
9.0084219 -5.6487813 2.0668433
9.0061016 -5.6495161 -0.55716866
9.0223961 -5.6619334 2.4591649
9.0049505 -5.6531758 -0.1855889
9.0305891 -5.6714697 2.8573625
4.8289623 -3.0409601 -1.529103
8.9943676 -5.6662478 0.185554
7.082592 -4.4635997 -1.9327793
8.9865017 -5.6656752 0.55674994
8.5013514 -5.3598051 -1.9535027
9.0006781 -5.6768088 0.93099761
8.9980192 -5.6773272 -1.6851122
8.997633 -5.6792793 1.3064394
8.9983206 -5.6819096 -1.3066832
9.0050659 -5.6883678 1.6869894
8.9899759 -5.6788354 -0.93030041
9.0168629 -5.6980209 2.0733306
8.9964552 -5.6873221 -0.55779672
9.0388136 -5.7163081 2.4690628
9.0020609 -5.6952662 -0.18593794
9.1299009 -5.7783761 2.8951499
4.7889576 -3.0391645 -1.5197855
9.0082989 -5.7190456 0.18625209
7.2841096 -4.626204 -1.9921664
9.0054426 -5.7216444 0.55915743
8.4776182 -5.3862891 -1.9523578
9.0144377 -5.7295671 0.93448383
8.9881487 -5.7150612 -1.6869894
9.0229778 -5.739419 1.3130203
9.0035543 -5.7292709 -1.3103393
9.0334806 -5.7505293 1.6960627
8.9969902 -5.7273002 -0.93308938
9.0051832 -5.7369347 -0.55957609
8.9905567 -5.732029 -0.18611246
4.7408872 -3.0319235 -1.5078799
9.0270214 -5.7752419 0.18705489
7.2613521 -4.6474004 -1.9903669
9.0325127 -5.7831993 0.56208825
8.395936 -5.3756218 -1.9378562
9.095048 -5.8254762 0.94494259
9.0097256 -5.7730436 -1.6948112
9.016921 -5.7820945 -1.315214
9.0071287 -5.7780352 -0.93622696
9.0411539 -5.8087749 -0.18757845
4.6977983 -3.0275242 -1.497527
7.2123313 -4.6515942 -1.9813689
8.4216623 -5.4336338 -1.9481598
10.365245 -6.6927543 -1.9541795
11.357868 -7.3421121 -1.1832263
22.299927 -14.426468 -1.3919272
38.725414 -25.071772 -0.80525404
4.6645188 -3.0291741 -1.4902802
7.1813436 -4.6671839 -1.9773197
8.4536695 -5.4961724 -1.95999
10.429575 -6.7859921 -1.9707617
11.040758 -7.1891446 -1.6176938
22.17749 -14.457323 -1.3874264
38.520428 -25.130316 -0.80281073
4.6215868 -3.0242815 -1.4799274
7.0606718 -4.6238952 -1.9485261
8.3720284 -5.4847646 -1.9454886
8.9950323 -5.8974013 -1.7035716
10.882818 -7.1405215 -1.5981947
22.086824 -14.508331 -1.3849143
38.399052 -25.242651 -0.80211264
4.5529408 -3.0021114 -1.4612924
7.1550922 -4.7214985 -1.9791193
8.3528309 -5.5139542 -1.9454886
11.073096 -7.320787 -1.6298808
11.650943 -7.7057438 -1.2220978
22.042706 -14.589749 -1.3853329
4.4330163 -2.9452887 -1.426093
7.1369452 -4.7453661 -1.9786695
8.3858423 -5.5778718 -1.9577004
10.501002 -6.9900661 -1.9979812
10.859137 -7.233932 -1.6020945
11.557656 -7.7021713 -1.2151253
21.93515 -14.628926 -1.3817741
4.3938127 -2.9414012 -1.4167756
39.399666 -26.385735 0.82769781
7.0410061 -4.7171025 -1.9566242
8.3712139 -5.6103888 -1.9588453
9.9532042 -6.6756749 -1.8981761
10.998642 -7.3824248 -1.6264684
11.67626 -7.8402071 -1.2304648
21.824274 -14.665303 -1.3780059
37.410191 -25.148085 -0.78682435
4.3530884 -2.9361949 -1.4069405
7.0301719 -4.7436957 -1.957974
8.4410658 -5.7000041 -1.9798342
10.620143 -7.1741691 -2.0298939
11.271765 -7.6200871 -1.670585
11.506906 -7.7849035 -1.215474
11.708996 -7.9246058 -0.74097258
36.885078 -24.98247 -0.77760947
4.3321419 -2.9430151 -1.403317
7.0006776 -4.7594423 -1.9543748
8.3847799 -5.70257 -1.9710571
10.165551 -6.9188805 -1.9476093
10.759461 -7.3286042 -1.5984384
11.635797 -7.9284778 -1.2318592
21.677742 -14.782011 -1.3750751
36.577366 -24.951387 -0.77286232
4.3011179 -2.9439342 -1.3965876
6.9961119 -4.7903371 -1.9575242
8.3939743 -5.7517786 -1.9779261
10.549884 -7.2317719 -2.0258267
21.727386 -14.921655 -1.3813554
4.2722449 -2.9450235 -1.390376
7.0338864 -4.8523531 -1.9728208
8.3215322 -5.742784 -1.9653327
10.553832 -7.2887607 -2.0314584
10.790979 -7.4581041 -1.6106254
11.394734 -7.8783245 -1.2119877
12.63194 -8.7402477 -0.80503178
36.168831 -25.044487 -0.76790589
4.2508316 -2.9522049 -1.3867525
6.9881015 -4.8568563 -1.9647225
8.2837048 -5.759469 -1.961135
10.403472 -7.2386813 -2.0073674
10.452099 -7.2779331 -1.5638275
11.687595 -8.1412554 -1.2461528
11.909926 -8.3023005 -0.7608602
35.799099 -24.973797 -0.76190227
4.2230892 -2.9548426 -1.3810586
6.9040608 -4.8342752 -1.9458266
8.2410383 -5.7725806 -1.9557924
10.386229 -7.2806225 -2.0089316
10.361627 -7.2687726 -1.554078
11.134233 -7.8165636 -1.1901989
12.582056 -8.836257 -0.8057645
35.816414 -25.172195 -0.76413614
4.1964426 -2.9591677 -1.3758821
6.9269538 -4.8864288 -1.9570743
8.2855835 -5.8491683 -1.9714386
10.333659 -7.3004041 -2.0039258
10.892159 -7.7035198 -1.1671896
13.663039 -9.6703911 -0.87725538
35.933964 -25.442665 -0.76853418
4.1750631 -2.9659665 -1.3722585
6.8804092 -4.8914595 -1.9489759
8.1323233 -5.7836146 -1.9397644
10.39341 -7.3971376 -2.0205078
10.960958 -7.8068357 -1.6523046
12.230667 -8.7208281 -0.78723752
37.082199 -26.450478 -0.79506189
4.1489749 -2.9692793 -1.3670822
6.9164395 -4.951684 -1.9638227
8.2461424 -5.9080129 -1.9718202
10.042892 -7.1979604 -1.9569954
11.022114 -7.9056158 -1.6654665
11.313981 -8.1209393 -1.2184372
13.668282 -9.8144236 -0.88186091
36.362808 -26.12933 -0.78158855
4.1171641 -2.9672081 -1.3598353
6.8106012 -4.9119606 -1.9386281
8.2440195 -5.9479613 -1.9760182
10.036923 -7.2468481 -1.9607497
11.105474 -8.0242624 -1.6822846
11.540502 -8.3416576 -1.2458042
13.611284 -9.8456879 -0.88039553
4.0958385 -2.9736168 -1.3562119
6.8139091 -4.9505949 -1.9444768
8.2962599 -6.0297976 -1.9935726
10.313494 -7.5014453 -2.019882
11.032458 -8.0302687 -1.67546
11.458162 -8.3431883 -1.2400519
12.908565 -9.4061871 -0.83706135
4.0838742 -2.9867558 -1.3556943
6.8091683 -4.9835577 -1.9480762
8.2117977 -6.0123281 -1.9783077
10.322301 -7.5630856 -2.0267651
11.122825 -8.1555929 -1.6934966
11.342369 -8.3226585 -1.2308134
13.204104 -9.6922836 -0.85841441
36.212902 -26.601023 -0.78431118
4.0666795 -2.9971189 -1.3536236
6.8670201 -5.0628033 -1.9696715
8.1976061 -6.0482144 -1.9802158
10.26273 -7.5774012 -2.0205078
10.88192 -8.0375109 -1.6610793
11.404576 -8.4297047 -1.2407491
13.467155 -9.9615326 -0.87788337
35.962296 -26.610703 -0.78089052
4.0530906 -3.0089931 -1.3525884
6.7170177 -4.9903173 -1.9318796
8.1717167 -6.0732789 -1.979071
10.290109 -7.6532607 -2.0311453
10.884236 -8.1010447 -1.6659541
11.375081 -8.4694624 -1.2407491
12.612301 -9.3974953 -0.82429141
35.712223 -26.628769 -0.77757448
4.047204 -3.0265939 -1.3541414
6.5965843 -4.9366708 -1.9021862
8.1819 -6.1252985 -1.9867034
10.200093 -7.641757 -2.0186305
10.587472 -7.937747 -1.6247622
11.560625 -8.6705017 -1.2642812
13.352556 -10.021739 -0.87495255
35.497536 -26.661993 -0.77492172
4.0613031 -3.0593002 -1.3624235
6.758266 -5.0945683 -1.9539249
8.1338205 -6.1337261 -1.9802158
10.097672 -7.6201997 -2.0036128
11.003251 -8.3096237 -1.693009
11.353829 -8.5774927 -1.2449325
12.954245 -9.793664 -0.85108739
4.0567551 -3.0781288 -1.3644941
6.6706004 -5.0650964 -1.9336793
8.1530085 -6.192956 -1.9901379
10.050567 -7.6398602 -1.9995456
10.721391 -8.1556873 -1.6540109
11.981812 -9.1177845 -1.3172718
12.780149 -9.7323399 -0.84187627
4.0542011 -3.097429 -1.3670822
6.7807121 -5.1842456 -1.9705712
8.0840836 -6.1829848 -1.9783077
10.026746 -7.6743484 -1.9998584
10.825089 -8.2913837 -1.6742412
11.225676 -8.6044283 -1.2374372
12.448249 -9.5449753 -0.82209331
4.0489445 -3.1169813 -1.3691529
6.6838312 -5.147243 -1.9476261
8.0738096 -6.2221608 -1.9813608
9.9703941 -7.6893311 -1.9942267
10.827515 -8.3533697 -1.679116
11.34951 -8.768734 -0.75164908
4.0410924 -3.1334634 -1.370188
6.7495999 -5.2374129 -1.9723709
8.0566921 -6.2539167 -1.9825056
9.9419317 -7.7228761 -1.9939139
10.685432 -8.3034153 -1.6615667
12.727126 -9.8970985 -1.4105284
12.021826 -9.3553667 -0.79833275
4.0413384 -3.1551685 -1.3738115
6.7030177 -5.2369714 -1.9638227
8.0513783 -6.2926898 -1.9863218
9.8991528 -7.7424154 -1.9904724
10.723501 -8.3901806 -1.6718037
12.794102 -10.024648 -0.85182011
4.0460415 -3.1804914 -1.3789879
6.6978674 -5.2688093 -1.9674219
8.0381804 -6.3254247 -1.9882298
9.8672152 -7.7703104 -1.9892209
10.248236 -8.0761566 -1.6020945
11.220178 -8.8484507 -1.250162
12.580462 -9.9247599 -0.83978289
4.0434437 -3.2024963 -1.3820938
6.6763797 -5.2897367 -1.9665221
8.0810938 -6.4072924 -2.0046394
9.7690334 -7.751173 -1.9751418
10.555827 -8.3784504 -1.6547421
11.943617 -9.493576 -0.7995888
4.0850973 -3.2587562 -1.4002111
6.64324 -5.3032284 -1.9624729
8.0801563 -6.4526129 -2.0099821
9.7851257 -7.8197551 -1.9839021
10.255294 -8.2013559 -1.6123315
12.105299 -9.6912374 -0.81267279
4.0857453 -3.2826755 -1.4043522
6.5830874 -5.2910466 -1.9498757
8.066762 -6.4881611 -2.0122719
9.8930397 -7.9598951 -2.0111217
10.342459 -8.327445 -1.6303681
11.747478 -9.4654865 -1.3198866
12.00934 -9.6799383 -0.80838126
4.0883551 -3.3071411 -1.4090109
6.5979018 -5.3409686 -1.9597737
8.0898304 -6.5533533 -2.0237205
9.829895 -7.965775 -2.0039258
10.396268 -8.4367723 -1.1713731
11.956726 -9.7100401 -0.80722988
4.0836935 -3.3282061 -1.4115992
6.6568093 -5.4291611 -1.9831684
8.1265965 -6.6326146 -2.038985
9.9046831 -8.0867023 -2.0252008
10.314887 -8.4276161 -1.6354867
10.630576 -8.6917353 -1.2013547
11.992163 -9.8119774 -0.8120448
24.41713 -19.985189 -0.55076301
4.0819192 -3.351733 -1.4152226
24.314224 -19.971926 0.54922724
6.6187987 -5.4386778 -1.9777697
8.0609283 -6.6260352 -2.0282996
9.7407284 -8.0125189 -1.9976684
10.328325 -8.498888 -1.6423115
11.149254 -9.180934 -1.263584
11.635696 -9.5883169 -0.79016834
24.273157 -20.009247 -0.54908764
4.0439806 -3.3430941 -1.4059051
24.304876 -20.0996 0.55051869
6.5631881 -5.4295416 -1.9665221
8.1024361 -6.7053003 -2.0443277
9.797781 -8.1140728 -2.0148761
10.098303 -8.3659248 -1.6101379
11.137152 -9.2331142 -1.2656757
11.173438 -9.2697802 -0.7608602
6.4927387 -5.4076266 -1.9507756
7.9730644 -6.6429067 -2.0172329
9.72682 -8.1098347 -2.0058029
10.226034 -8.5321121 -1.6352429
10.760782 -8.9814653 -1.2262813
12.030186 -10.048098 -0.82146525
11.966166 -10.001719 -0.27222264
5.6970959 -4.7753496 -1.9918715
6.5260787 -5.4740896 -1.9665221
8.0024652 -6.7148657 -2.0305893
9.4306898 -7.9188995 -1.9504251
10.111081 -8.4962406 -1.6215936
10.880354 -9.1458931 -1.2435381
12.445205 -10.476124 -0.28395066
5.6479158 -4.7677922 -1.9804834
6.5113969 -5.5006089 -1.9678718
8.0824451 -6.8301954 -2.056921
9.5085754 -8.0410595 -1.972326
10.196527 -8.6289415 -1.6401178
10.227935 -8.6585865 -1.1724191
11.449229 -9.6993513 -0.7864002
5.6562595 -4.8087497 -1.9892832
6.5084834 -5.5371952 -1.9728208
7.983799 -6.794745 -2.0378401
9.5421076 -8.1267138 -1.9851536
10.025836 -8.5447321 -1.61745
11.983562 -10.22408 -0.82554746
5.62183 -4.8133874 -1.9830716
6.5261116 -5.5915785 -1.9840684
7.8676124 -6.7433591 -2.0141799
9.5256767 -8.1702614 -1.9876565
9.9748611 -8.5615759 -1.6140378
10.658643 -9.1581736 -0.73647165
5.6298661 -4.8544283 -1.9918715
6.4755697 -5.5875902 -1.9746205
8.0773554 -6.9721856 -2.0740941
9.5733385 -8.2693176 -2.0036128
10.024509 -8.665144 -1.6269559
10.415515 -9.0063038 -1.2046666
12.129377 -10.495685 -0.84062016
5.5822554 -4.8474507 -1.981001
6.4398456 -5.5960989 -1.9696715
7.937397 -6.8998737 -2.0443277
9.399848 -8.1769247 -1.9732646
10.419422 -9.0702448 -1.6961776
10.412561 -9.0674677 -1.2079786
12.070083 -10.518279 -0.83905017
5.5638466 -4.8656354 -1.9804834
6.41294 -5.6121278 -1.9674219
7.4568138 -6.5279474 -1.9264078
9.423254 -8.2552452 -1.984215
9.289072 -8.1434298 -1.516786
9.9494352 -8.72542 -1.1577768
11.389295 -9.9951792 -0.79414588
31.692862 -27.833059 -0.73624718
5.6149673 -4.9450369 -2.0048125
6.3874636 -5.6293254 -1.9656224
7.4575448 -6.5747094 -1.9325136
9.2847624 -8.1913805 -1.9610627
9.2129698 -8.1337633 -1.5089864
12.039756 -10.640643 -0.8420856
5.5606785 -4.9335308 -1.9918715
6.3619442 -5.6464128 -1.9638227
8.0205536 -7.1234841 -2.0851607
9.3580332 -8.3172159 -1.9829636
9.3655109 -8.3267889 -1.5387224
10.943591 -9.7366886 -1.281538
11.690402 -10.408451 -0.82031387
5.4843583 -4.9001384 -1.9706483
6.3586392 -5.6852794 -1.9692216
7.9927125 -7.1488204 -2.0843976
9.2627068 -8.2905474 -1.9688843
10.919701 -9.7873707 -1.2829325
11.725378 -10.513194 -0.82533813
5.4893355 -4.9408851 -1.9789305
6.3242722 -5.6944008 -1.9647225
7.9781246 -7.1885796 -2.0874505
9.2982759 -8.3839684 -1.9829636
9.7641163 -8.8070908 -1.6145252
10.206608 -9.2126751 -1.2029235
10.907154 -9.8519125 -0.77028066
5.4843736 -4.9694386 -1.9830716
6.2754841 -5.6902614 -1.9557245
9.239707 -8.3868752 -1.9763933
9.7832747 -8.8865004 -1.6228124
11.134501 -10.124513 -0.78870296
5.4113393 -4.9377685 -1.9628838
6.2757301 -5.7305288 -1.962023
9.1010227 -8.3191175 -1.9529281
12.094842 -11.075116 -0.85946119
5.4310546 -4.9906125 -1.9763422
6.3101983 -5.8025246 -1.9791193
9.2288933 -8.4953232 -1.9867179
10.087758 -9.2956839 -1.2001345
14.246793 -13.137359 -1.0156317
5.3980041 -4.9951077 -1.9706483
6.2255616 -5.7649336 -1.9588737
7.9157 -7.3325844 -2.0973725
9.0702477 -8.4079676 -1.9588726
9.4277191 -8.7454567 -1.5789393
9.9661608 -9.2481709 -1.1895015
11.601582 -10.773309 -0.82973433
5.3876014 -5.020505 -1.9732366
6.208252 -5.7892885 -1.9597737
7.8943624 -7.3641882 -2.0985174
8.8617887 -8.2724295 -1.9200768
10.026983 -9.3699636 -1.2006575
14.201413 -13.280151 -1.0189812
5.384131 -5.0525002 -1.9784129
6.206069 -5.8258481 -1.9651723
7.8428526 -7.3675051 -2.0916483
8.7349815 -8.2084322 -1.8984889
9.4749861 -8.9100599 -1.596976
14.171841 -13.340864 -1.0200279
5.3490906 -5.0530806 -1.9716836
6.1729493 -5.8354278 -1.9611233
7.8754354 -7.4474287 -2.1069131
9.0004063 -8.5172129 -1.9626271
9.7551603 -9.2379055 -1.6496235
10.139436 -9.6051626 -1.2219235
11.046489 -10.471739 -0.7977047
5.2936273 -5.0357709 -1.9577073
6.1680689 -5.8717203 -1.9660723
7.84797 -7.4735198 -2.1065314
8.9019785 -8.4831667 -1.9476093
17.684265 -16.881746 -1.281289
26.005505 -24.842718 -0.62776303
5.4001756 -5.1731572 -2.0037773
6.1137724 -5.8608494 -1.9552746
7.821835 -7.5008693 -2.1065314
8.7098312 -8.3582668 -1.9119422
9.7820663 -9.3937817 -1.6652229
9.9310951 -9.5435619 -1.2050152
11.358994 -10.919554 -0.82575679
25.933041 -24.947206 -0.62811214
5.3353047 -5.1486459 -1.9866952
6.1030922 -5.8916283 -1.9584239
7.756165 -7.4926581 -2.0962276
8.7686148 -8.4766293 -1.931653
9.1013613 -8.8013697 -1.5545654
10.70237 -10.356838 -1.3029783
17.57449 -17.018974 -1.2821264
25.558542 -24.759306 -0.62113112
5.2965178 -5.1470428 -1.9789305
6.1080012 -5.9397721 -1.966972
7.7187066 -7.5087352 -2.0931747
8.7106628 -8.4796286 -1.9253956
8.6908646 -8.4633083 -1.4894872
10.006919 -9.7517128 -1.2224464
17.460638 -17.027229 -1.2781489
25.15992 -24.543964 -0.61352193
5.2780399 -5.1632276 -1.9784129
6.1035886 -5.9749894 -1.971921
7.6937642 -7.5342894 -2.0931747
8.6373482 -8.4642239 -1.9153838
9.0922737 -8.9131432 -1.5633401
9.950346 -9.7611246 -1.2194831
13.989112 -13.73267 -1.027355
25.024172 -24.57402 -0.61219555
5.134254 -5.0559959 -1.9307902
6.0448761 -5.9568968 -1.9593236
7.6323853 -7.5239267 -2.0832527
8.8820496 -8.7619486 -1.9760804
8.5200396 -8.4107027 -1.4699881
10.25214 -10.127645 -1.260795
13.892352 -13.728445 -1.0235868
24.852924 -24.576851 -0.61010122
5.2103205 -5.1686568 -1.9665072
6.037879 -5.9916883 -1.9638227
7.6465497 -7.5933518 -2.0947013
8.8484755 -8.7930527 -1.9757676
12.760667 -12.694026 -1.5747299
13.819295 -13.756726 -1.021912
24.715975 -24.612658 -0.60884464
5.225049 -5.2195797 -1.9789305
6.0117426 -6.009644 -1.9624729
7.6213856 -7.6213856 -2.0950828
8.7576857 -8.7638025 -1.9623141
8.8706245 -8.8830175 -1.5414037
9.3915224 -9.4079275 -1.1630062
9.6100702 -9.6335812 -0.71312982
24.638384 -24.707281 -0.60905409
5.2013497 -5.232307 -1.9768599
5.9959021 -6.0336943 -1.9638227
7.6058025 -7.6590872 -2.0981357
8.6784754 -8.7423248 -1.9510508
9.846755 -9.9330606 -1.2236667
17.138746 -17.295002 -1.2760555
24.49852 -24.739141 -0.60772771
5.2029734 -5.2687707 -1.9841069
5.9802799 -6.0601358 -1.9656224
7.5596819 -7.6633019 -2.0924115
8.1292543 -8.246438 -1.8340379
8.6798658 -8.8172913 -1.0824744
17.095083 -17.371805 -1.2773116
24.339106 -24.750364 -0.60591269
5.1822753 -5.2864256 -1.9835893
5.9359026 -6.0573125 -1.957974
7.6263223 -7.7877436 -2.1187432
8.5466146 -8.7336121 -1.9354074
8.564908 -8.7553606 -1.5038677
8.6183939 -8.8161907 -1.0786394
17.008965 -17.411484 -1.2756367
24.048582 -24.626297 -0.60081655
5.1705289 -5.3114042 -1.9861774
5.9027905 -6.067853 -1.9543748
7.6374154 -7.8537269 -2.1294286
8.016346 -8.2491484 -1.821836
8.8411551 -9.1042681 -1.5582215
9.5340319 -9.8211927 -1.1975199
16.910534 -17.432045 -1.2728106
23.991568 -24.748732 -0.60165429
5.1063056 -5.2821956 -1.9685777
5.9045911 -6.1122465 -1.962023
7.5731325 -7.8422079 -2.1191249
8.4182205 -8.7234144 -1.9200768
8.9994822 -9.3322649 -1.5918574
8.7820282 -9.1099529 -1.1070522
16.838499 -17.47946 -1.2719731
23.888388 -24.815039 -0.60123539
5.1507144 -5.3654885 -1.9929067
5.8602858 -6.1089144 -1.9543748
7.5769644 -7.901186 -2.127902
8.3959208 -8.7613029 -1.921954
9.3320608 -9.7449923 -1.656692
10.03992 -10.495169 -0.7611742
23.742392 -24.827637 -0.59962976
5.07197 -5.3205118 -1.969613
5.8803263 -6.1706362 -1.9678718
7.5452771 -7.9233212 -2.1267571
7.8233786 -8.2182283 -1.7971194
8.9371195 -9.3947449 -1.5921013
9.835619 -10.346482 -1.2489418
16.694365 -17.567612 -1.2700891
23.110289 -24.336145 -0.5858075
5.0662541 -5.3499265 -1.9742718
5.8426771 -6.174139 -1.9624729
7.5041203 -7.9326105 -2.1225593
16.616491 -17.608347 -1.268833
5.0144629 -5.3323951 -1.9613309
5.8528709 -6.2261381 -1.9728208
7.3527188 -7.8271117 -2.0874505
7.9782071 -8.4959278 -1.8459269
8.7493515 -9.3236332 -1.569921
9.3111296 -9.9292278 -1.190896
16.536154 -17.640038 -1.2671584
23.624922 -25.219658 -0.60319006
5.0498772 -5.4077559 -1.982554
5.7701826 -6.183434 -1.9525751
7.3923125 -7.92451 -2.1065314
7.9672184 -8.5467863 -1.85062
9.0100889 -9.672286 -1.6230561
12.328723 -13.239456 -1.5827483
16.501322 -17.732693 -1.269461
23.611311 -25.391016 -0.60521454
5.06775 -5.4650135 -1.9970479
5.7975717 -6.2564259 -1.9692216
7.3672733 -7.9531469 -2.1072946
8.1198349 -8.7716932 -1.8931701
12.285139 -13.285336 -1.583097
9.3311596 -10.097925 -0.7205615
23.50354 -25.452713 -0.6047259
5.052568 -5.4869337 -1.9986008
5.7717381 -6.2723222 -1.9678718
7.3474412 -7.9874845 -2.1095843
7.9394412 -8.6371021 -1.8581288
8.7422523 -9.5171251 -1.5867389
12.194219 -13.279708 -1.5773447
16.317707 -17.782713 -1.2648555
23.436176 -25.55818 -0.60528439
5.0438137 -5.5159416 -2.0027418
5.6551614 -6.1888518 -1.9354788
7.3195157 -8.0130835 -2.1095843
7.9159021 -8.6720581 -1.8596932
8.7731934 -9.61798 -1.5984384
9.5179386 -10.438098 -1.2358683
16.242081 -17.8248 -1.2638087
22.907911 -25.15782 -0.59390539
5.0037503 -5.5106311 -1.9944596
5.6649528 -6.2431908 -1.9462765
7.2255492 -7.9658751 -2.0905035
7.8404765 -8.6498737 -1.8490556
8.4450502 -9.3233967 -1.5445722
12.109236 -13.373378 -1.5783905
16.169043 -17.869539 -1.2629714
22.744852 -25.15457 -0.59195077
4.9676661 -5.5094123 -1.9877304
5.6548648 -6.2759566 -1.9503256
7.223978 -8.0202236 -2.0981357
7.8736691 -8.7476645 -1.8640733
8.800086 -9.783783 -1.6157439
9.3689051 -10.419842 -1.2259327
16.09589 -17.913984 -1.2621341
23.279476 -25.927183 -0.6082164
4.9548478 -5.5339155 -1.9903185
5.6861997 -6.3552027 -1.9687717
7.2116432 -8.062952 -2.1027153
7.7562032 -8.6778889 -1.843424
9.0237398 -10.103147 -1.663273
12.058043 -13.505148 -1.5839685
16.025282 -17.961121 -1.2615061
23.129477 -25.932608 -0.60654092
4.9329329 -5.5482903 -1.9892832
5.6107206 -6.3128462 -1.9498757
7.1104469 -8.0058737 -2.0813446
7.7536144 -8.7331057 -1.8496813
11.973815 -13.505411 -1.5790876
13.846065 -15.622638 -1.094031
4.891489 -5.5385537 -1.9799658
34.406231 -38.971325 0.90742046
5.5731764 -6.3148599 -1.9444768
7.2215371 -8.185463 -2.1217961
7.7348399 -8.7734537 -1.8524972
8.1201744 -9.2170124 -1.5082551
13.757141 -15.63189 -1.0913094
4.8647881 -5.5491815 -1.9773775
34.264713 -39.085175 0.90728086
5.606329 -6.3972955 -1.9638227
7.0918927 -8.0981503 -2.0924115
7.7091365 -8.8091755 -1.8540615
11.894976 -13.606676 -1.5811794
13.749687 -15.739367 -1.095287
4.9050045 -5.6346126 -2.0017066
34.178989 -39.276871 0.90881658
5.610981 -6.4501467 -1.9737206
6.9308896 -7.9702654 -2.0531049
7.657608 -8.8121758 -1.8490556
9.0994253 -10.482462 -1.2144281
15.715359 -18.116734 -1.2569004
4.8448796 -5.6049314 -1.9851422
5.5349298 -6.4077549 -1.9548247
7.1108866 -8.2351341 -2.1149271
7.6229296 -8.8343658 -1.8481169
11.819207 -13.712023 -1.5837941
15.652024 -18.171478 -1.2569004
4.8730979 -5.6775146 -2.0048125
5.4516315 -6.3560357 -1.9332294
7.0501499 -8.2226458 -2.1053865
7.6421714 -8.9194231 -1.8603188
8.3918743 -9.8013496 -1.5843016
11.784226 -13.768334 -1.5855373
15.578113 -18.213861 -1.2560631
4.838213 -5.676846 -1.9986008
5.4697013 -6.4200635 -1.9471762
7.0570393 -8.2890615 -2.1160717
7.4409938 -8.7431374 -1.8183944
8.5175095 -10.015121 -1.6142814
11.71287 -13.782056 -1.5823996
15.517628 -18.265419 -1.2560631
4.873034 -5.7562604 -2.0208592
5.429637 -6.4182882 -1.9408777
7.0155683 -8.295929 -2.1118741
7.419354 -8.7796192 -1.8205845
8.0137386 -9.4896965 -1.5250732
11.663248 -13.816256 -1.5818768
15.433168 -18.29505 -1.2543883
4.8156195 -5.7288713 -2.0053301
34.487118 -41.04192 0.93572819
5.4485626 -6.486443 -1.9557245
6.9562678 -8.2842827 -2.1027153
7.3962808 -8.8145437 -1.8224617
8.5825834 -10.235578 -1.6401178
11.563752 -13.795807 -1.5749043
15.335869 -18.309002 -1.2516668
4.80302 -5.7545447 -2.0084357
34.32827 -41.143627 0.93530935
5.4421144 -6.524878 -1.9615731
6.9247928 -8.3054981 -2.1019521
7.331326 -8.7993317 -1.8140143
7.9345927 -9.5301561 -1.5226357
11.567781 -13.898874 -1.5820509
15.264203 -18.353209 -1.2510388
25.31625 -30.461105 -0.69135964
4.7360611 -5.7147532 -1.9887657
34.212505 -41.297081 0.93607724
5.4454069 -6.5753531 -1.9710211
6.9220505 -8.3613768 -2.109966
7.2136855 -8.7198467 -1.7924262
8.0113163 -9.6909027 -1.5438409
8.6838179 -10.508131 -1.1926392
15.202588 -18.409458 -1.2512481
2.6685319 -3.2325876 0.9677394
2.6197002 -3.1756911 1.1030868
4.6927614 -5.7029066 -1.9789305
5.4360366 -6.6108785 -1.97597
6.8940687 -8.3870058 -2.1103475
7.3261399 -8.9189892 -1.8280934
2.6618116 -3.2416961 0.51501989
8.3111973 -10.125422 -1.6084318
2.6526701 -3.2328627 0.66234362
11.388425 -13.884245 -1.5710694
2.6183994 -3.1922324 0.80254269
4.7565012 -5.8009729 -0.39314777
2.6201715 -3.1966684 0.95424235
4.7361956 -5.7803221 -0.13043928
2.6012542 -3.175849 1.099981
4.6974902 -5.7514892 -1.9898008
5.4314132 -6.6524563 -1.9827186
6.7999864 -8.3346357 -2.0908849
2.6204963 -3.2130458 0.36274219
7.2160106 -8.8508558 -1.8086954
2.612849 -3.2048109 0.50770777
2.6214061 -3.2175992 0.65733767
4.7357535 -5.8148909 -0.65610844
2.5918076 -3.183538 0.79796326
2.6035182 -3.2002034 0.95244277
2.5974662 -3.1939027 1.1030868
4.6627836 -5.749846 -1.9835893
2.6016366 -3.209316 0.072113343
5.31743 -6.5617943 -1.9498757
2.6205418 -3.2337909 0.2181363
2.5992341 -3.2097869 0.36134771
2.6224706 -3.2396371 -0.66015351
2.5836024 -3.1927614 0.50429535
2.6117597 -3.2287097 -0.50990134
2.6076736 -3.2236586 0.656712
2.6070147 -3.2239943 -0.36274219
2.5732737 -3.1834044 0.79567355
2.5884075 -3.20327 -0.2158335
2.5751884 -3.1880486 0.94614416
2.6048274 -3.2247415 -0.072357684
2.5814469 -3.1969376 1.1010163
2.5884719 -3.2148113 0.072043538
2.5928364 -3.2213824 -0.9546923
2.5816929 -3.208684 0.2158335
2.5913272 -3.2218094 -0.80368757
2.5780265 -3.206418 0.35995319
2.5869575 -3.217526 -0.65389615
2.5655398 -3.1920283 0.50283301
2.5861189 -3.2187831 -0.50697654
2.5790873 -3.2111793 0.65233177
2.59325 -3.2299674 -0.36239356
2.5651615 -3.1949823 0.79643679
2.5752707 -3.2087209 -0.21562417
2.5524073 -3.1813707 0.94164515
2.5960574 -3.2369342 -0.072427489
2.5581877 -3.1908572 1.0958399
2.6001372 -3.2513118 -1.1155102
2.5672448 -3.2113314 0.07176429
2.5694096 -3.2151895 -0.95019323
2.5810134 -3.2297096 0.21667089
2.5757275 -3.2242489 -0.80216104
2.5723524 -3.2211766 0.36065045
2.5781751 -3.229624 -0.65452182
2.5519049 -3.197861 0.5023455
2.569916 -3.2215834 -0.50600159
2.5487149 -3.1950064 0.64732587
2.5601652 -3.2105098 -0.35925597
2.5515456 -3.2008464 0.79567355
2.5665438 -3.2208142 -0.2158335
2.5388584 -3.1872122 0.94074529
2.5653741 -3.2204993 -0.071869008
2.5475926 -3.1993227 1.0958399
2.5743563 -3.242213 -1.1092985
2.5615556 -3.2260914 0.071903922
2.5563107 -3.2206399 -0.94929349
2.5548267 -3.2199242 0.21541482
2.559577 -3.2270672 -0.80063456
2.5437629 -3.2082794 0.35821009
2.5551782 -3.222677 -0.65139318
2.5412867 -3.2063055 0.5023455
2.5542874 -3.2238643 -0.50502658
2.535094 -3.2007871 0.64670014
2.5464694 -3.2163026 -0.35890734
2.5336053 -3.2000549 0.79338378
2.5384963 -3.2073824 -0.2143681
2.5089293 -3.1711614 0.93354684
2.5367503 -3.2074766 -0.07138034
2.5244279 -3.1930416 1.0906636
2.558239 -3.2451108 -1.1072279
2.5323858 -3.2134695 0.071415246
2.5396657 -3.2238643 -0.94749385
2.5405366 -3.2261283 0.21520546
2.5385799 -3.2236435 -0.79758167
2.5202248 -3.2014844 0.35646698
2.5262475 -3.2102873 -0.64701301
2.5123355 -3.1937554 0.49893317
2.5473623 -3.2394464 -0.50600159
2.5062549 -3.1883152 0.64232004
2.5327647 -3.2220395 -0.35855874
2.5097294 -3.1938825 0.78956765
2.5143859 -3.2009583 -0.21332137
2.4996965 -3.1834016 0.93444669
2.5274465 -3.2198987 -0.071450152
2.5079379 -3.196193 1.088593
2.5421333 -3.2479355 -1.1051573
2.5186889 -3.2191398 0.071345441
2.5259957 -3.2296398 -0.94659406
2.516958 -3.2192423 0.21415874
2.522475 -3.2262986 -0.7960552
2.5114882 -3.2134016 0.35681561
2.5101616 -3.2128599 -0.64576155
2.498728 -3.1993768 0.49844566
2.523823 -3.2326715 -0.50356412
2.5072634 -3.2126167 0.64544868
2.5165989 -3.2245784 -0.35786149
2.5082266 -3.2150071 0.7926206
2.5081103 -3.2160153 -0.21374007
2.5005507 -3.2074766 0.93894571
2.5038998 -3.2129288 -0.071101107
2.5276344 -3.2445517 1.1020516
2.5260389 -3.2506878 -1.1030868
2.5025299 -3.2215955 0.071205825
2.5003641 -3.2199671 -0.94119519
2.5032561 -3.2248535 0.21394941
2.5015666 -3.2226772 -0.79300219
2.51247 -3.2378895 0.35855874
2.4965098 -3.2184806 -0.64513582
2.4972763 -3.2206299 0.5003956
2.4954979 -3.219496 -0.50015181
2.5153923 -3.2463324 0.65045458
2.4906838 -3.2144439 -0.35576975
2.5090106 -3.239264 0.79643679
2.4834185 -3.2073796 -0.21258868
2.4964962 -3.2254319 0.94164515
2.4877739 -3.2153225 -0.070961483
2.511565 -3.2472422 1.099981
2.5099561 -3.2533672 -1.1010163
2.5156932 -3.261981 0.071903922
2.48435 -3.222502 -0.93939561
2.5041759 -3.2493916 0.21499613
2.4831119 -3.222059 -0.79071248
2.5084476 -3.2561102 0.3596046
2.4900806 -3.2334354 -0.64638728
2.4932842 -3.2387648 0.501858
2.4963508 -3.2439191 -0.50258923
2.5016363 -3.2519619 0.64982885
2.4940259 -3.242069 -0.35786149
2.5144432 -3.2697904 0.80177945
2.489249 -3.2381971 -0.21405408
2.5018454 -3.2557595 0.94794375
2.4838448 -3.2335024 -0.071170911
2.5190399 -3.2805054 1.1082631
2.4915364 -3.252907 -1.0979104
2.4969978 -3.2612159 0.071694486
2.4849303 -3.2466292 -0.94389462
2.5122364 -3.2834926 0.21667089
2.4837794 -3.2462993 -0.79452866
2.5019081 -3.2711768 0.36030185
2.4835782 -3.2483852 -0.6476388
2.4940176 -3.2632201 0.50429535
2.5018845 -3.2746973 -0.50600159
2.4998615 -3.2732334 0.65233177
2.4851122 -3.2539213 -0.35821009
2.5196929 -3.3003938 0.80712205
2.4973176 -3.27227 -0.21572883
2.5117412 -3.2923608 0.95604193
2.4992204 -3.2771344 -0.07193882
2.5052311 -3.2862058 1.1072279
2.4988756 -3.2861881 -1.1061926
2.4952798 -3.2826478 0.071973726
2.4877307 -3.2739034 -0.94929349
2.5055919 -3.2986038 0.21708956
2.4866831 -3.2737105 -0.79910809
2.497704 -3.2894106 0.36134771
2.4841671 -3.272769 -0.65076745
2.5018106 -3.2972081 0.50819516
2.4976358 -3.2929003 -0.50746399
2.5122902 -3.3134208 0.65858912
2.4905915 -3.2848029 -0.36065045
2.5105288 -3.3122988 0.80788535
2.5003538 -3.3000705 -0.21698491
2.5167058 -3.3228574 0.96234065
2.4877658 -3.2858384 -0.07193882
2.5100672 -3.3164964 1.1144749
2.4967017 -3.3072259 -1.1103338
2.5078969 -3.3232617 0.072671816
2.4809818 -3.2887897 -0.95109308
2.4988725 -3.3137083 0.21750826
2.4917896 -3.3043156 -0.80445075
2.4910038 -3.3044732 0.36204496
2.4774833 -3.2877312 -0.6520189
2.4878974 -3.3027503 0.50770777
2.4980674 -3.317456 -0.50990134
2.5125887 -3.3379526 0.66171783
2.4934888 -3.3125787 -0.36274219
2.4960225 -3.3183548 -0.21761292
2.5027134 -3.329669 -0.072706729
2.4828248 -3.312829 -1.1092985
4.2108259 -5.6205425 0.1225857
2.476496 -3.3067889 -0.95379245
4.2085238 -5.6215577 0.36802649
2.4896526 -3.3255665 -0.80750376
2.4872909 -3.3248301 -0.65765053
2.4888496 -3.3293359 -0.51038885
2.4962227 -3.3404145 -0.36483395
4.3522239 -5.8283343 -0.38121516
4.3040714 -5.7680497 -0.12562242
2.4920025 -3.3493738 -1.1186159
4.222209 -5.6769252 0.12349322
2.4812157 -3.3373075 -0.96009105
4.1733875 -5.6153746 0.36666575
4.3588018 -5.8648529 -1.4203823
4.3495002 -5.8566065 -1.1554251
4.2893901 -5.8222413 -0.88794011
4.2984071 -5.8408818 -0.38006377
4.289762 -5.8333988 -0.12639034
4.3134103 -5.8827486 -1.9546015
4.2690411 -5.8371782 -0.88794011
4.2766557 -5.8497329 -0.63397086
4.2567849 -5.8268209 -0.37817967
4.2693734 -5.8483372 -0.12639034
4.27807 -5.8774648 -1.9478723
4.2801576 -5.8846493 -1.6799345
4.2763658 -5.8815937 -1.4135132
4.2623882 -5.8666744 -1.148542
4.2346444 -5.832768 -0.88501525
4.2456779 -5.8501134 -0.63240206
4.2211761 -5.8206253 -0.37681893
4.2090364 -5.8081512 -0.12520356
4.2518702 -5.8845329 -1.945284
4.2424788 -5.8758545 -1.6731859
48.269943 -66.854111 4.321485
4.2259355 -5.8550954 -1.403591
4.2384176 -5.8767104 -1.1476034
4.2014914 -5.8297992 -0.88233411
4.2089272 -5.8422661 -0.62996167
4.1903305 -5.8207364 -0.37587687
4.1862488 -5.8172073 -0.12509885
4.2144146 -5.875792 -1.9375196
4.219564 -5.8851399 -1.6718361
4.1928945 -5.8522549 -1.3993932
4.2005033 -5.8650374 -1.1425974
4.1763597 -5.835629 -0.88111544
4.1780772 -5.8423371 -0.62839293
4.1663594 -5.8281007 -0.37545818
4.1508069 -5.8106313 -0.12464508
4.1803374 -5.8692794 -1.9307902
4.1865659 -5.8823686 -1.6668873
4.1734638 -5.8661275 -1.3993932
4.1708479 -5.866785 -1.1400945
4.1513653 -5.8436985 -0.88014042
4.1448374 -5.8366661 -0.62630117
4.1402111 -5.834465 -0.37493482
4.1212449 -5.8120351 -0.12436585
4.1520176 -5.8727932 -1.9271667
4.1592603 -5.8873963 -1.6641879
48.028072 -68.008507 4.3633537
4.1416373 -5.8646231 -1.3955771
4.1275644 -5.8490281 -1.1338371
4.128654 -5.8549089 -0.87965298
4.1152549 -5.8380713 -0.62490666
4.1071677 -5.8309193 -0.37378344
4.0894227 -5.8100333 -0.12401681
4.1359305 -5.8935761 -1.9292372
4.1207819 -5.8763504 -1.6569895
47.902733 -68.336006 4.3736115
4.1166329 -5.8726139 -1.3940506
4.1048565 -5.8601642 -1.1332114
4.1047764 -5.8644061 -0.87892181
4.0834293 -5.8360758 -0.62316358
4.0776343 -5.8321257 -0.37294605
4.0691171 -5.8242726 -0.12401681
4.1109166 -5.9016366 -1.9271667
4.0891113 -5.8747048 -1.6524904
4.0893807 -5.8772788 -1.3917608
4.0730991 -5.8582392 -1.1300827
4.0684237 -5.8558755 -0.87550944
4.0687151 -5.8584757 -0.62403512
4.0515575 -5.83812 -0.3724227
4.0635753 -5.8598032 -0.12447057
4.0891924 -5.914361 -1.926649
4.0641494 -5.8825297 -1.6506908
4.0554523 -5.8721318 -1.3871815
4.0548687 -5.8756728 -1.1307085
4.0558467 -5.8814802 -0.87721562
4.0584183 -5.8874068 -0.62560391
4.0651431 -5.9015708 -0.37556285
4.0601029 -5.8986597 -0.12499414
4.0586843 -5.9142628 -1.9219903
4.0413866 -5.8934655 -1.649791
4.0415907 -5.8959684 -1.3894712
4.0533113 -5.9174967 -1.1360272
4.0588374 -5.9300027 -0.88233411
4.0558429 -5.9278469 -0.62839293
4.0704446 -5.9536462 -0.37797031
4.0575366 -5.9392152 -0.12555261
4.0445404 -5.9379745 -1.9250962
4.0503955 -5.9510341 -1.6619384
4.0463853 -5.9473743 -1.3982484
4.0537329 -5.962647 -1.1419717
4.0648856 -5.9835429 -0.88818389
4.059751 -5.97823 -0.63222772
4.0687027 -5.9959145 -0.37974975
4.0602703 -5.9857354 -0.12625071
4.0346079 -5.968061 -1.9302725
4.0459146 -5.9870377 -1.668237
4.0563636 -6.007019 -1.4089336
4.0184646 -5.9531345 -1.1375916
4.0650015 -6.0266123 -0.89257115
