# .PCD v0.7 - Point Cloud Data file format
VERSION 0.7
FIELDS x y z
SIZE 4 4 4
TYPE F F F
COUNT 1 1 1
WIDTH 1560
HEIGHT 1
VIEWPOINT 0 0 0 1 0 0 0
POINTS 1560
DATA ascii
2.4308865 8.3183718 -2.3221245
2.6871102 9.1832504 -2.2090194
14.479817 49.45303 2.7005355
3.03478 10.364707 -2.0992808
3.8735495 13.21226 -2.1806967
6.7242684 22.906137 -2.9312017
8.4022217 28.603592 -2.6082227
9.8991861 33.656246 -1.8385623
2.4621003 8.3172464 -2.3241951
2.7202551 9.1775522 -2.2099192
3.092711 10.427458 -2.1141639
6.7244029 22.614237 -2.8968344
8.4702034 28.467144 -2.5984612
11.692021 39.245163 -2.1460884
12.554569 42.086681 -0.76661444
2.4866815 8.2937975 -2.3200541
2.754518 9.1754656 -2.2117188
3.1409545 10.456082 -2.1221778
3.983901 13.245429 -2.1907084
6.791275 22.550713 -2.891716
8.4919081 28.179874 -2.5749292
10.120063 33.540421 -1.8360502
10.145286 33.581631 -0.61233515
2.5076776 8.2693052 -2.3153951
2.787291 9.1798201 -2.2148681
15.135272 49.816071 2.7285876
3.1573353 10.385502 -2.109966
3.9921458 13.123235 -2.1725621
6.8690338 22.55205 -2.8946409
8.4888268 27.835209 -2.5459936
11.974051 39.214336 -2.1488099
2.5408044 8.2692928 -2.3179834
2.8226395 9.1751289 -2.2162178
3.2317913 10.492064 -2.1340079
3.9413104 12.787598 -2.1193743
6.9048223 22.374973 -2.8751419
8.5190287 27.571672 -2.5247276
12.134234 39.223606 -2.1517408
2.5745428 8.2709913 -2.3210893
2.8516083 9.1498394 -2.2126186
3.2362471 10.377636 -2.113019
6.9580159 22.271156 -2.8649049
8.5486078 27.328793 -2.5052047
12.279426 39.207699 -2.1532061
10.209486 32.578529 -0.59592986
2.6048563 8.2716227 -2.3236775
2.8860393 9.1533413 -2.2157679
3.293087 10.437996 -2.1275203
4.0292988 12.756003 -2.1187487
6.9642363 22.034075 -2.8373623
8.6271715 27.2623 -2.5017183
12.433496 39.24292 -2.157393
10.221992 32.243313 -0.59041494
2.6264057 8.2445316 -2.318501
2.9145987 9.1381521 -2.2144182
3.3055952 10.357816 -2.1134005
4.0866055 12.789614 -2.1265705
7.0102544 21.913204 -2.8249316
8.6579981 27.047585 -2.4846358
12.58308 39.262337 -2.1607425
10.231847 31.887552 -0.58455092
2.6563566 8.2389908 -2.3195364
2.9458785 9.1260681 -2.2139683
3.331475 10.314454 -2.1069131
4.0953617 12.664378 -2.1081111
15.438719 47.713802 6.1575708
7.0341239 21.726181 -2.8039701
8.6866522 26.81439 -2.4659846
10.240547 31.535927 -0.57875675
2.6809075 8.2168112 -2.3159127
2.9795344 9.1212864 -2.215318
3.3845401 10.355013 -2.1175983
4.1899242 12.803952 -2.1337664
15.423583 47.104977 6.0859118
7.0190525 21.424194 -2.7681406
9.2133512 28.088644 -2.5862596
11.027254 33.55933 -0.61659354
2.7097919 8.2032614 -2.3148775
3.0076883 9.0997267 -2.2126186
3.4126 10.312717 -2.1114926
4.2256403 12.754759 -2.1281347
7.068192 21.322308 -2.7581472
9.3389492 28.139515 -2.5939291
11.158834 33.564281 -0.61739635
2.7451441 8.2139082 -2.3205717
3.0397818 9.0849476 -2.2117188
3.4647799 10.349147 -2.1214147
7.0806112 21.100536 -2.7327986
9.4307833 28.087854 -2.592186
14.531798 43.230347 -2.3901834
10.278263 30.558884 -0.56277031
2.7694707 8.1914654 -2.3169482
3.071763 9.0803547 -2.2130685
3.5040359 10.346286 -2.1233225
4.3003154 12.690153 -2.1221902
7.1231265 20.996103 -2.7223177
9.5338907 28.069859 -2.5935805
14.686655 43.215954 -2.3920674
11.416089 33.553703 -0.61865294
2.7947428 8.1767521 -2.3153951
3.1059625 9.0769529 -2.2148681
3.5465908 10.358756 -2.1282835
4.3830142 12.787185 -2.1409624
7.0462527 20.533625 -2.6655266
9.6450329 28.090853 -2.5984612
14.855607 43.217304 -2.3949983
11.550034 33.581852 -0.6198746
2.8213766 8.1614685 -2.3138423
3.1322265 9.0555534 -2.2121687
3.5853009 10.353733 -2.1298101
4.6860194 13.524785 -2.2670486
7.135119 20.570162 -2.673326
9.7665663 28.124771 -2.6047366
15.017185 43.220631 -2.397929
10.610781 30.504307 -0.56374764
2.8509731 8.1593637 -2.3159127
3.1612413 9.0372066 -2.2103691
3.6072955 10.306579 -2.1225593
4.7528014 13.564271 -2.2764347
7.2239585 20.593836 -2.6796634
9.8743019 28.133585 -2.6085713
15.19179 43.23579 -2.4016974
10.727157 30.495377 -0.56427121
2.8807266 8.1530046 -2.3169482
3.1960149 9.0353031 -2.2126186
3.6635537 10.351297 -2.1343896
4.5454593 12.828886 -2.1556673
7.2745705 20.508623 -2.6718638
9.9884329 28.144011 -2.6127548
10.850959 30.506735 -0.56517875
2.9085205 8.1410789 -2.3164306
3.2354124 9.0461102 -2.2180173
3.695698 10.327354 -2.1320999
4.6248598 12.909642 -2.1719363
7.3789473 20.574667 -2.6838069
10.100065 28.146481 -2.616241
10.968894 30.50066 -0.56577212
2.9388838 8.1363297 -2.3179834
3.2643211 9.0274296 -2.2162178
3.7223666 10.288548 -2.1267571
4.6591349 12.863701 -2.1669304
7.3627605 20.306175 -2.6521208
10.222722 28.178478 -2.6225164
12.226598 33.628876 -0.62458676
2.9619679 8.1115026 -2.3138423
3.3004944 9.0287933 -2.219367
3.7690501 10.304991 -2.132863
4.6333718 12.654447 -2.1343923
7.3570871 20.071596 -2.6248221
10.333364 28.176294 -2.6256537
11.20914 30.498421 -0.5671683
2.9942765 8.11199 -2.3169482
3.3306422 9.0135603 -2.2184672
3.7947893 10.26415 -2.1271389
4.6919179 12.677098 -2.1409624
7.3926082 19.952728 -2.6126354
10.457978 28.211039 -2.6322777
11.332253 30.504095 -0.56800604
3.019875 8.0942469 -2.3148775
3.3641241 9.0073586 -2.2198169
3.8347158 10.261876 -2.1294286
4.7506661 12.699499 -2.1475327
7.426712 19.831989 -2.6002045
10.594146 28.27511 -2.6416905
11.460446 30.522387 -0.5690881
3.0556107 8.1035395 -2.3205717
3.3983006 9.0028524 -2.2216165
3.8802269 10.274139 -2.1347711
4.8096399 12.721641 -2.1541028
7.4474063 19.677843 -2.5833867
10.725217 28.323675 -2.649709
11.583245 30.525196 -0.56989092
3.0728669 8.0639429 -2.3122892
3.4345701 9.0036802 -2.224766
3.9034634 10.227517 -2.127902
4.9259324 12.892992 -2.1860156
7.4699612 19.531208 -2.5675435
10.82545 28.289783 -2.6500576
11.710484 30.538725 -0.57090312
3.1051638 8.063983 -2.3153951
3.4652753 8.9898195 -2.2243161
3.9645705 10.279774 -2.1416404
4.9744616 12.884933 -2.1875796
7.4193082 19.197639 -2.5270829
10.947122 28.311289 -2.6556354
11.868301 30.630049 -0.57338136
3.132591 8.0512943 -2.3148775
3.5015872 8.9903774 -2.2274654
4.014689 10.302457 -2.1492727
5.0596132 12.970547 -2.2051005
7.4472799 19.071774 -2.513921
11.056038 28.298883 -2.6580758
11.979532 30.599606 -0.57359082
3.1613853 8.0421076 -2.3153951
3.5343735 8.9817276 -2.2283652
4.0211363 10.213483 -2.1336262
5.022285 12.743299 -2.1694334
7.4569802 18.90163 -2.4949093
11.167927 28.293476 -2.6612134
12.099503 30.591076 -0.57421905
3.1951449 8.0453873 -2.3195364
3.572186 8.9856329 -2.2324142
4.056766 10.199383 -2.1336262
5.1047373 12.821123 -2.1857026
7.5023317 18.823854 -2.4880846
11.287278 28.306139 -2.6660941
12.221655 30.602779 -0.57519639
3.2109792 8.003705 -2.3107367
30.343311 75.633911 1.4224758
3.6041396 8.9791641 -2.2337639
4.0952697 10.192448 -2.1351528
5.0949111 12.673994 -2.1634889
7.5358171 18.727051 -2.478579
11.394944 28.288746 -2.6681859
12.343376 30.597019 -0.57589447
3.2440283 8.0091286 -2.3153951
3.6413207 8.9809752 -2.2373631
4.1105947 10.133329 -2.1256123
5.1458125 12.672604 -2.1663048
7.5301342 18.525925 -2.4554236
11.525152 28.326311 -2.6755071
12.479512 30.625978 -0.57725579
3.2675054 7.982883 -2.311254
3.674123 8.971817 -2.2382631
20.373951 49.726273 2.8163028
4.1491995 10.121828 -2.1263754
5.1937218 12.657313 -2.1669304
7.5585732 18.411379 -2.4437242
11.652744 28.355934 -2.6821308
12.625162 30.676533 -0.57903594
3.3027334 7.9892812 -2.3164306
3.7129407 8.9726963 -2.2418623
20.53212 49.617943 2.8142095
4.2062826 10.159889 -2.1374426
5.2408953 12.646408 -2.1681819
7.5864477 18.28821 -2.4310501
11.768462 28.355566 -2.6859655
12.742152 30.656279 -0.57948971
3.3298588 7.9759197 -2.3159127
31.509624 75.474144 1.4276068
3.7486815 8.974721 -2.2454615
20.746792 49.645477 2.8198614
4.2106748 10.07088 -2.1217961
5.2713661 12.601624 -2.1634889
7.596447 18.142103 -2.4149632
11.898171 28.387817 -2.6929381
12.863784 30.64665 -0.58015287
3.3540413 7.9594922 -2.3143599
3.7852905 8.9741488 -2.2486107
20.966568 49.683159 2.8261421
4.2982459 10.185283 -2.148891
5.3414598 12.645015 -2.1741264
7.6272545 18.038685 -2.404726
12.015526 28.403257 -2.6981676
12.9902 30.647585 -0.58102548
3.3795302 7.9424052 -2.3128071
3.8211772 8.9716377 -2.2513101
4.3345361 10.172028 -2.1492727
5.3816948 12.617207 -2.1725621
7.6683545 17.960829 -2.3979013
12.123997 28.383125 -2.7002592
13.122257 30.660892 -0.58214247
3.4079986 7.9323349 -2.3133247
3.8570883 8.9689865 -2.2540095
4.3909693 10.205525 -2.1595764
5.4374218 12.62556 -2.1772552
7.638279 17.718845 -2.3691401
12.234039 28.366247 -2.7026997
13.226182 30.637211 -1.7488585
13.260941 30.688322 -0.58353865
3.4395087 7.9292517 -2.3159127
3.8891506 8.9572544 -2.2544594
4.4218707 10.179333 -2.1572866
5.4869776 12.619182 -2.1794453
7.6826434 17.652039 -2.3637781
12.367988 28.403742 -2.7103693
13.393578 30.700495 -0.58465558
3.4563186 7.8924222 -2.308666
3.9282157 8.9614735 -2.2589586
21.561932 49.166092 2.8135812
4.4494944 10.145855 -2.1534703
5.5436945 12.628893 -2.1844511
7.7474127 17.63238 -2.364753
12.492711 28.418764 -2.7159472
13.447779 30.562418 -1.7499051
3.4861932 7.8856096 -2.310219
3.9649916 8.9601822 -2.2621078
4.4960117 10.155393 -2.158813
5.5965509 12.62933 -2.1878927
7.7598128 17.494541 -2.349885
12.611238 28.418686 -2.7201307
13.560859 30.529894 -1.7507427
3.5144832 7.8751569 -2.3107367
4.002605 8.9605198 -2.265707
4.5578656 10.198787 -2.1714065
5.6244659 12.573655 -2.1816354
7.8062344 17.434731 -2.3454976
12.734791 28.429045 -2.7253602
3.5419533 7.8628397 -2.3107367
4.0362592 8.9518232 -2.2670567
4.5684152 10.127337 -2.1595764
5.689455 12.600756 -2.18977
7.836802 17.340445 -2.3364792
12.829017 28.373528 -2.7243142
3.5693729 7.850431 -2.3107367
4.0723281 8.9483213 -2.2697561
4.6012907 10.105971 -2.1584315
5.7366848 12.588008 -2.1910214
7.8906894 17.298536 -2.3345292
12.916409 28.303194 -2.7218738
3.5959508 7.8361669 -2.310219
4.1141109 8.9570742 -2.2756047
4.6488385 10.116606 -2.1641557
5.7698569 12.544578 -2.186954
7.9111829 17.184332 -2.32283
12.99845 28.221745 -2.7183874
13.116199 28.451221 -1.6418837
3.6200364 7.8165531 -2.3081484
4.1502719 8.9532652 -2.2783043
4.6725621 10.07538 -2.158813
5.8244262 12.547651 -2.1910214
7.9577246 17.127813 -2.3189301
13.106968 28.197878 -2.7204792
13.178343 28.325594 -1.6372783
3.6456618 7.8003702 -2.3071132
4.1881075 8.9528437 -2.2819035
23.224052 49.62315 2.8713601
4.7176876 10.080348 -2.1633925
5.8547864 12.498621 -2.1860156
8.0039845 17.071171 -2.3150301
13.232401 28.209671 -2.7260573
13.348446 28.431284 -1.6460707
3.6769905 7.7963328 -2.3097014
4.2218227 8.9434595 -2.2832532
23.432964 49.617626 2.8757563
4.766263 10.09222 -2.1694984
5.9135656 12.510257 -2.1916471
8.0465517 17.00724 -2.3101556
13.419421 28.350607 -2.7441857
38.388893 81.029236 -4.6990366
3.700026 7.7747307 -2.3071132
4.2597218 8.9427423 -2.2868524
23.635225 49.596836 2.8793151
4.825109 10.125148 -2.1801836
5.9589033 12.493104 -2.1922729
8.0964565 16.959343 -2.3074741
13.607613 28.490564 -2.7623141
3.7271445 7.7617664 -2.3071132
4.2985077 8.9436264 -2.2909014
23.834162 49.590199 2.8835022
4.8383002 10.062241 -2.1702616
6.0144658 12.497148 -2.1966531
8.1328411 16.891264 -2.3018682
13.713894 28.457254 -2.7637086
3.7478132 7.7389312 -2.3040073
4.3340945 8.9415979 -2.2940509
24.045532 49.607933 2.8891544
4.8682175 10.039073 -2.168735
6.0645037 12.494904 -2.1997817
8.2018213 16.890987 -2.3055246
13.83258 28.46179 -2.7685893
3.7717588 7.7229896 -2.3029721
4.3705668 8.9411831 -2.2976501
4.9014797 10.022876 -2.168735
6.1024289 12.467628 -2.1985302
8.2307215 16.80843 -2.2979686
13.9602 28.483749 -2.775213
3.7999113 7.7156377 -2.3045249
4.4019184 8.9301348 -2.2985499
4.9503226 10.03826 -2.1756043
6.155983 12.472121 -2.2029104
8.2618103 16.731203 -2.2911439
14.079305 28.487309 -2.7800937
3.8281631 7.7016597 -2.3045249
4.4424291 8.9296446 -2.302599
4.9748321 9.9954433 -2.1702616
6.2148633 12.475998 -2.2076035
8.3614187 16.770422 -2.3008933
14.233417 28.53536 -2.7898552
3.851562 7.6813407 -2.3024545
4.4796939 8.9262753 -2.3057485
4.9920774 9.9429255 -2.1626294
6.2654738 12.468347 -2.2101064
8.4074163 16.716305 -2.2974811
14.356227 28.531773 -2.7943873
3.8722463 7.6557832 -2.2988307
4.5196242 8.9279699 -2.3102474
5.0542498 9.9797344 -2.1744595
6.3187799 12.465783 -2.2135479
8.4675169 16.690393 -2.2979686
14.468366 28.506353 -2.7968276
3.8971927 7.6387773 -2.2977955
4.5587358 8.9277611 -2.3142962
5.0935225 9.9707718 -2.1763675
6.3793383 12.477069 -2.2194924
8.5004101 16.611254 -2.2911439
14.602265 28.523079 -2.8034515
3.9291315 7.6354361 -2.3009014
4.5934429 8.9187222 -2.3160961
5.1534681 10.001801 -2.187053
6.4346266 12.477548 -2.2235599
8.5638008 16.592064 -2.2926061
14.721861 28.510881 -2.8072865
3.9548721 7.6199584 -2.3003838
4.6299353 8.9130106 -2.3187954
5.1919732 9.9907179 -2.1885793
6.4899888 12.477795 -2.227627
8.628087 16.574394 -2.2943125
14.869142 28.551212 -2.8163507
3.9805529 7.6043949 -2.2998662
4.6691604 8.9123287 -2.3228445
5.1930971 9.9081926 -2.1744595
6.5426841 12.472555 -2.2307556
8.6784964 16.530121 -2.2923627
14.992808 28.544989 -2.8208828
4.0007582 7.578496 -2.2962427
4.7075276 8.9097595 -2.3264439
5.223062 9.8813286 -2.1725514
6.5981936 12.472339 -2.234823
8.8002415 16.620775 -2.3091805
15.129669 28.562904 -2.8278553
4.0244656 7.5593667 -2.2946897
4.7486734 8.9121943 -2.3313928
5.2519836 9.8526392 -2.1702616
6.6435418 12.452722 -2.2354488
8.8451195 16.565435 -2.305768
15.212362 28.478292 -2.8247175
4.0526547 7.5486779 -2.2957251
4.7800479 8.8998308 -2.3322923
5.3030744 9.8653746 -2.1771307
6.7007079 12.460196 -2.2407675
8.8906002 16.518534 -2.3033309
15.239877 28.291708 -2.81147
4.0795021 7.5385966 -2.2967603
4.8203683 8.9002256 -2.3367915
5.3404336 9.8563662 -2.1790388
6.7677064 12.48014 -2.2485893
8.9160089 16.42808 -2.2950437
16.4193 30.240585 -3.0105333
41.838276 76.992409 -4.5922713
4.105794 7.5243096 -2.2967603
4.8616791 8.9021597 -2.3417406
5.3531594 9.7980375 -2.1702616
6.8263898 12.484174 -2.2535954
8.977107 16.403824 -2.2960186
16.471174 30.085226 -3.000772
42.141304 76.908958 -4.5960393
4.1245856 7.4963903 -2.2926192
4.9002419 8.8987923 -2.3453398
5.4015403 9.8050833 -2.1759858
6.882328 12.482756 -2.2576625
9.0976067 16.487101 -2.3121052
16.551064 29.982195 -2.9962401
4.1488514 7.4785686 -2.2915838
4.9388447 8.8952608 -2.3489389
5.4080858 9.7363987 -2.1649189
6.9287357 12.463837 -2.2586012
9.1705494 16.482998 -2.3160052
16.647863 29.910315 -2.9948456
4.1815348 7.475842 -2.2952073
4.973671 8.8847704 -2.3507385
5.4823318 9.789402 -2.1809468
6.9837875 12.460255 -2.2623556
9.2144375 16.426645 -2.312593
16.752163 29.852024 -2.9948456
4.2085485 7.4628859 -2.2957251
5.0094452 8.8758383 -2.352988
5.4884706 9.7206326 -2.1698802
7.0359893 12.451276 -2.2651713
9.2805128 16.409933 -2.3147867
16.87393 29.824574 -2.9979832
4.2336206 7.4464693 -2.2952073
5.0500331 8.8752375 -2.357487
5.5340257 9.7218885 -2.1744595
7.0862513 12.438657 -2.2673614
9.342658 16.386059 -2.3160052
16.93252 29.685884 -2.9899647
4.2509441 7.4165602 -2.2905486
5.091651 8.8761473 -2.3624361
5.5669537 9.7008076 -2.174078
7.1345496 12.422408 -2.2689257
9.3255939 16.224274 -2.2977247
17.069815 29.685318 -2.9958913
4.2739058 7.3966594 -2.2889957
5.1265078 8.8650665 -2.3642356
5.6263399 9.7255001 -2.1839998
7.1749024 12.392298 -2.2679873
9.4807043 16.36166 -2.3218548
17.171343 29.622101 -2.995543
4.3045616 7.3900409 -2.2915838
5.1633043 8.8572235 -2.366935
5.6523447 9.6922321 -2.1809468
7.213129 12.358652 -2.2664227
9.5017204 16.266758 -2.3130803
17.270597 29.555113 -2.9948456
4.3322835 7.378305 -2.2926192
5.1941929 8.8391438 -2.366935
5.7100191 9.7130642 -2.1901057
7.2552261 12.331694 -2.2661099
9.5654907 16.245468 -2.3147867
17.353443 29.46031 -2.9913595
44.37603 75.275475 -4.5795016
4.3589983 7.3647995 -2.2931368
5.2319655 8.8326979 -2.3700843
5.7238703 9.6592941 -2.1824734
7.3052793 12.318189 -2.2683001
9.6312628 16.227341 -2.3169801
17.466339 29.416689 -2.9931026
4.3787427 7.3395824 -2.290031
5.273757 8.8327837 -2.3750331
5.7676225 9.6561089 -2.1862895
7.3411412 12.280742 -2.2661099
9.7000742 16.214066 -2.319905
17.564831 29.3487 -2.9924054
4.4013476 7.3192878 -2.2884779
5.2924967 8.7942858 -2.3696344
5.755724 9.5602312 -2.169117
7.3798895 12.248273 -2.2648585
9.7689104 16.20051 -2.32283
17.669235 29.290613 -2.9927537
4.4308777 7.3104868 -2.2905486
5.3201332 8.7707596 -2.3682847
5.8511901 9.6424627 -2.1923954
6.6166615 10.895344 -2.0189433
9.8336449 16.179884 -2.3247797
17.736172 29.170879 -2.9868271
4.4583812 7.2982731 -2.2915838
5.3441062 8.7447548 -2.3660352
5.8827629 9.6186314 -2.1916323
7.4764867 12.219663 -2.2689257
9.9162741 16.194584 -2.3316045
17.864964 29.152956 -2.9913595
4.4785075 7.2768693 -2.2895133
5.3705125 8.719408 -2.3642356
5.904326 9.5823565 -2.1878161
6.694818 10.856778 -2.020195
9.938345 16.104122 -2.323561
17.93432 29.049477 -2.9868271
4.4998093 7.2546239 -2.2874427
5.4019423 8.7022657 -2.3646853
5.9491339 9.5800333 -2.192014
7.5595284 12.163815 -2.2683001
10.046924 16.153612 -2.335748
18.033504 28.98332 -2.9864788
4.5210085 7.2323217 -2.2853725
5.4312549 8.6817026 -2.3642356
5.9554567 9.5159407 -2.182092
7.579926 12.102195 -2.26173
10.112726 16.133589 -2.3379416
18.134571 28.920189 -2.9864788
9.7022848 15.460787 -0.95659673
4.5524063 7.2263012 -2.2884779
5.4542456 8.6511564 -2.3610861
6.02739 9.5565329 -2.1962116
7.6273875 12.08402 -2.263294
10.05131 15.911898 -2.3108869
10.110395 15.999268 2.9975975
18.220491 28.833145 -2.9840384
4.5755339 7.2071037 -2.2874427
5.4781423 8.6221933 -2.3583868
6.0501842 9.5188656 -2.1923954
7.6727061 12.062319 -2.2642329
10.094033 15.850575 2.9763224
9.2263336 14.488034 -1.5027393
9.653264 15.146768 -0.94131458
4.5975356 7.1862092 -2.2858899
5.5113611 8.6079416 -2.3597367
6.068543 9.4745474 -2.187053
7.7158341 12.037124 -2.2645457
9.5887136 14.947433 -2.1804864
10.136502 15.79529 2.972568
9.7320347 15.165026 -1.5764731
9.7341433 15.156671 -0.94403601
4.6163135 7.1603742 -2.2827842
5.542429 8.5902891 -2.3601866
6.1058397 9.4599018 -2.1885793
7.7610168 12.015097 -2.2654841
9.5912619 14.837181 -2.1692746
9.7882442 15.136122 2.8549292
9.6875353 14.980391 -1.5607851
9.7194204 15.006711 -0.31208393
4.6465406 7.152318 -2.2853725
9.7309933 14.972984 0.31169999
5.5670724 8.5627193 -2.3579369
9.7483139 14.988182 0.93702304
6.115273 9.4023266 -2.1801836
9.7890911 15.045133 1.5703722
6.9666948 10.703214 -2.0226979
9.114253 13.991909 -2.0503302
9.8323946 15.08862 2.8524265
9.1512947 14.043416 -1.4664824
9.7258463 14.902357 -0.31061792
4.6714807 7.1360536 -2.2853725
9.7470493 14.883717 0.31054813
5.5947905 8.5399761 -2.3570371
9.7578793 14.88891 0.93294084
6.1642003 9.405551 -2.1859078
9.7847462 14.924225 1.561308
7.847959 11.965576 -2.2664227
9.7998371 14.935868 2.1934047
9.6641054 14.723398 -2.1624498
9.8286219 14.968346 2.8361573
9.715333 14.795815 -1.5485833
9.415204 14.333285 3.3334334
9.8772421 15.025224 4.1512465
9.7448406 14.818196 -0.30957079
9.9040709 15.054601 4.8285279
4.6974268 7.121315 -2.2858899
9.7934351 14.84126 0.3103736
5.6213441 8.5155172 -2.3556874
9.800992 14.841425 0.93210351
6.2088976 9.4019957 -2.1901057
9.8159132 14.858396 1.557996
7.8885932 11.93646 -2.2661099
9.8300209 14.86845 2.1885297
9.7351484 14.719378 -2.166837
9.8524742 14.891109 2.8280227
9.780117 14.781748 -1.550675
9.4803543 14.323251 3.3387761
9.501544 14.34984 -0.90195799
9.8790474 14.914298 4.1301012
9.8108692 14.805758 -0.31002453
9.9042559 14.941041 4.803164
4.7211857 7.1032672 -2.2853725
9.8529358 14.818638 0.31061792
5.6564331 8.5039539 -2.3579369
9.8534689 14.813831 0.93241745
6.2079616 9.3295975 -2.1782756
9.8677225 14.824039 1.557996
7.9323983 11.912142 -2.2667358
9.8851604 14.839004 2.189261
9.8018856 14.708431 -2.1702495
9.8908434 14.841919 2.824894
9.85707 14.785649 -1.5546842
9.5106821 14.260673 3.3319068
9.5526876 14.318243 -0.90206259
9.9234724 14.86838 4.1269522
9.8721218 14.791441 -0.3104085
9.9483891 14.900079 4.8005757
4.7438035 7.0835314 -2.284337
9.9420824 14.845695 0.31187451
5.6856885 8.4867668 -2.3583868
9.9384747 14.829123 0.93555766
6.2579856 9.3339605 -2.1843815
9.8927774 14.749789 1.5538126
7.974061 11.88905 -2.2673614
9.9575377 14.840761 2.1943796
9.8837986 14.725289 -2.1775615
9.9447975 14.810582 2.8255196
9.5601072 14.232317 3.3326702
9.6034632 14.291458 -0.90237665
9.99121 14.862881 4.1346006
9.9830894 14.839612 4.7922935
4.7629447 7.0613561 -2.2822666
5.7054639 8.4523335 -2.3543377
6.3317504 9.3766127 -2.1992648
8.0099812 11.852961 -2.2657971
10.113791 14.960497 2.2172909
9.3279533 13.792882 -2.0444803
10.011929 14.798684 2.8298998
15.52403 22.94615 -2.4238012
9.5613155 14.127318 3.3158789
9.6689644 14.281005 -0.90384203
9.8764362 14.576477 -0.30733687
4.7908201 7.0494819 -2.2838194
5.7163053 8.4049711 -2.3466892
6.3567095 9.343092 -2.1965933
8.0479746 11.820028 -2.2648585
9.3939238 13.786488 -2.0483801
10.103582 14.822405 2.8411632
15.556908 22.822674 -2.4164801
9.7457647 14.286767 -0.90635419
4.8143086 7.0311198 -2.2833018
5.7301817 8.362464 -2.3403907
6.3670864 9.2884569 -2.1889608
8.1025858 11.811416 -2.2686129
10.540789 15.354159 -2.2867565
9.9020643 14.412983 3.3990717
9.8204679 14.288872 -0.90865701
4.8399215 7.0158615 -2.2838194
5.7538042 8.3343906 -2.3381412
6.3726969 9.2274046 -2.1798022
8.1437693 11.783059 -2.2686129
10.54689 15.248703 -2.2765195
9.9500837 14.375098 3.3983085
9.8952951 14.290629 -0.91095972
4.8588643 6.9909949 -2.2812312
5.7828631 8.3142548 -2.3381412
6.4272871 9.2373381 -2.1874344
9.8285789 14.120424 1.5051796
8.1893673 11.761041 -2.2698643
10.180988 14.615853 2.1870675
9.7034788 13.925142 -2.0839658
15.765421 22.616022 -2.411948
9.9656925 14.285484 -0.91284388
10.200324 14.610966 -0.3110368
4.8810239 6.9708261 -2.280196
5.8040204 8.2828474 -2.3349919
6.4854136 9.2518196 -2.1962116
9.8640785 14.066458 1.5030879
7.6155028 10.855893 -2.1002893
10.580098 15.070715 -2.26092
10.038469 14.28329 -0.91493726
9.9068727 14.090833 3.9766848
4.9053254 6.9537468 -2.280196
5.8239088 8.2497997 -2.3313928
6.5357881 9.2547855 -2.2023175
7.7160568 10.917966 -2.1174972
10.676188 15.095286 -2.2701821
15.909119 22.485889 -2.4098563
10.132113 14.31011 -0.91891479
9.9019356 13.97983 3.9550893
4.9329276 6.9413042 -2.2817488
5.8481512 8.2230701 -2.3295932
6.5714693 9.2367115 -2.2034624
8.3292618 11.698779 -2.2745574
10.660856 14.962539 -2.2558017
15.987508 22.430222 -2.4098563
16.892691 23.682686 -1.5245465
4.9548802 6.9209003 -2.2807136
5.8734126 8.197854 -2.3282435
6.602531 9.2121201 -2.2030807
7.9175787 11.038799 -2.1515999
10.703758 14.912336 -2.2538519
16.078484 22.392084 -2.4117737
9.9268513 13.819761 3.3074834
16.965929 23.610605 -1.5237092
4.9722261 6.8941617 -2.2776077
43.14801 59.804188 1.2872198
5.9065571 8.1836214 -2.3300431
6.6564808 9.2192612 -2.2103314
8.4234581 11.657956 -2.2779989
10.758077 14.878096 -2.2543392
16.144876 22.319675 -2.4100304
17.045904 23.547998 -1.5234998
4.9951243 6.8752022 -2.2770901
5.9282098 8.1534977 -2.3273437
6.7151794 9.2324867 -2.2191086
8.0095634 11.004018 -2.1556673
10.811118 14.842055 -2.2545829
16.239111 22.28573 -2.4124711
17.13036 23.491577 -1.5237092
5.0247965 6.86552 -2.2796783
5.9462733 8.1186037 -2.3232944
6.772892 9.2438335 -2.2275043
8.0806351 11.020596 -2.1644275
16.356894 22.283512 -2.4183974
17.224073 23.447737 -1.5247558
9.8443804 13.396601 3.8381147
5.0475864 6.8463821 -2.2791607
5.9734173 8.0962305 -2.3228445
6.7981253 9.2106552 -2.2252147
8.4558792 11.44835 -2.254221
11.758886 15.914454 -2.4295874
16.510387 22.328814 -2.4295535
17.346214 23.442053 -1.5283147
5.0691128 6.828054 -2.2786431
6.0002308 8.0763788 -2.3228445
6.8380027 9.2006655 -2.2282674
8.1436691 10.949491 -2.161299
11.813969 15.878553 -2.4300749
16.811602 22.579178 -2.462847
17.643427 23.679094 -1.5475744
5.0882554 6.8065648 -2.2770901
6.0258155 8.0548754 -2.3223946
6.8861179 9.2015181 -2.2339919
8.2201967 10.97618 -2.1719363
11.885995 15.859455 -2.4334872
17.082785 22.77697 -2.490911
17.985559 23.971924 -1.5706023
5.1096802 6.7832417 -2.2755373
6.0562429 8.0369034 -2.3232944
6.9351621 9.1965961 -2.2389529
8.2758379 10.966478 -2.1760037
11.955625 15.836888 -2.4364121
17.355553 22.973143 -2.5189753
18.237103 24.122519 -1.5848376
5.1391673 6.7730575 -2.2781253
6.0750504 8.0006847 -2.3192453
6.9767251 9.1848383 -2.2420058
7.564549 9.9514933 -1.9798348
7.5884132 9.975668 -1.5389662
7.5963426 9.9824667 -1.0974652
7.6147666 9.9994421 -0.65870041
9.8137121 12.87768 4.338325
5.1604309 6.7520084 -2.2770901
6.0991802 7.9774008 -2.3183455
7.0290222 9.1869364 -2.2484932
8.4259319 11.008717 -2.1957142
12.063482 15.749885 -2.4359245
18.257294 23.819176 -2.6256537
9.8233128 12.797375 4.3227959
5.1827917 6.7348599 -2.2770901
7.6849165 9.9826708 0.21990032
6.1198568 7.9467959 -2.3156462
7.0630412 9.1682444 -2.2496383
8.4992867 11.024604 -2.2047877
12.12324 15.713963 -2.4368994
18.72263 24.250511 -2.6803877
7.7150726 9.9821396 -0.22021447
5.2027078 6.7097111 -2.2750194
7.7613759 10.009516 0.22108708
6.1559186 7.9361653 -2.3187954
7.1158643 9.1671028 -2.255744
8.4960089 10.93722 -2.1935244
12.192638 15.690353 -2.4398243
20.438751 26.283125 -2.912919
7.7658367 9.9756632 -0.22066824
5.2249069 6.6899872 -2.2745018
7.7906256 9.9715452 0.22087765
6.1813622 7.9089441 -2.3174458
7.1599064 9.1576805 -2.2595603
8.5584784 10.938614 -2.1997817
12.247614 15.642439 -2.439337
20.508263 26.183378 -2.9097815
9.7827148 12.471876 4.2472205
5.248229 6.6717072 -2.2745018
6.1979165 7.8761497 -2.3138466
14.100803 17.912497 1.1947253
7.208837 9.1542234 -2.2649028
8.5580368 10.863619 -2.1903956
12.306789 15.611094 -2.4407995
20.597061 26.108509 -2.9094329
9.8213978 12.431591 4.2451501
5.2679276 6.6512365 -2.2734666
6.2253742 7.854465 -2.3138466
14.163249 17.863163 1.1947253
7.242815 9.1348801 -2.2660477
8.6351986 10.883195 -2.2004075
12.356265 15.561823 -2.4398243
14.173398 17.837564 -1.9932518
14.180082 17.8396 -1.1943066
5.2898588 6.6288652 -2.2724314
14.264081 17.874706 0.39917144
6.2515364 7.8311658 -2.3133967
14.188124 17.766798 1.1915852
7.2737951 9.1052065 -2.2652845
8.6219873 10.785129 -2.186954
12.427873 15.540298 -2.4432368
5.3117547 6.6088557 -2.2719138
6.2814202 7.8097167 -2.3138466
14.25757 17.7265 1.1922132
7.2919979 9.062933 -2.2610867
8.6670179 10.764195 -2.1888313
12.492009 15.509188 -2.4451866
20.811827 25.820026 -2.9014146
5.3287783 6.5851984 -2.2698431
6.3036036 7.7843022 -2.3124969
14.371577 17.747421 1.1968188
7.3220053 9.0387068 -2.2610867
8.6728086 10.698568 -2.1813223
12.553364 15.480021 -2.4471366
20.859669 25.704466 -2.8961854
5.356689 6.5749788 -2.2724314
6.3256898 7.7588224 -2.311147
7.3507004 9.0128546 -2.260705
8.7494593 10.72025 -2.1916471
12.62993 15.463777 -2.451524
20.949841 25.641315 -2.8968825
5.3783841 6.5547457 -2.2719138
6.3465466 7.7291694 -2.3088977
7.3908415 8.9977579 -2.2633765
8.8407574 10.755268 -2.2051005
12.707795 15.448723 -2.4561551
21.013882 25.537273 -2.8933964
5.4024639 6.5374188 -2.2724314
6.3759732 7.7099695 -2.3097975
7.4334698 8.9855156 -2.2668109
8.8568344 10.698473 -2.1997817
12.709717 15.341596 -2.4461615
21.084469 25.432461 -2.8902588
5.4127898 6.5012436 -2.2667372
6.4040923 7.6891651 -2.3102474
7.4864631 8.9823427 -2.2729168
8.9136982 10.687179 -2.2041619
12.717413 15.242263 -2.437387
21.150116 25.331192 -2.8871212
34.304882 41.057289 -2.8039515
5.4391732 6.486753 -2.2682903
6.4309812 7.6641469 -2.3097975
7.5404902 8.9832239 -2.2797861
8.957304 10.663558 -2.2057261
12.734871 15.149964 -2.4300749
21.232573 25.241289 -2.8857265
34.239655 40.689732 -2.7869947
5.4629135 6.4667726 -2.2682903
6.4476309 7.6297464 -2.3061984
7.6037912 8.9915018 -2.2889447
9.0192957 10.657802 -2.2113578
12.765876 15.079659 -2.4259312
21.284475 25.12447 -2.8808458
34.233566 40.381157 -2.7744339
5.4829483 6.4447217 -2.2672548
6.4768167 7.6075449 -2.3066483
7.6542244 8.9873266 -2.2946692
8.9962234 10.55559 -2.1966531
12.808175 15.017668 -2.4234941
21.353144 25.019005 -2.8777082
34.283543 40.155075 -2.767107
5.5065341 6.4245815 -2.2672548
6.5046 7.5863714 -2.3070979
7.7062912 8.9815588 -2.3003933
9.063159 10.55552 -2.203536
12.878632 14.993947 -2.4269063
21.445547 24.950354 -2.8784056
34.328896 39.911053 -2.7589426
5.5230479 6.4052901 -2.2662196
6.5233073 7.5599985 -2.3052983
7.7549973 8.981082 -2.3064992
9.097024 10.53157 -2.2041619
12.955527 14.987957 -2.4325123
21.502964 24.858751 -2.8756168
34.318176 39.64595 -2.7480567
5.5414176 6.3791704 -2.264149
6.549695 7.5345654 -2.3048484
7.8290935 8.999999 -2.318711
9.1394501 10.502629 -2.2051005
13.027316 14.959835 -2.4356809
21.56776 24.749725 -2.8721304
34.310993 39.345276 -2.7359147
5.5660357 6.3602695 -2.2646666
6.5721335 7.5046439 -2.3030491
7.8928061 9.009532 -2.3282516
9.1896057 10.482427 -2.2079163
13.100385 14.932883 -2.4390934
21.643499 24.662312 -2.8707356
34.304443 39.061718 -2.7245054
5.5882015 6.3408031 -2.2646666
6.5918269 7.4769626 -2.3012493
7.9462862 9.0069561 -2.334739
9.2439203 10.474113 -2.2126093
13.173489 14.916136 -2.4434805
21.713631 24.568691 -2.868644
34.314739 38.813068 -2.715085
5.6117611 6.325129 -2.265702
6.6243582 7.4611926 -2.3034987
8.0008783 9.0084467 -2.3419898
9.2725554 10.43292 -2.2107322
13.246587 14.893789 -2.4473803
21.74995 24.445946 -2.8627174
34.341114 38.570721 -2.7065017
5.6209364 6.2910943 -2.2605255
6.6412683 7.427856 -2.3003495
8.0663071 9.018507 -2.3519118
9.3458023 10.441706 -2.2194924
13.330286 14.882946 -2.4532301
21.813873 24.346142 -2.8599286
34.416889 38.385178 -2.7018964
5.6363993 6.2642555 -2.2579374
6.6684618 7.4060745 -2.3007994
8.1450386 9.0428133 -2.3656502
9.3650026 10.389941 -2.2154253
13.383476 14.837808 -2.453474
21.869366 24.237295 -2.8560936
34.539932 38.252964 -2.7010589
5.6634216 6.2502675 -2.2600081
6.6824865 7.3697639 -2.2967501
8.2095318 9.0506783 -2.3751905
9.4131546 10.370359 -2.218241
13.464556 14.823323 -2.4588361
21.948462 24.154928 -2.8553963
34.69207 38.152847 -2.7025244
5.6826024 6.2276049 -2.2589729
6.7081728 7.3463907 -2.2967501
8.2728548 9.0567532 -2.3843493
9.4719582 10.362222 -2.2235599
13.541669 14.804064 -2.4634671
22.01651 24.060524 -2.8533049
34.919449 38.134636 -2.7098515
5.7069159 6.2105799 -2.2600081
6.7324586 7.3214941 -2.2963004
8.3416281 9.068284 -2.3950348
9.425127 10.238983 -2.2041619
13.599991 14.764002 -2.4646859
22.084167 23.965937 -2.8512127
5.719377 6.1806941 -2.2563846
6.7566485 7.2965202 -2.2958505
8.4039192 9.0722351 -2.4038119
9.4863224 10.233548 -2.2101064
13.663599 14.729534 -2.4668794
22.108057 23.82445 -2.8435433
5.7422328 6.162107 -2.2569022
6.7847371 7.2757387 -2.2967501
8.448926 9.0572023 -2.4076281
9.4909868 10.167158 -2.2029104
13.728479 14.696259 -2.469317
22.185648 23.741301 -2.8428459
5.7570992 6.1349797 -2.2543139
6.7980862 7.2392282 -2.2927012
8.4683943 9.0147734 -2.4041934
9.5034151 10.109501 -2.1975915
13.797373 14.667047 -2.4724853
22.235607 23.628893 -2.8386624
5.7784805 6.1148448 -2.2543139
6.8166986 7.2109818 -2.2909014
8.4944162 8.9794521 -2.402667
9.5015841 10.040628 -2.1894569
13.855494 14.631297 -2.4741914
22.296034 23.52799 -2.8358736
5.8027205 6.0998497 -2.255867
6.84586 7.1913757 -2.2922513
8.5187292 8.945549 -2.4011405
9.5420284 10.013119 -2.1907084
13.929769 14.607269 -2.4783351
22.327168 23.404911 -2.829947
5.8079391 6.0628176 -2.2496552
6.8723688 7.1714468 -2.2931509
8.541748 8.907258 -2.3988509
9.6121063 10.019907 -2.199156
14.009748 14.593936 -2.4839413
22.392176 23.309587 -2.8278553
5.8226495 6.0379605 -2.2475846
6.8932958 7.1432118 -2.2918015
8.5589695 8.866169 -2.3954163
9.7293634 10.071543 -2.2179282
14.084064 14.569202 -2.4880846
22.420761 23.17687 -2.8212314
5.8501239 6.0221229 -2.2496552
6.9100413 7.1107197 -2.2891018
8.5886679 8.8319254 -2.3946528
9.7427998 10.011742 -2.2126093
14.151446 14.537024 -2.4910095
22.518213 23.115583 -2.823323
5.8738132 6.004426 -2.2506905
6.9333291 7.082561 -2.2882023
8.6221952 8.8046951 -2.3954163
9.7790642 9.9790907 -2.2129223
14.210196 14.490725 -2.4919846
22.559683 22.997032 -2.8184423
5.8906717 5.9797564 -2.2491376
6.95678 7.0595288 -2.2882023
8.6335802 8.7549725 -2.3900738
9.8759193 10.011292 -2.2273142
14.287462 14.473186 -2.4971032
22.625824 22.903965 -2.8166993
5.898222 5.9478474 -2.2444789
6.9896169 7.0434995 -2.2909014
8.6169157 8.6803207 -2.3774803
9.8244934 9.8898668 -2.2079163
14.361676 14.447166 -2.5012465
22.680351 22.799416 -2.8135617
5.9227147 5.9289212 -2.2455142
7.00314 7.0080323 -2.2873023
8.6084156 8.6084185 -2.3664134
9.9878263 9.9808588 -2.2363873
14.423257 14.408166 -2.5031965
22.751331 22.711664 -2.8125157
5.9433727 5.9082122 -2.2455142
7.0273976 6.9809418 -2.2868524
8.6425905 8.5824699 -2.3675582
9.9777384 9.9014053 -2.2263756
14.49147 14.370584 -2.5058775
22.791962 22.58606 -2.8072865
5.9622393 5.8836737 -2.2444789
7.0433974 6.9481597 -2.284153
8.6781845 8.5548677 -2.3687029
10.105431 9.9548788 -2.246712
15.162475 14.93137 -2.6128788
22.859304 22.495173 -2.8058918
5.9765544 5.8608565 -2.2429259
7.0705743 6.9288583 -2.2855027
8.7036142 8.5261898 -2.3683214
10.226995 10.011523 -2.2667358
15.163665 14.833807 -2.6045918
22.872879 22.367535 -2.7989194
5.9886708 5.8318734 -2.23982
7.0947189 6.9041333 -2.2855027
8.7220631 8.484807 -2.3652685
10.355366 10.066638 -2.287385
15.158395 14.725462 -2.5948424
22.9594 22.295879 -2.7999654
6.0006609 5.8028746 -2.2367141
7.1103663 6.871202 -2.2828033
8.7530422 8.4556713 -2.3656502
10.383333 10.023572 -2.2858207
15.161131 14.625594 -2.5865552
23.019873 22.199009 -2.7978735
6.0320282 5.7925959 -2.2408552
7.1274881 6.8421884 -2.2810037
8.7683392 8.4114723 -2.3618338
10.416513 9.9890862 -2.2858207
15.159383 14.527171 -2.5780244
23.059814 22.082684 -2.7933416
6.0456147 5.7672257 -2.2387848
7.1470985 6.8132315 -2.279654
8.7862377 8.3728666 -2.3591626
10.47564 9.9758205 -2.2911394
15.195615 14.460485 -2.5755868
23.112703 21.986874 -2.7909012
6.0614972 5.7421055 -2.2372317
7.1750851 6.7922587 -2.2810037
8.7997189 8.3273077 -2.3549647
10.600821 10.024697 -2.3108501
15.266203 14.426437 -2.5789993
23.166142 21.884163 -2.7881122
6.0758777 5.7156162 -2.2351615
7.19591 6.7645044 -2.2801039
8.8230133 8.2911596 -2.3534384
10.763907 10.107984 -2.3386955
15.324087 14.385247 -2.5807054
23.187168 21.751371 -2.7814884
6.0905643 5.6914768 -2.2336085
7.2168765 6.7392759 -2.279654
8.860507 8.2712317 -2.3561096
10.938923 10.204287 -2.3693566
15.354289 14.318101 -2.5777805
23.212523 21.630899 -2.7759104
6.1122365 5.6738791 -2.2346439
7.2248998 6.7020516 -2.2751548
8.8792477 8.2337961 -2.3538198
11.146575 10.329072 -2.4069009
15.407077 14.267125 -2.5782681
23.299591 21.560558 -2.7773049
36.600399 33.833069 -0.87000245
6.131568 5.6501303 -2.2341261
7.2511182 6.6794295 -2.2760546
8.9079199 8.1998692 -2.3534384
11.373354 10.462005 -2.4475739
15.427565 14.18638 -2.5733933
23.3571 21.462925 -2.775213
6.1583786 5.6352153 -2.2367141
7.2769885 6.6541257 -2.2765048
8.9306946 8.1634235 -2.3519118
11.475439 10.482189 -2.461653
15.482393 14.132414 -2.5738807
23.411278 21.362455 -2.7727728
6.1594267 5.5967937 -2.229985
7.3001699 6.628685 -2.2765048
8.9504118 8.1242847 -2.349622
11.491473 10.423491 -2.457273
15.528685 14.07562 -2.5733933
23.4237 21.224411 -2.7654517
6.1846642 5.5804338 -2.2320557
7.3203707 6.6005497 -2.2756047
8.9874678 8.1008768 -2.3519118
11.492563 10.351583 -2.449764
15.557064 14.002741 -2.5699809
23.441357 21.091881 -2.7588279
6.2012272 5.5562348 -2.2310205
7.3317499 6.5645595 -2.2720056
9.0098381 8.0642204 -2.3503854
11.508013 10.292969 -2.4453838
15.614732 13.956283 -2.5714433
23.443518 20.946213 -2.7504609
6.2234721 5.5371208 -2.2320557
7.3589883 6.5428133 -2.2733555
9.0335312 8.0288048 -2.3492403
11.524669 10.235685 -2.4413166
15.65148 13.891148 -2.5694935
23.433027 20.790211 -2.7406993
6.2326241 5.5064135 -2.2284322
7.381784 6.5170836 -2.2733555
9.0467815 7.9842348 -2.3454244
11.544034 10.181019 -2.437875
15.693913 13.831182 -2.5685184
23.439684 20.65033 -2.7330298
6.2489038 5.4820743 -2.2273967
7.3956938 6.4835701 -2.2706561
9.0672121 7.9461384 -2.3435161
11.575042 10.136759 -2.4369364
15.721188 13.758009 -2.5651062
23.43965 20.505409 -2.7246628
6.2709169 5.4627647 -2.2284322
7.424161 6.4628301 -2.2724555
9.1067438 7.9247479 -2.3465691
11.568621 10.059995 -2.4281759
15.775101 13.708268 -2.5660813
23.438883 20.360754 -2.716296
6.285562 5.4370513 -2.2268791
7.4348831 6.4266787 -2.2688563
9.1269217 7.8864951 -2.344661
11.515455 9.9433784 -2.4097166
15.80783 13.640146 -2.5636437
23.440416 20.218943 -2.7082775
36.504536 31.454308 -0.84110129
6.3015738 5.4125586 -2.2258439
7.4531956 6.3994517 -2.2679565
9.1603575 7.8596997 -2.3461876
11.530372 9.8897076 -2.4059625
15.828864 13.566978 -2.5597439
23.441231 20.077396 -2.7002592
36.784264 31.472321 -0.84501064
6.3238955 5.3953948 -2.2273967
7.4754877 6.3733978 -2.2679565
9.1624622 7.8089061 -2.3400817
11.564821 9.8494005 -2.4059625
15.876127 13.511637 -2.5597439
23.428776 19.932409 -2.691195
37.003632 31.436937 -0.84752381
9.5240641 8.0884285 3.3480833
6.3323708 5.3645473 -2.2237732
7.4932284 6.3434844 -2.2666068
9.1926603 7.7794132 -2.3408449
11.587068 9.7987652 -2.4034593
15.908024 13.443335 -2.5573065
23.428202 19.791357 -2.6831765
9.4902058 8.0028334 3.3263423
6.3495817 5.3411655 -2.2232556
7.5123415 6.314784 -2.265707
9.210743 7.739697 -2.3385551
11.606071 9.7455587 -2.4003308
15.939649 13.374959 -2.5548692
23.423868 19.648003 -2.6748097
9.532897 7.9820576 3.3315189
6.3711543 5.3214445 -2.2242911
7.5253601 6.2810316 -2.2630076
9.2482586 7.716301 -2.3412266
11.630913 9.6973991 -2.3984535
15.970987 13.306534 -2.5524316
23.418823 19.504919 -2.6664429
46.153683 38.412903 -3.1469612
9.5547581 7.9437943 3.3294482
6.3896899 5.2991738 -2.2242911
7.5457406 6.25348 -2.2625577
9.2600164 7.6714487 -2.3374104
11.664695 9.6567373 -2.3984535
16.008911 13.248432 -2.5514567
23.434566 19.379875 -2.660516
9.5736036 7.9059138 3.3268602
6.4042439 5.2755003 -2.2232556
7.5619211 6.2247086 -2.2612078
9.2763071 7.6332159 -2.3351207
11.687503 9.6104717 -2.3965762
16.037418 13.182671 -2.5490193
23.424809 19.241348 -2.6521492
9.5952845 7.8704491 3.3253071
6.4157233 5.2493386 -2.2211852
7.5719595 6.1909647 -2.2580585
9.2985306 7.5999246 -2.3343573
11.71012 9.5641718 -2.3946991
16.058735 13.106522 -2.5451195
23.411541 19.093988 -2.643085
9.6391783 7.8503242 3.3310013
6.4259214 5.218483 -2.2180793
7.6041164 6.1730914 -2.2612078
9.3232727 7.5633216 -2.3335941
11.726689 9.5062513 -2.3909445
16.095131 13.042892 -2.5436573
23.416117 18.961988 -2.6361127
9.7461357 7.881011 3.3584361
6.4456034 5.1972313 -2.2185969
7.6039276 6.1268411 -2.2544594
9.3465605 7.5282655 -2.3328309
11.756718 9.4627914 -2.3903189
16.127363 12.971366 -2.5412197
23.416935 18.827719 -2.6287913
45.91991 36.894173 -3.0870891
9.7960501 7.8621626 3.3656831
6.4697399 5.1795282 -2.2206676
7.6222267 6.0978246 -2.2535596
9.3727846 7.4955916 -2.3328309
11.78968 9.4216919 -2.3903189
16.150824 12.897654 -2.5378075
23.412449 18.689919 -2.6209474
45.742386 36.489548 -3.0665734
9.8627148 7.8592238 3.3791416
6.4892883 5.1581192 -2.2211852
7.6510944 6.0772429 -2.2558093
9.3773613 7.445744 -2.3274884
11.819403 9.3780222 -2.3896933
16.186415 12.833793 -2.536345
23.416656 18.559811 -2.6141493
45.744236 36.230442 -3.0581994
46.151371 36.52673 -1.0273533
6.4905748 5.1222701 -2.2154911
7.6646118 6.0444627 -2.2535596
9.4032974 7.4129634 -2.3274884
11.84896 9.3342648 -2.3890674
16.215509 12.764948 -2.5339077
23.406139 18.418821 -2.6057823
45.791939 36.008801 -3.0529661
46.278599 36.365395 -1.0273533
6.5099344 5.1007752 -2.2160087
7.6795282 6.0128641 -2.25176
9.4213839 7.3740458 -2.3255801
11.87525 9.2879763 -2.387816
16.256844 12.705816 -2.5334201
23.398075 18.280575 -2.597764
45.781933 35.743069 -3.0439641
46.398949 36.211716 -1.0273533
6.5261769 5.0768328 -2.2154911
7.6855788 5.9766002 -2.2477109
9.4424171 7.3374972 -2.3244352
11.912223 9.2533951 -2.3890674
16.276937 12.634792 -2.5300076
23.408213 18.157274 -2.5918374
45.663471 35.407463 -3.0282633
6.539917 5.0528016 -2.2144558
7.6955957 5.941401 -2.2445617
9.4604797 7.3013496 -2.3229089
11.947577 9.2141733 -2.3896933
16.289499 12.553659 -2.5251331
23.400412 18.020754 -2.5839934
45.685509 35.169865 -3.0215642
46.336781 35.645512 -1.0204421
6.558394 5.0287962 -2.2144558
7.7302094 5.9251695 -2.2486107
9.4809437 7.2618484 -2.3213823
11.978132 9.1679163 -2.3890674
16.29538 12.467774 -2.5192833
23.398287 17.889341 -2.5768466
45.556992 34.805763 -3.0046077
6.5620728 4.9953423 -2.2097969
47.087715 35.832291 1.0328335
7.7456694 5.8920798 -2.2468112
9.4968576 7.221581 -2.3190925
12.010059 9.1260519 -2.3890674
16.340963 12.407969 -2.5192833
23.395519 17.758173 -2.5696998
45.5541 34.552372 -2.996443
6.571763 4.9665842 -2.2072091
7.7630806 5.8626556 -2.2459114
9.5220051 7.1883883 -2.3190925
12.016613 9.0650358 -2.3840616
16.37784 12.34607 -2.5183084
23.385765 17.622437 -2.5618558
45.556355 34.304253 -2.9886975
6.596787 4.949409 -2.2097969
7.7663455 5.8226652 -2.2409625
9.5501842 7.1574597 -2.3198559
12.035533 9.0135641 -2.3815587
16.420834 12.288828 -2.5183084
23.389698 17.497738 -2.5555806
45.576633 34.070885 -2.9822078
6.6140246 4.9263501 -2.2097969
7.7881875 5.7966809 -2.2414124
9.5656614 7.1170454 -2.3175662
12.057414 8.9644232 -2.3796813
16.409449 12.191185 -2.5100212
23.396255 17.375591 -2.549654
6.6265197 4.8997884 -2.2082443
7.8099375 5.7706227 -2.2418623
9.5809698 7.0766158 -2.3152766
12.085451 8.9199371 -2.3790557
16.445518 12.129115 -2.5090463
23.389416 17.244152 -2.5423331
45.74263 33.699749 -2.977602
6.6326823 4.8686242 -2.2046208
7.8284636 5.7421718 -2.2414124
9.5992823 7.0384822 -2.31375
12.100577 8.866024 -2.375927
16.46533 12.055222 -2.5056341
23.394791 17.122412 -2.5364063
45.750374 33.459686 -2.9704845
6.6527557 4.8477221 -2.2056561
7.8500361 5.7159553 -2.2418623
9.6237879 7.0049381 -2.31375
12.105895 8.8051367 -2.3709211
16.488045 11.983665 -2.5027092
23.386721 16.991451 -2.5290854
45.464439 33.007618 -2.9444211
6.6696386 4.8244677 -2.2056561
7.8547378 5.6796131 -2.2378132
9.6450005 6.9689999 -2.3129869
12.128623 8.760314 -2.3696697
16.508375 11.914984 -2.4997842
23.390944 16.87009 -2.5231586
45.823139 33.036552 -2.9605405
6.6777568 4.7966871 -2.2030678
7.8760943 5.6533022 -2.2382631
9.6616783 6.9323964 -2.3114603
12.139858 8.7041187 -2.3659151
16.52405 11.838784 -2.4958844
23.404335 16.755857 -2.5182779
45.642586 32.664837 -2.9414904
6.6905718 4.7688174 -2.201515
7.8862596 5.618988 -2.2355635
9.6710272 6.8855538 -2.3076441
12.171685 8.6595573 -2.3659151
16.549095 11.76953 -2.4934471
23.410713 16.637121 -2.5127001
45.481907 32.298439 -2.9234869
6.6992931 4.7398529 -2.1989267
7.9099817 5.5922971 -2.2364633
9.688592 6.847218 -2.3061175
12.185698 8.6056299 -2.3627865
16.562923 11.688198 -2.4890597
23.435709 16.525948 -2.5088651
45.516026 32.084232 -2.9184625
6.7245259 4.7208185 -2.201515
7.9294558 5.5646501 -2.2364633
9.7104073 6.8094101 -2.3053544
12.204216 8.5518379 -2.3602834
16.59387 11.623474 -2.4875972
23.450811 16.414343 -2.504333
45.525284 31.84165 -2.9115543
6.7377377 4.6985655 -2.2009974
7.9366755 5.5305238 -2.233314
9.7301397 6.7777505 -2.3049729
12.21157 8.4999094 -2.3565292
16.61277 11.554775 -2.4846723
23.463007 16.313286 -2.5001495
45.68087 31.737204 -2.915113
6.7540994 4.6750159 -2.2009974
7.9575334 5.5038962 -2.2337639
9.7440519 6.7370429 -2.3026831
12.231413 8.4504967 -2.3546519
16.620329 11.474165 -2.4797976
23.480448 16.204128 -2.495966
45.607216 31.450575 -2.9033897
6.7624145 4.6459436 -2.1984091
7.9734855 5.4738774 -2.2328641
9.7513199 6.6918817 -2.2988667
12.267354 8.4122152 -2.3559034
16.647177 11.407104 -2.4778476
23.503998 16.099545 -2.4924798
6.7706113 4.6168661 -2.1958208
7.9957609 5.4482117 -2.2337639
9.7681322 6.6533794 -2.2973404
12.290106 8.3649054 -2.3546519
16.670481 11.337757 -2.4754102
23.53368 15.999496 -2.489691
45.458908 30.88225 -2.8801525
6.7834873 4.5910373 -2.1947856
8.0115032 5.4180822 -2.2328641
9.8026838 6.626936 -2.3000119
12.299589 8.3086815 -2.3508976
16.703373 11.275059 -2.4744353
23.546448 15.888268 -2.4851589
45.430634 30.631832 -2.8715696
6.8026762 4.569489 -2.1958208
8.0206604 5.3835659 -2.2301648
9.8176003 6.5872154 -2.2981036
12.318675 8.2590933 -2.3490202
16.722839 11.203422 -2.4715104
23.540516 15.764953 -2.4787092
45.38126 30.368641 -2.8617303
6.8153715 4.5435705 -2.1947856
8.0312939 5.3501348 -2.2279153
9.8290968 6.5452852 -2.2954323
12.373741 8.2335548 -2.3540261
16.71887 11.116399 -2.4651732
23.547281 15.650707 -2.4736543
45.410465 30.159201 -2.8569155
6.8311892 4.5197544 -2.1947856
8.0473642 5.3223996 -2.2274654
9.8420544 6.5044427 -2.2931426
12.391086 8.1859455 -2.3521488
16.739073 11.049963 -2.4627359
23.573498 15.549761 -2.470691
45.333477 29.89192 -2.8458202
6.8332219 4.4885931 -2.1906445
8.0675249 5.2953439 -2.2279153
9.8504381 6.4631557 -2.2900898
12.40637 8.133975 -2.3496459
16.767578 10.984942 -2.4612734
23.561594 15.430029 -2.4640672
45.297153 29.641638 -2.8370278
6.8488493 4.4647112 -2.1906445
8.0859585 5.2671523 -2.2279153
9.8729401 6.4287295 -2.2900898
12.414817 8.0776939 -2.3458915
16.779194 10.909028 -2.4573736
23.575212 15.321637 -2.4598837
45.306549 29.422409 -2.831166
6.874126 4.4470716 -2.1937504
8.0928402 5.2314873 -2.224766
9.9052162 6.4006181 -2.2923794
12.432983 8.0278769 -2.3440144
16.797153 10.837481 -2.4544489
23.583349 15.210088 -2.4551773
45.296486 29.191601 -2.8241532
6.8831034 4.4188762 -2.1916797
8.1061335 5.200047 -2.2234163
9.9175806 6.3596468 -2.2900898
12.45428 7.9801631 -2.3427629
16.801441 10.757377 -2.449574
23.606094 15.108335 -2.4520395
49.34761 31.53487 -1.0222224
6.9017458 4.3968964 -2.1927149
8.1258774 5.1727676 -2.2238662
9.9165325 6.3102303 -2.2847471
12.472056 7.9302831 -2.3408856
16.82884 10.692272 -2.4481115
23.601505 14.989532 -2.4461131
49.589119 31.445942 -1.024945
6.9039869 4.364521 -2.1885738
8.1455317 5.1454148 -2.2243161
9.9318571 6.2713857 -2.2832205
12.49966 7.8867021 -2.3408856
16.855982 10.627114 -2.4466491
23.650311 14.904936 -2.4457645
45.241398 28.490044 -2.8019626
6.9142723 4.3373137 -2.187021
8.1518831 5.1097069 -2.2211666
9.9503622 6.2345915 -2.2824574
12.513718 7.8346391 -2.3383827
16.867575 10.556411 -2.4432368
23.668404 14.801165 -2.4422781
45.266048 28.285366 -2.7973571
6.9335356 4.3174257 -2.1885738
50.139423 31.209051 1.0308788
8.1621656 5.078526 -2.219367
9.9743147 6.2036362 -2.2832205
12.522854 7.7826676 -2.335254
16.865391 10.477376 -2.4378746
23.754602 14.745708 -2.4461131
45.189884 28.029818 -2.78689
49.938881 30.963432 -1.025643
6.9511018 4.2964387 -2.1896091
50.735973 31.347433 1.0410012
8.1739864 5.0483608 -2.2180173
9.9914932 6.1684613 -2.2824574
12.551955 7.743175 -2.3358798
16.898485 10.416353 -2.437387
23.826292 14.675231 -2.4482048
45.214546 27.837931 -2.7827029
49.763939 30.614977 -1.0198488
6.9635077 4.2689152 -2.1885738
50.71553 31.090694 1.0383483
8.1948843 5.021832 -2.2189171
9.9972906 6.1215487 -2.2786412
12.58025 7.6971211 -2.3358798
16.91103 10.342806 -2.4339747
23.989578 14.660537 -2.4597094
45.156036 27.574188 -2.7728639
50.13678 30.6036 -1.0252939
6.9618635 4.2345414 -2.1833978
50.890648 30.942017 1.039605
8.2099028 4.9897399 -2.2180173
10.008532 6.0804958 -2.2763515
12.603664 7.6511068 -2.335254
16.928457 10.268405 -2.4310501
24.142817 14.638705 -2.4701679
45.193932 27.381222 -2.769305
50.431431 30.542383 -1.0291336
6.9666753 4.2042303 -2.1802919
8.2147255 4.9554386 -2.2148681
10.026329 6.0435023 -2.2755883
12.615434 7.60111 -2.332751
16.965813 10.214262 -2.4315374
24.296211 14.615959 -2.4806268
45.226276 27.196213 -2.7657461
50.452042 30.31465 -1.0273883
6.9872084 4.1850734 -2.1823623
8.2286301 4.9247303 -2.2139683
10.041262 6.007194 -2.2744434
12.638501 7.5549974 -2.3321254
16.97069 10.13665 -2.42715
24.432621 14.582119 -2.4893425
45.228325 26.982912 -2.7600939
7.0008388 4.1584501 -2.1818447
8.2306862 4.8870287 -2.2099192
10.058148 5.9673429 -2.2732985
12.666104 7.5086269 -2.3321254
16.995728 10.071274 -2.4256876
24.538237 14.529221 -2.4949203
45.155018 26.715269 -2.7496266
7.0203066 4.1369286 -2.1833978
8.2519016 4.8588037 -2.2108188
10.055228 5.9182572 -2.2679558
12.68883 7.4623675 -2.3314996
17.00514 9.9928265 -2.421788
24.684101 14.493668 -2.504333
45.265228 26.567587 -2.7506735
51.806881 30.382782 -1.0483311
7.0187416 4.1014247 -2.1782212
8.2704945 4.8309546 -2.2112689
10.080241 5.8833447 -2.268719
12.712685 7.4138179 -2.3308737
