# .PCD v0.7 - Point Cloud Data file format
VERSION 0.7
FIELDS x y z
SIZE 4 4 4
TYPE F F F
COUNT 1 1 1
WIDTH 1479
HEIGHT 1
VIEWPOINT 0 0 0 1 0 0 0
POINTS 1479
DATA ascii
-41.243866 15.650599 -2.3118889
-7.0574918 2.6921701 -2.0239649
-8.181426 3.1241808 -2.0218601
-9.7823372 3.7374654 -2.0355504
-12.005654 4.5917144 -2.0358384
-14.096778 5.3971362 -1.8533891
-18.752523 7.1834016 -1.7568854
-39.115269 14.999278 -2.1954935
-7.0480509 2.7167909 -2.0239649
-14.136778 5.4520912 0.26447377
-8.1613808 3.1492128 -2.0196106
-9.776557 3.7744203 -2.037077
-11.987711 4.6328826 -2.0355256
-14.163015 5.4792576 -1.8646011
-35.029907 13.559069 -3.2862942
-53.270344 20.651506 -0.9972654
-7.051126 2.7462831 -2.0275886
-8.1563387 3.1783826 -2.0209603
-9.7633219 3.8085241 -2.037077
-11.968601 4.6711736 -2.0348997
-14.13922 5.5240269 -1.8638699
-35.023182 13.697237 -3.2901292
-7.0401812 2.768945 -2.0270708
-8.1506348 3.208976 -2.02231
-9.746316 3.8411398 -2.0363138
-11.963248 4.7172713 -2.036777
-14.047842 5.5449214 -1.854364
-14.110507 5.5753536 -1.327382
-14.102184 5.5777564 -0.79477394
-14.140725 5.5958543 -0.2654511
-7.0138297 2.7883053 -2.0224121
-8.1370077 3.2381077 -2.0218601
-9.7266989 3.8746583 -2.0351689
-11.949548 4.7625499 -2.0374026
-14.064298 5.6110873 -1.8592389
-35.205521 14.059818 -3.3166244
-41.55875 16.613892 -2.345593
-14.053279 5.6209111 -0.26419452
-7.0089402 2.8161545 -2.0239649
-14.017472 5.6349864 0.26370585
-8.1305084 3.2700913 -2.0232098
-9.7185802 3.9107842 -2.0363138
-11.92285 4.802628 -2.0358384
-14.047322 5.6640797 -1.8597264
-35.15992 14.184123 -3.3169732
-38.659607 15.611639 -2.1850264
-6.9972773 2.8398767 -2.0234473
-13.976474 5.6724153 0.26328701
-8.105175 3.2911701 -2.0196106
-9.7194185 3.9505987 -2.0393667
-11.906858 4.8421369 -2.0358384
-14.079942 5.7315879 -1.866551
-34.711658 14.144363 -3.2793221
-39.772785 16.214775 -2.2509696
-7.0003347 2.8681922 -2.0270708
-13.943635 5.7158585 0.26304266
-8.0972424 3.3209212 -2.0205104
-9.6989985 3.9798267 -2.0378401
-11.906329 4.8904252 -2.0386541
-14.06352 5.7822113 -1.8670385
-34.741951 14.291228 -3.286643
-40.857281 16.823467 -2.3156569
-52.57093 21.668167 -0.99251837
-6.9938498 2.894088 -2.0281062
-8.0820007 3.3476746 -2.0196106
-9.6705389 4.0076461 -2.0347872
-11.883712 4.9296856 -2.0377157
-13.995584 5.8114743 -1.8607013
-34.839046 14.473564 -3.3005879
-40.200798 16.717512 -2.2817433
-6.9640989 2.9102883 -2.0224121
-8.0756598 3.3781219 -2.0209603
-9.6655464 4.0451655 -2.0366955
-11.879187 4.9764814 -2.0399058
-13.997182 5.8695049 -1.8636261
-34.788311 14.595088 -3.3005879
-40.38895 16.961363 -2.2957692
-46.158031 19.403061 -0.87398165
-6.9538975 2.9345801 -2.0224121
-13.899595 5.8685613 0.26335683
-8.0745897 3.4108386 -2.0236597
-9.6658344 4.0849943 -2.0397482
-11.849008 5.0125265 -2.0377157
-13.994886 5.9260688 -1.8660635
-34.241829 14.506579 -3.2535238
-40.175045 17.036747 -2.2869768
-6.9542742 2.9633813 -2.0255179
-8.0554647 3.4359457 -2.0218601
-9.6424856 4.1148591 -2.0378401
-11.836888 5.0561852 -2.0386541
-13.966817 5.9717603 -1.8650886
-34.462093 14.741993 -3.2793221
-40.0676 17.156431 -2.2842555
-6.9527607 2.9914544 -2.0281062
-8.0362616 3.4609621 -2.0200605
-9.6316719 4.1500444 -2.0386035
-11.824607 5.099823 -2.039593
-13.91308 6.0063148 -1.8607013
-34.209221 14.775308 -3.2601476
-39.769142 17.193155 -2.270648
-45.511868 19.694733 -0.86560446
-6.9344678 3.0094373 -2.0255179
-8.0271368 3.4869664 -2.0205104
-9.6185856 4.1802831 -2.0386035
-11.803094 5.1345797 -2.0386541
-0.85730129 0.37312099 0.11480093
-13.914163 6.058713 -1.8633825
-34.370869 14.973414 -3.2800193
-45.589054 19.898422 -0.86825722
-6.9239211 3.0336232 -2.0255179
-55.096024 24.151062 1.0500416
-8.0256243 3.5196617 -2.0232098
-9.5967445 4.2106781 -2.037077
-11.786907 5.1765432 -2.0389671
-0.82328051 0.36173758 0.11041363
-13.753 6.0457339 -1.8446145
-34.559132 15.19918 -3.3030283
-39.639618 17.450102 -2.2698107
-6.9132891 3.0577757 -2.0255179
-8.0115089 3.5468645 -2.0227599
-9.5891676 4.2473316 -2.0386035
-11.765156 5.2160521 -2.0383413
-0.8002376 0.35495067 0.10748877
-13.753586 6.1033669 -1.8475394
-33.875805 15.039989 -3.2427166
-40.352325 17.932262 -2.3141916
-6.8972812 3.0795264 -2.0239649
-7.9812856 3.566859 -2.0182607
-9.5850363 4.2855864 -2.0408931
-11.754087 5.2603192 -2.039593
-0.78449947 0.35125226 0.10553886
-13.739446 6.154582 -1.8485144
-34.135822 15.298298 -3.2726982
-40.223885 18.043573 -2.3104234
-6.8900127 3.1051698 -2.0250003
-7.9829979 3.6011081 -2.0218601
-9.5628614 4.3157864 -2.0393667
-11.746455 5.3061962 -2.0414701
-0.79412228 0.35889348 0.10700129
-13.739582 6.2123213 -1.8514392
-18.906324 8.5524273 -1.8154541
-40.459042 18.318985 -2.3275895
-50.77092 23.00934 -0.97297168
-6.8826485 3.1308014 -2.0260355
-7.9739275 3.6305654 -2.0227599
-9.5441656 4.3475132 -2.0386035
-11.735052 5.3504419 -2.0427215
-0.78564042 0.35836801 0.10602634
-13.717813 6.2602439 -1.8514392
-33.923069 15.488234 -3.262588
-6.8628993 3.1507771 -2.0234473
-7.9612055 3.6583776 -2.0227599
-9.5324974 4.3824444 -2.0393667
-11.718098 5.3921981 -2.0430343
-0.78258133 0.36027828 0.1057826
-13.659817 6.2914782 -1.8465644
-18.831682 8.6775351 -1.8140596
-50.536427 23.329704 -0.97157544
-6.8571181 3.1771507 -2.0250003
-7.9483871 3.6861453 -2.0227599
-9.5260487 4.4198222 -2.0412748
-11.69383 5.4305739 -2.0420959
-0.77231765 0.35882571 0.10456391
-13.619772 6.3307548 -1.8441271
-18.674814 8.684413 -1.8018578
-39.902847 18.573092 -2.3066552
-6.8529859 3.2043405 -2.0270708
-53.891781 25.21035 1.038523
-7.931941 3.7122164 -2.0218601
-9.4998941 4.4480524 -2.038985
-11.690899 5.4789076 -2.0449116
-0.77824986 0.36489007 0.10553886
-13.54008 6.3512821 -1.8363274
-18.644384 8.749548 -1.8018578
-39.360519 18.488094 -2.2790217
-6.8400116 3.2274179 -2.0265532
-7.9195881 3.7384975 -2.0218601
-9.4825335 4.4803481 -2.0386035
-11.672668 5.5176406 -2.0449116
-0.76626831 0.36237693 0.10407643
-13.533298 6.4029398 -1.8382773
-18.550707 8.7847261 -1.7957568
-6.8327603 3.2517433 -2.0275886
-7.9188046 3.7719874 -2.0250094
-9.4640789 4.5100794 -2.0378401
-11.671165 5.5668597 -2.0480404
-0.76858187 0.36675936 0.10456391
-13.503701 6.4467173 -1.8373024
-18.535856 8.8530645 -1.7971513
-39.280617 18.777983 -2.2817433
-6.8091784 3.2697189 -2.0239649
-7.8968077 3.7953858 -2.0227599
-9.4500484 4.5439363 -2.0382218
-11.651662 5.6075659 -2.0480404
-0.77087408 0.37116233 0.10505138
-13.491844 6.4989867 -1.8387648
-18.574841 8.9514465 -1.8039496
-39.243607 18.928867 -2.2834179
-6.7959843 3.2926252 -2.0234473
-7.8905253 3.8263268 -2.0245595
-9.4535599 4.5863223 -2.0424197
-11.648009 5.6559696 -2.0508561
-0.76957387 0.37385073 0.10505138
-13.486931 6.5547204 -1.8412023
-18.432386 8.9622164 -1.7931422
-39.101868 19.029032 -2.2790217
-6.787921 3.3180249 -2.0244827
-7.8683681 3.8495648 -2.02231
-9.419858 4.6106648 -2.0386035
-11.637067 5.7009373 -2.0524204
-0.75756896 0.37129319 0.10358895
-13.417626 6.5790362 -1.834865
-18.485065 9.0677385 -1.8013349
-38.741184 19.021049 -2.2618556
-6.7849598 3.3459728 -2.0270708
-7.8566308 3.8778701 -2.0227599
-9.412508 4.6478648 -2.0405114
-11.618866 5.7423987 -2.0527334
-0.75270933 0.37217566 0.10310147
-13.412374 6.6346316 -1.8373024
-18.428297 9.1198416 -1.7988945
-37.450375 18.549799 -2.1902599
-6.7732396 3.3696349 -2.0270708
-52.716572 26.23757 1.027842
-7.8465338 3.9070103 -2.0236597
-9.3891983 4.6771889 -2.038985
-11.605821 5.7864504 -2.0539849
-0.75673491 0.37745884 0.10383269
-13.39979 6.686727 -1.8387648
-18.348221 9.1600847 -1.794188
-6.7528028 3.3889253 -2.0244827
-7.8363314 3.9361236 -2.0245595
-9.3763237 4.7116981 -2.0397482
-11.573199 5.8207111 -2.0517945
-0.76427907 0.38455933 0.10505138
-13.37045 6.7275577 -1.8377899
-18.326815 9.2294502 -1.795234
-39.299648 19.808659 -2.3064458
-6.7518702 3.4165332 -2.0275886
-7.8267131 3.9638498 -2.0254593
-9.3588953 4.741878 -2.0393667
-11.543262 5.8536968 -2.0499175
-0.75768864 0.38439733 0.10432017
-13.326822 6.7610812 -1.834865
-18.242809 9.2631111 -1.7900045
-6.7405033 3.4389048 -2.0275886
-7.803113 3.9844635 -2.0227599
-9.3571062 4.7800326 -2.0424197
-11.520269 5.8901458 -2.0492916
-0.74757314 0.38238782 0.10310147
-13.357923 6.8355937 -1.8424209
-18.020454 9.2255001 -1.771179
-6.7318931 3.4641805 -2.0286238
-7.7943521 4.0143557 -2.0241096
-9.3298922 4.8072705 -2.0401299
-11.50315 5.9321342 -2.0499175
-0.74799794 0.38590521 0.10334522
-13.274006 6.8512211 -1.8341339
-18.136848 9.3651342 -1.7858212
-6.7111874 3.483207 -2.0260355
-7.783752 4.0433359 -2.0250094
-0.98181772 0.51023078 0.057988245
-9.3252506 4.8461442 -2.0428011
-0.88564402 0.46044791 0.087330058
-11.489383 5.9758978 -2.0511689
-0.75545126 0.39309525 0.10456391
-13.244725 6.8947678 -1.8334025
-18.217142 9.4872847 -1.796977
-6.7178149 3.5164676 -2.0317297
-0.8981455 0.4703379 0.01769674
-7.7954841 4.0840449 -2.0317578
-0.87742811 0.45987877 0.051917274
-9.3291435 4.8896027 -2.0473807
-0.92990917 0.48759237 0.09186215
-11.513936 6.0398231 -2.0593035
-0.7646209 0.40126473 0.10602634
-13.290881 6.977869 -1.843152
-0.8695966 0.45674178 -0.085935563
-0.87509775 0.46002123 -0.051812604
-0.89016205 0.46833688 -0.017557122
-0.85759699 0.45292488 0.016928835
-0.89597297 0.47339252 -0.23394911
-0.92879027 0.49093935 0.055057433
-0.87888545 0.46475667 0.086981431
-0.90796828 0.48033854 -0.16269186
-0.75795192 0.40114558 0.10529512
-0.880687 0.46629956 -0.12235683
-0.86799693 0.45977449 -0.085935563
-0.8734867 0.4630729 -0.051812604
-0.88145596 0.46769223 -0.017417502
-0.8679716 0.46209168 -0.2634778
-0.81718141 0.43523499 0.01616093
-0.84959924 0.45269129 -0.22225164
-0.83894634 0.44720313 0.049823835
-0.85411495 0.4552888 -0.18813768
-0.83858109 0.44719636 0.08314658
-0.81914306 0.43701437 -0.14704841
-0.74428827 0.39724585 0.10358895
-0.83702743 0.44693083 -0.1165071
-0.82420951 0.44027185 -0.081752084
-0.8331154 0.44540271 -0.04950982
-0.8375023 0.44812402 -0.016579786
-0.86635333 0.46511871 -0.2634778
-0.80861044 0.43430012 0.016021309
-0.80681485 0.43351716 -0.21145399
-0.83738023 0.45012885 0.049823835
-0.84560353 0.45454925 -0.18661121
-0.80542946 0.43313515 0.080008969
-0.82805026 0.44548625 -0.14892563
-0.73240918 0.39419672 0.10212652
-0.81798404 0.44043887 -0.11406972
-0.84020865 0.45259479 -0.0834952
-0.82452327 0.44451717 -0.04909113
-0.81481469 0.43964994 -0.01616093
-0.85792893 0.46446112 -0.26140723
-0.82467312 0.44664335 0.016370358
-0.82928419 0.44932795 -0.21775262
-0.81122136 0.43972418 0.048358425
-0.8129437 0.44065779 -0.17974208
-0.80741554 0.43784356 0.080357596
-0.82649022 0.44837397 -0.14892563
-0.75545442 0.41000751 0.10553886
-0.83737594 0.45465791 -0.11699458
-0.81757617 0.44409227 0.14736128
-0.8421253 0.45742691 -0.083843827
-0.81945723 0.44548455 -0.048881788
-0.79570961 0.43293443 -0.015811879
-0.83765048 0.45727071 -0.25571322
-0.81959897 0.44760239 0.016300548
-0.80547875 0.44007355 -0.21190389
-0.83079147 0.45390314 0.049614493
-0.80450982 0.43972623 -0.17821561
-0.7918973 0.43301225 0.078963101
-0.82318705 0.45030826 -0.14861277
-0.74705315 0.40883014 0.10456391
-0.82011282 0.44899857 -0.11480093
-0.79184127 0.43352035 0.14298111
-0.8282913 0.45366406 -0.082623646
-0.82490271 0.45218247 -0.049300473
-0.79777628 0.43749383 -0.015881689
-0.82589459 0.45460275 -0.25260741
-0.81986201 0.45128214 0.016335452
-0.80572206 0.44368225 -0.2123538
-0.81170827 0.44716305 0.048567772
-0.8064087 0.44442725 -0.17897885
-0.7816571 0.43096405 0.078091539
-0.81649959 0.45017433 -0.14767416
-0.74916983 0.41322258 0.10505138
-0.8255716 0.45555195 -0.11577588
-0.80069941 0.44200978 0.14485833
-0.82495862 0.45558918 -0.082449332
-0.82514691 0.45588139 -0.04940515
-0.82074398 0.45382306 -0.016370358
-0.82607198 0.458276 -0.25312504
-0.77631861 0.430852 0.015497738
-0.78201979 0.43419442 -0.20650508
-0.80490446 0.44708431 0.048253756
-0.79120046 0.43947241 -0.17592591
-0.77848208 0.43258601 0.077917233
-0.79765791 0.4434236 -0.14454547
-0.73904848 0.41101125 0.10383269
-0.80836415 0.44974494 -0.11358224
-0.79915172 0.4448019 0.14485833
-0.80951613 0.45057064 -0.081054844
-0.80261278 0.44709548 -0.048149083
-0.79994243 0.44597393 -0.015986405
-0.80423486 0.44984025 -0.24691339
-0.78528035 0.43941793 0.015707165
-0.79240245 0.44358483 -0.20965438
-0.79811108 0.44696373 0.04793974
-0.80336493 0.44990602 -0.17897885
-0.77522928 0.4343268 0.077742919
-0.79265887 0.44427365 -0.14391972
-0.74453509 0.41747198 0.10480764
-0.79640156 0.44673672 -0.1121198
-0.75969547 0.426321 0.13797522
-0.79230088 0.44461825 -0.079486035
-0.77666759 0.43620184 -0.046683677
-0.77571929 0.43602571 -0.015532642
-0.82453519 0.46498081 -0.25364268
-0.79593325 0.44903442 0.015951499
-0.78406066 0.44251704 -0.20785476
-0.78444898 0.44273621 0.047207039
-0.78640354 0.44402006 -0.17554428
-0.7754432 0.43801013 0.077917233
-0.79454273 0.44898167 -0.14454547
-0.7586261 0.42886031 0.10700129
-0.79656523 0.45049122 -0.11236355
-0.7582776 0.42883793 0.13797522
-0.7994144 0.45228693 -0.080357596
-0.80468595 0.45564002 -0.048463102
-0.77600902 0.4395813 -0.015567547
-0.8010748 0.45544368 -0.24691339
-0.77184087 0.43882298 0.015497738
-0.77920115 0.44318759 -0.20695497
-0.80025798 0.455349 0.048253756
-0.78143644 0.44481999 -0.17478105
-0.77390951 0.44071427 0.077917233
-0.79304957 0.45161384 -0.14454547
-0.75892466 0.43235636 0.10724504
-0.76574785 0.4364205 -0.10821999
-0.74304765 0.42365506 0.13547227
-0.79263878 0.45211324 -0.079834662
-0.79796642 0.45533639 -0.048149083
-0.77273339 0.44129577 -0.015532642
-0.80123627 0.45905802 -0.24743101
-0.76509959 0.43853134 0.015393022
-0.78779262 0.45172095 -0.20965438
-0.78336293 0.44936264 -0.17554428
-0.76553154 0.43931153 0.077219985
-0.76748443 0.44061032 -0.1401653
-0.75568938 0.4340142 0.10700129
-0.78831679 0.45293602 -0.11163233
-0.74156427 0.42624626 0.13547227
-0.77723825 0.44693166 -0.078440167
-0.77905965 0.44815996 -0.047102366
-0.76945537 0.44299254 -0.015497738
-0.7828216 0.45232636 -0.24225464
-0.77741587 0.44920284 0.015672261
-0.75921667 0.43886411 -0.20245595
-0.79360163 0.45892507 0.048044413
-0.78341013 0.45321375 -0.17592591
-0.7846092 0.45409042 0.079311721
-0.77441192 0.44836923 -0.14172964
-0.74901605 0.43366551 0.10627007
-0.78844851 0.45668015 -0.11187606
-0.83920395 0.48627374 0.15361866
-0.76705486 0.44464603 -0.077568613
-0.77913952 0.45201463 -0.047207039
-0.76963383 0.44667956 -0.015532642
-0.7945922 0.4628351 -0.24639574
-0.78267503 0.45607653 0.015811879
-0.77612233 0.45243937 -0.20740487
-0.77991658 0.45465121 0.047311708
-0.78351915 0.45693481 -0.17630751
-0.78818214 0.45983854 0.079834662
-0.77454823 0.45206529 -0.14204252
-0.73199308 0.42739946 0.10407643
-0.78676951 0.45956668 -0.11187606
-0.78291887 0.45731744 0.14360686
-0.76893848 0.44933131 -0.077917233
-0.78962541 0.46178952 -0.04793974
-0.78532982 0.4594616 -0.015881689
-0.80463314 0.47245312 -0.25001919
-0.78633165 0.46170709 0.015916595
-0.79310101 0.46586773 -0.2123538
-0.78521252 0.46141863 0.047730397
-0.78530431 0.46165696 -0.17707075
-0.7831375 0.46056682 0.079486035
-0.78496408 0.46164104 -0.1442326
-0.73741549 0.43385097 0.10505138
-0.78353041 0.46116635 -0.11163233
-0.77450883 0.45603848 0.14235538
-0.79139918 0.46616969 -0.080357596
-0.80185544 0.47251743 -0.048777115
-0.78372133 0.46219993 -0.015881689
-0.80638731 0.47708616 -0.25105447
-0.80020308 0.47361565 0.016230738
-0.78643942 0.46565476 -0.21100408
-0.78531545 0.46517462 0.047835067
-0.78376907 0.46425864 -0.17707075
-0.76960754 0.45605135 0.078265861
-0.80034024 0.47445157 -0.14736128
-0.73589659 0.43642241 0.10505138
-0.77850139 0.46187279 -0.11114486
-0.80355555 0.47692665 -0.081752084
-0.80878705 0.4804135 -0.049300473
-0.78038424 0.46391103 -0.015846785
-0.77816975 0.46406627 -0.24277227
-0.77793729 0.46411163 0.015811879
-0.78982919 0.47139347 -0.2123538
-0.78368688 0.46791306 0.047835067
-0.78045803 0.46598521 -0.17668915
-0.76801091 0.45873508 0.078265861
-0.77663487 0.46407035 -0.14329399
-0.73948026 0.44204411 0.1057826
-0.79051405 0.47273797 -0.11309476
-0.77965885 0.46643138 -0.079486035
-0.78311485 0.46886989 -0.047835067
-0.76675278 0.45943746 -0.015602452
-0.79310262 0.4767324 -0.24794866
-0.78316736 0.4709464 0.015951499
-0.76814044 0.462093 -0.20695497
-0.7923165 0.47682476 0.048463102
-0.78219104 0.47073117 -0.17745239
-0.77152568 0.46449605 0.078788787
-0.76316506 0.45964432 -0.14110391
-0.7379328 0.44462252 0.1057826
-0.78715885 0.47446993 -0.11285102
-0.76096392 0.45886168 -0.077742919
-0.76266313 0.46024936 -0.046683677
-0.76514453 0.462111 -0.015602452
-0.79639047 0.48250106 -0.24950157
-0.78151852 0.47367755 0.015951499
-0.77652097 0.47083357 -0.20965438
-0.77869362 0.47233683 0.047730397
-0.77886456 0.47244051 -0.17707075
-0.78522933 0.47648895 0.080357596
-0.77675337 0.47153085 -0.14391972
-0.73298287 0.44513491 0.10529512
-0.77701515 0.47206128 -0.11163233
-0.77127582 0.46875852 -0.078963101
-0.77129036 0.4691363 -0.047311708
-0.76181853 0.46373942 -0.015567547
-0.77986264 0.4762167 -0.24484283
-0.77132803 0.47119018 0.015776975
-0.77487272 0.47354132 -0.20965438
-0.77363193 0.47296873 0.047521055
-0.77386051 0.47310847 -0.17630751
-0.77166349 0.47195005 0.079137415
-0.77847272 0.47630131 -0.14454547
-0.73650384 0.45079997 0.10602634
-0.78382736 0.47995356 -0.11285102
-0.7662369 0.46936649 -0.078614481
-0.77475643 0.47495714 -0.047625724
-0.75167274 0.46116725 -0.015393022
-0.76996928 0.4738735 -0.24225464
-0.77138138 0.47492817 0.015811879
-0.76491874 0.47113338 -0.20740487
-0.78387904 0.48300025 0.048253756
-0.75883299 0.46756768 -0.17325458
-0.77001131 0.47464082 0.079137415
-0.77007985 0.47486854 -0.14329399
-0.73661536 0.45441017 0.10627007
-0.76356483 0.47121903 -0.11016989
-0.75272638 0.46471199 -0.077394299
-15.459171 9.5477753 3.5318747
-0.75780177 0.46821046 -0.046683677
-0.76026338 0.47009817 -0.015602452
-6.428854 3.9876115 -2.0270708
-7.4671268 4.6352286 -2.0290585
-0.78396994 0.48665035 0.048358425
-8.9545956 5.5607424 -2.0489073
-0.77173465 0.47942856 0.079486035
-10.93401 6.7952342 -2.0389671
-0.73502463 0.45697868 0.10627007
-12.659257 7.8735619 -1.8304777
-15.309075 9.5290585 3.5051615
-0.82567555 0.51413757 -0.050975226
-0.81980366 0.51067984 -0.016859025
-6.4296384 4.0192447 -2.0317297
-48.131111 30.087339 0.99077314
-7.4318881 4.6475649 -2.0236597
-0.84322226 0.52751786 0.052126616
-8.9101667 5.5763426 -2.0431828
-0.77850014 0.48740575 0.080357596
-10.889652 6.8178263 -2.0348997
-0.718364 0.44993031 0.10407643
-12.702046 7.9587131 -1.840471
-15.370762 9.6383209 -1.5872804
-15.147655 9.4984207 3.4753952
-6.4048314 4.0333381 -2.0281062
-7.4139705 4.672442 -2.0232098
-8.9032507 5.6131887 -2.0458541
-10.855761 6.8494754 -2.0330224
-0.71343178 0.45031598 0.10358895
-12.635585 7.9786234 -1.834865
-16.930531 10.694767 -1.7520047
-15.262115 9.6445799 3.5093591
-14.273529 9.0338135 4.5262275
-6.3907142 4.0556693 -2.0281062
-47.751076 30.315435 0.98728263
-7.4124203 4.7076955 -2.0272589
-8.876976 5.6400199 -2.0443277
-10.841787 6.8936872 -2.0348997
-0.72860515 0.46345767 0.10602634
-12.488746 7.9470191 -1.8175595
-17.009068 10.827626 -1.7640322
-15.206832 9.6840839 3.5043983
-6.368381 4.0727482 -2.0255179
-47.644955 30.481945 0.98728263
-7.4057913 4.7398429 -2.0299582
-8.8555813 5.6699138 -2.043946
-10.829302 6.9389472 -2.0370898
-0.71361309 0.45742807 0.10407643
-12.417483 7.9627047 -1.8112223
-15.988452 10.256519 -1.6618856
-14.528639 9.337965 4.6276846
-6.360621 4.0991397 -2.0275886
-47.538269 30.64806 0.98728263
-7.3892007 4.7656651 -2.0299582
-8.8357344 5.7007937 -2.043946
-10.788419 6.965992 -2.0339613
-0.71201193 0.45991647 0.10407643
-12.429628 8.0318556 -1.817072
-16.839363 10.885531 -1.7542707
-15.234987 9.8559504 -0.95094436
-15.528773 10.053705 -0.32290444
-14.564059 9.4327278 4.6494255
-6.3397927 4.1171088 -2.0255179
-47.431 30.813814 0.98728263
-7.3627162 4.7850575 -2.0272589
-8.8289499 5.74016 -2.046999
-10.767349 7.0057626 -2.0345869
-0.69709265 0.45373568 0.10212652
-12.413161 8.0827761 -1.8187783
-16.874716 10.9921 -1.7619405
-15.231238 9.9253283 3.5337827
-37.767826 24.620527 -2.3627594
-15.495263 10.108939 -0.32293934
-6.3302321 4.1423874 -2.0270708
-7.3459682 4.810729 -2.0272589
-8.8055744 5.7687931 -2.0462358
-10.74448 7.0443888 -2.0348997
-0.70546401 0.46269843 0.10358895
-12.442962 8.1641722 -1.827309
-16.736307 10.985334 -1.7514818
-15.132499 9.9364109 3.5188997
-38.299301 25.15793 -2.4014878
-15.42646 10.140997 -0.32224125
-6.3189592 4.1665859 -2.0281062
-7.3291311 4.8363423 -2.0272589
-8.7821064 5.7973313 -2.0454724
-10.714881 7.0785847 -2.0339613
-0.70715684 0.46734717 0.10407643
-12.482063 8.2491703 -1.8370585
-15.820424 10.463367 -1.6594453
-14.919371 9.8749189 4.1305513
-15.372739 10.17885 -0.32182238
-6.3002801 4.1843114 -2.0265532
-46.718109 31.039421 0.97904509
-7.3227906 4.8670926 -2.0299582
-8.7644682 5.8275094 -2.0458541
-10.691348 7.114078 -2.0339613
-0.70725566 0.47078964 0.10432017
-12.436463 8.2784176 -1.8343775
-15.729261 10.478217 -1.6535187
-15.328918 10.223115 -0.32161295
-6.2911863 4.2084031 -2.0281062
-7.3033729 4.8891797 -2.0290585
-8.7369394 5.8510799 -2.043946
-10.656212 7.1417947 -2.0317712
-0.70733935 0.47423783 0.10456391
-12.37287 8.2985554 -1.829259
-15.674574 10.516999 -1.6514269
-15.765582 10.586039 -0.99522066
-15.625056 10.495643 4.3456044
-15.284839 10.270984 -0.32143843
-6.2780609 4.2314162 -2.0286238
-15.699774 10.585641 0.33051369
-7.2862606 4.9146452 -2.0290585
-15.68523 10.5838 0.99166173
-8.7262278 5.8881288 -2.0462358
-15.666615 10.575219 1.6536931
-10.626305 7.175632 -2.0308325
-0.69087523 0.46670312 0.10237025
-12.393169 8.3750391 -1.8365711
-15.642718 10.574998 -1.6519499
-14.904757 10.079898 3.4975288
-15.688829 10.61415 -0.9927085
-15.501175 10.491138 4.3213096
-15.255517 10.328761 -0.32157803
-6.2680469 4.2565613 -2.0301766
-15.64122 10.625774 0.33005992
-7.2674503 4.9389524 -2.0286086
-15.613504 10.614907 0.98946363
-8.7023735 5.9163456 -2.0454724
-15.608184 10.615278 1.6514269
-10.601194 7.2126784 -2.0308325
-0.69416499 0.47246268 0.10310147
-12.358934 8.4148998 -1.83584
-15.619394 10.638852 2.9932175
-15.600773 10.626168 -1.6514269
-14.858125 10.124125 3.4948575
-15.645082 10.664351 -0.99228984
-15.454799 10.538597 4.3186107
-15.212765 10.377439 -0.32143843
-15.539018 10.603974 5.04076
-6.2435837 4.2718697 -2.0270708
-15.618889 10.69047 0.33037403
-7.248558 4.9631901 -2.0281587
-15.579654 10.671603 0.98967308
-8.680048 5.9455771 -2.0450909
-15.574325 10.671947 1.6517757
-10.590617 7.2596922 -2.0336483
-0.69906008 0.47937372 0.10407643
-12.260736 8.4108229 -1.8256029
-15.534928 10.660894 2.9841442
-15.530729 10.658013 -1.6479408
-15.491155 10.634839 3.6524658
-15.625871 10.731335 -0.99344116
-15.469317 10.627789 4.3330073
-15.17315 10.428218 -0.32136863
-15.471663 10.637356 5.0309248
-6.2270436 4.2925415 -2.0265532
-15.607816 10.763089 0.33093256
-7.2424173 4.9962077 -2.0313082
-15.578703 10.747025 0.99187118
-8.6592417 5.9758401 -2.0450909
-15.564849 10.745489 1.6547388
-10.550582 7.2865133 -2.0308325
-0.70718175 0.48858112 0.10553886
-12.249265 8.4659853 -1.828284
-15.504902 10.720094 -1.649161
-15.470084 10.700016 3.6562822
-15.78541 10.922182 -1.0060018
-15.387259 10.650672 4.3204103
-15.115465 10.462543 -0.32087997
-15.450598 10.698502 5.0355835
-6.2104354 4.3131504 -2.0260355
-7.2194071 5.0157495 -2.0295084
-15.62966 10.862889 0.99752343
-8.6415529 6.0082717 -2.0458541
-15.605757 10.854362 1.6631058
-10.526361 7.3214607 -2.0308325
-0.70881659 0.49319115 0.10602634
-12.239045 8.5190344 -1.8309652
-15.564132 10.837506 3.003855
-15.599809 10.866397 -1.6632802
-15.411963 10.735549 3.6509395
-36.825474 25.661142 -2.3522921
-15.460565 10.777414 4.3510032
-15.26912 10.647925 -0.32492888
-15.52407 10.829738 5.0718184
-6.205596 4.3403645 -2.0291414
-45.616222 31.917101 0.97178489
-7.1922774 5.0342131 -2.026809
-8.6269588 6.0429058 -2.0473807
-10.497506 7.3558903 -2.0302067
-0.69408685 0.48654658 0.10407643
-12.218985 8.5685434 -1.8324275
-16.43104 11.530797 -1.7561883
-36.508881 25.639843 -2.3380568
-15.264586 10.724149 -0.325627
-6.1880684 4.3619657 -2.0286238
-7.1817384 5.0661588 -2.0290585
-8.6047525 6.0744843 -2.0473807
-10.475314 7.397738 -2.0311453
-0.69878429 0.49366874 0.10505138
-12.197224 8.6201448 -1.83389
-16.191839 11.451735 -1.7350965
-36.375538 25.745783 -2.3355446
-6.1767631 4.3879752 -2.0301766
-7.1647105 5.0935745 -2.0295084
-8.5738974 6.0976567 -2.0450909
-10.459394 7.4440999 -2.0333354
-0.69373584 0.49392408 0.10456391
-12.16706 8.6626682 -1.83389
-16.213428 11.55212 -1.7417203
-21.922832 15.631629 -1.4110823
-15.760663 11.237821 4.4688778
-45.308403 32.318165 -0.97143584
-6.1496086 4.3994417 -2.0260355
-45.182781 32.335754 0.96983027
-7.1493649 5.1184406 -2.0299582
-8.5568209 6.1283417 -2.0458541
-10.437865 7.4810433 -2.0339613
-0.7082268 0.50778884 0.10700129
-12.160851 8.7191629 -1.8373024
-16.28511 11.684801 -1.7535735
-15.724377 11.28663 3.7623718
-15.726476 11.292296 4.4697776
-45.110031 32.402905 -0.96948117
-6.1412559 4.4243259 -2.0281062
-7.1370945 5.1455398 -2.0313082
-8.5364523 6.156682 -2.0458541
-10.40499 7.5098352 -2.0323968
-0.70975786 0.51245868 0.10748877
-12.162527 8.7848053 -1.8421772
-16.147762 11.667562 -1.7429405
-15.707492 11.361969 4.4756265
-45.012852 32.571896 -0.96983027
-6.1226463 4.4434681 -2.0270708
-7.112782 5.1658406 -2.0295084
-8.5212622 6.191061 -2.0473807
-10.378712 7.5461097 -2.0323968
-0.70796472 0.51493317 0.10748877
-12.151052 8.8412199 -1.845102
-16.058609 11.688684 -1.7377112
-15.622058 11.383451 4.4625793
-6.110219 4.4670925 -2.0281062
-7.0899878 5.1871881 -2.0281587
-8.495347 6.2199297 -2.0466175
-10.365056 7.5916333 -2.0348997
-0.69975799 0.51270813 0.10651381
-12.139328 8.8976631 -1.8480269
-15.986741 11.726252 -1.7345735
-15.769942 11.571462 3.8020601
-23.672716 17.376621 -1.5389913
-15.618359 11.464435 4.4729266
-6.1015825 4.4951854 -2.0306942
-7.0724978 5.214294 -2.0286086
-8.4661732 6.2463627 -2.0450909
-10.324448 7.6201854 -2.0323968
-0.70106792 0.51762778 0.10700129
-12.135377 8.9633265 -1.8524141
-15.698515 11.603577 -1.7079039
-15.673754 11.589499 3.7890854
-23.531796 17.406252 -1.533967
-6.0680022 4.5048532 -2.0250003
-44.44524 33.007946 0.96633977
-7.0642891 5.2483163 -2.0317578
-8.4506207 6.2805619 -2.0466175
-10.305959 7.6650481 -2.0342741
-12.092866 8.9973373 -1.850708
-15.849685 11.801084 -1.7288213
-15.560776 11.590194 3.7715309
-23.634249 17.610014 -1.5446436
-6.062314 4.5318904 -2.0281062
-7.0406051 5.2670426 -2.0299582
-8.4328899 6.3109031 -2.0473807
-10.278903 7.697998 -2.0339613
-12.026423 9.0100145 -1.845102
-15.899734 11.920508 -1.7385828
-23.783413 17.84411 -1.5582509
-6.0426221 4.5484838 -2.0265532
-7.021543 5.2891884 -2.0295084
-8.4087801 6.3364706 -2.0466175
-10.24859 7.7284722 -2.0330224
-11.971131 9.0340033 -1.8414459
-15.651811 11.815907 -1.715748
-23.998211 18.129955 -1.5762545
-6.035944 4.5765519 -2.029659
-7.0045886 5.314846 -2.0299582
-8.3928652 6.3705316 -2.0481439
-10.234132 7.7737608 -2.0355256
-11.949007 9.0829411 -1.8429084
-15.743687 11.971777 -1.73039
-24.10008 18.339396 -1.5871404
-6.0183978 4.5964198 -2.0291414
-43.832878 33.488522 0.96284926
-6.9828968 5.3368979 -2.0290585
-8.3612194 6.392633 -2.0458541
-10.205364 7.8082371 -2.0352125
-11.959783 9.1571817 -1.8494893
-15.243099 11.675322 -1.6798397
-15.435841 11.827219 3.7799265
-24.131021 18.496317 -1.5934206
-40.046162 30.717381 -0.88096255
-5.9915981 4.6091547 -2.0255179
-6.9688587 5.3648047 -2.0304081
-8.3388548 6.4217801 -2.0458541
-10.170225 7.8377819 -2.0336483
-11.94032 9.2085714 -1.8514392
-15.484627 11.946303 -1.7110416
-15.462846 11.933806 3.7967176
-24.116899 18.619497 -1.5967702
-40.036797 30.932793 -0.88312668
-5.9800539 4.6335912 -2.0270708
-6.9577894 5.3950691 -2.0326576
-8.3287983 6.4604764 -2.0489073
-10.147486 7.8768692 -2.0345869
-11.923782 9.2623711 -1.8538766
-15.560824 12.091972 -1.7241149
-15.408693 11.978075 3.7936649
-24.073835 18.720726 -1.5982356
-39.83073 30.996216 -0.88096255
-5.9684119 4.6580029 -2.0286238
-43.363148 33.85463 0.96026635
-6.9204845 5.4049292 -2.0272589
-8.3031015 6.4870925 -2.0481439
-10.118371 7.9110255 -2.0342741
-11.910139 9.318615 -1.8568015
-15.634621 12.237088 -1.7370138
-15.462628 12.106823 3.8173249
-24.030354 18.821888 -1.599701
-5.9505973 4.6776147 -2.0281062
-43.203838 33.973652 0.95935875
-6.9031076 5.4302588 -2.027709
-8.2865782 6.5208931 -2.0496705
-10.084487 7.9414091 -2.0330224
-11.875979 9.3589048 -1.8565578
-15.635035 12.33009 -1.742069
-23.995867 18.930397 -1.6017944
-5.9288707 4.6957936 -2.0265532
-6.891747 5.4603729 -2.0299582
-8.2533932 6.5439005 -2.0473807
-10.05686 7.9795451 -2.0333354
-11.863449 9.4163494 -1.8597264
-15.585659 12.379635 -1.7413718
-23.913815 19.008276 -1.600957
-5.9139524 4.7176666 -2.0270708
-42.928364 34.256996 0.95866072
-6.8732114 5.4868102 -2.0304081
-8.2304983 6.5726728 -2.0473807
-10.032033 8.017066 -2.0339613
-11.849115 9.4725742 -1.8626511
-15.634145 12.507394 -1.7516562
-23.847317 19.091637 -1.600957
-5.8937573 4.7336221 -2.0255179
-6.8625731 5.515677 -2.0326576
-8.2055988 6.5974684 -2.0466175
-9.9976959 8.0440979 -2.0323968
-11.834647 9.5255079 -1.8653324
-15.625166 12.585415 -1.7553166
-23.802536 19.185654 -1.6022131
-39.597462 31.928307 -0.88787371
-5.8855386 4.7592144 -2.0281062
-6.8321257 5.5285969 -2.0290585
-8.192832 6.6320543 -2.0489073
-9.9771061 8.0821819 -2.0336483
-11.824455 9.5855122 -1.8689884
-15.578702 12.633396 -1.7547936
-23.794611 19.309788 -1.6059812
-5.8703876 4.7809496 -2.0286238
-42.470871 34.601372 0.95621735
-6.8127856 5.552412 -2.0290585
-8.1696301 6.6606145 -2.0489073
-9.9488335 8.1169596 -2.0336483
-11.80015 9.6342611 -1.8704509
-15.616294 12.754498 -1.7640322
-23.748713 19.410425 -1.6074467
-5.8521695 4.8001871 -2.0281062
-6.8054128 5.5860505 -2.0326576
-8.1387453 6.6828599 -2.046999
-9.9295959 8.1591625 -2.0355256
-11.783317 9.6892586 -1.873132
-15.626362 12.858493 -1.7704817
-23.674648 19.488123 -1.607028
-5.8270907 4.8154511 -2.0255179
-42.21286 34.884296 0.95586836
-6.7843704 5.6085305 -2.0322077
-8.1217594 6.7189031 -2.0489073
-9.8904953 8.1879435 -2.0336483
-11.761654 9.7404604 -1.8750819
-15.687235 13.000681 -1.7825093
-23.643026 19.60792 -1.6097494
-5.8102474 4.8357611 -2.0255179
-41.943333 34.921066 0.95265704
-6.7637687 5.633359 -2.0322077
-8.0952415 6.7446966 -2.0481439
-9.8557835 8.2173576 -2.0323968
-11.773125 9.8229284 -1.8826377
-15.738123 13.135792 -1.7934909
-23.611235 19.721052 -1.6122617
-5.7948112 4.8572555 -2.0260355
-6.736599 5.6506715 -2.0299582
-8.0716467 6.7729154 -2.0481439
-9.8270397 8.2517109 -2.0323968
-11.720528 9.8486404 -1.8797129
-15.736403 13.227827 -1.798546
-23.603386 19.85478 -1.6164485
-37.617111 31.665318 -0.85827446
-5.7837253 4.8824382 -2.0281062
-6.7138548 5.6716385 -2.0290585
-8.0479555 6.8010497 -2.0481439
-9.8011923 8.2885151 -2.0330224
-11.728505 9.9253988 -1.8865376
-15.685572 13.278815 -1.798023
-23.543079 19.944796 -1.6170765
-5.7666488 4.9025965 -2.0281062
-6.7009492 5.6989202 -2.0308583
-8.0181866 6.8240118 -2.0466175
-9.7706461 8.318408 -2.0323968
-11.710638 9.9771109 -1.888975
-15.661866 13.352877 -1.8006377
-23.540634 20.077192 -1.6214728
-5.7430191 4.9154129 -2.0255179
-6.686934 5.7273483 -2.0326576
-8.0029669 6.8569503 -2.0485253
-9.7475471 8.3576097 -2.0336483
-11.702861 10.041194 -1.8933623
-15.609941 13.398252 -1.7997661
-23.518896 20.200882 -1.6248223
-32.721371 28.12495 -0.75314116
-5.7243643 4.9341679 -2.0250003
-6.6669011 5.7506557 -2.0326576
-7.9774981 6.8835597 -2.0481439
-9.7153225 8.3890028 -2.0330224
-11.703784 10.113134 -1.899212
-15.587193 13.473507 -1.8025551
-23.472403 20.303766 -1.626497
-5.7085648 4.9553857 -2.0255179
-6.6335473 5.7623892 -2.0286086
-7.9623122 6.9190912 -2.0504336
-9.6919441 8.4280462 -2.0342741
-11.693869 10.176081 -1.9033556
-15.555098 13.540913 -1.8042982
-23.452589 20.430183 -1.6300559
-28.35186 24.715481 -0.6565246
-5.6999598 4.9829097 -2.0286238
-25.844328 22.601103 0.59928071
-6.6177921 5.7893591 -2.0299582
-7.9292455 6.9390874 -2.0481439
-9.6654387 8.4644299 -2.0348997
-11.670222 10.227302 -1.9053055
-15.513728 13.60038 -1.8049954
-23.414165 20.540894 -1.6323586
-5.6796308 5.0002246 -2.0275886
-25.744268 22.672676 0.59879208
-6.5975432 5.8124242 -2.0299582
-7.8990855 6.9615293 -2.0466175
-9.6358328 8.4981174 -2.0348997
-11.668682 10.298188 -1.9109114
-15.482584 13.668959 -1.8069128
-23.405188 20.678043 -1.6367549
-5.6635871 5.0213013 -2.0281062
-25.666464 22.763729 0.59882694
-6.583045 5.8405924 -2.0317578
-7.8776736 6.9916663 -2.0473807
-9.6061106 8.5317011 -2.0348997
-11.640082 10.345451 -1.9121301
-15.424357 13.713651 -1.8056926
-23.359722 20.783512 -1.638639
-5.6417017 5.0371804 -2.0265532
-25.585361 22.851847 0.59879208
-6.5655231 5.8661327 -2.0326576
-7.8590751 7.0243559 -2.0489073
-9.5703812 8.5599127 -2.0336483
-11.621649 10.401906 -1.915055
-15.397174 13.786015 -1.8081329
-23.358433 20.928902 -1.6436633
-5.6269584 5.0594254 -2.0275886
-25.509439 22.936565 0.59879208
-6.5358915 5.8787498 -2.0295084
-7.8374271 7.0543718 -2.0496705
-9.5448771 8.5942469 -2.0342741
-11.581194 10.435071 -1.91408
-15.348957 13.839678 -1.8081329
-23.345263 21.057074 -1.6476408
-5.607285 5.0754647 -2.0265532
-25.43515 23.030842 0.59893167
-6.5138869 5.9002209 -2.0290585
-7.8139906 7.0803227 -2.0496705
-9.5148201 8.627512 -2.0342741
-11.528524 10.460763 -1.911399
-15.300028 13.887822 -1.8077843
-23.310051 21.173359 -1.6503623
-5.5966725 5.1015134 -2.0291414
-25.355682 23.112368 0.59886193
-6.4971652 5.9244156 -2.0299582
-7.7805266 7.0996156 -2.0473807
-9.4949112 8.6670074 -2.0361512
-11.495239 10.500271 -1.9116427
-15.254401 13.94383 -1.8081329
-23.286875 21.293669 -1.6537117
-5.5717149 5.1144872 -2.0265532
-25.287001 23.220022 0.59924585
-6.4811497 5.9534612 -2.0317578
-7.7470212 7.118763 -2.0450909
-9.4601755 8.6990738 -2.0355256
-11.497578 10.57997 -1.9184674
-15.211499 14.002393 -1.8088303
-23.273314 21.438412 -1.6583172
-5.5538278 5.1339049 -2.0265532
-25.19405 23.297293 0.5989666
-6.4660506 5.9813414 -2.0335574
-7.7278905 7.151094 -2.0466175
-9.4181566 8.7213068 -2.0330224
-11.491153 10.648375 -1.9235859
-15.162525 14.055408 -1.8088303
-23.236406 21.554836 -1.6610388
-39.771313 36.919003 -0.94721192
-5.5387015 5.1558928 -2.0275886
-25.10379 23.376915 0.59875721
-6.4308729 5.990593 -2.0290585
-7.7057533 7.1807032 -2.0473807
-9.3905458 8.7568235 -2.0336483
-11.485843 10.718218 -1.9289482
-15.127934 14.121846 -1.8105733
-23.169783 21.643997 -1.6616668
-39.642208 37.057594 -0.94721192
-5.5248981 5.1791587 -2.0291414
-25.022041 23.464396 0.59875721
-6.4156075 6.0183377 -2.0308583
-7.6806412 7.2075577 -2.0473807
-9.3656807 8.7949581 -2.0348997
-11.474395 10.782717 -1.9333354
-15.087261 14.182752 -1.8116193
-23.108631 21.738434 -1.6627135
-39.550468 37.231388 -0.94811946
-5.5039778 5.1957598 -2.0281062
-24.939978 23.551601 0.59875721
-6.3917274 6.0380192 -2.0299582
-7.6497283 7.2289281 -2.0458541
-9.3291826 8.8221684 -2.0336483
-11.474176 10.858177 -1.9396726
-15.049237 14.246287 -1.8130137
-23.099312 21.882145 -1.6675284
-5.480207 5.2096167 -2.0260355
-24.857397 23.630041 0.59865248
-6.3801417 6.0672393 -2.0326576
-7.6216025 7.252882 -2.0450909
-9.2970142 8.8503323 -2.0330224
-11.485538 10.941352 -1.947716
-14.99942 14.298728 -1.8130137
-23.095999 22.024786 -1.6725527
-39.212219 37.419666 -0.94609499
-5.4615049 5.2264252 -2.0255179
-24.774757 23.716673 0.59865248
-6.3645554 6.0948634 -2.0344574
-7.6088519 7.28898 -2.0481439
-9.2660656 8.8827295 -2.0330224
-11.485952 11.018482 -1.9542971
-14.951917 14.348393 -1.8130137
-23.018978 22.105272 -1.6725527
-5.450182 5.2521615 -2.0281062
-24.687504 23.798838 0.59854776
-6.3292146 6.1035156 -2.0299582
-7.5777092 7.3100457 -2.0466175
-9.2293177 8.9095325 -2.0317712
-11.487397 11.097126 -1.9611217
-14.901743 14.400496 -1.8130137
-22.976131 22.218811 -1.6750647
-5.4318161 5.271153 -2.0281062
-24.615755 23.896009 0.59882694
-6.3078704 6.1255717 -2.0299582
-7.5521474 7.3364506 -2.0466175
-9.203825 8.9472046 -2.0330224
-11.491279 11.178679 -1.9684337
-14.271664 13.888284 -1.7422433
-22.941366 22.340677 -1.678205
-32.107197 31.288368 -0.78253096
-5.413383 5.290082 -2.0281062
-24.523617 23.973408 0.59861755
-6.2920213 6.1530046 -2.0317578
-7.5321054 7.3682594 -2.0481439
-9.1753607 8.9820414 -2.0336483
-11.484803 11.250674 -1.9740397
-14.264364 13.978456 -1.7472982
-22.86894 22.42622 -1.6786236
-5.3907537 5.3048811 -2.0265532
-24.436937 24.056053 0.59854776
-6.2705064 6.1749291 -2.0317578
-7.5035424 7.3917513 -2.0473807
-9.1439533 9.0140133 -2.0336483
-11.489266 11.333914 -1.9815956
-14.222576 14.035157 -1.7481698
-22.881468 22.595726 -1.6853225
-30.528206 30.168013 -0.74916202
-5.3694601 5.3209453 -2.0255179
-24.34145 24.12995 0.59826851
-6.2433782 6.1912909 -2.0299582
-7.4776959 7.4178967 -2.0473807
-9.1012173 9.0347424 -2.0311453
-11.539769 11.463485 -1.9971949
-14.228615 14.13949 -1.754968
-22.810959 22.683907 -1.6859506
-30.428377 30.280043 -0.74930161
-5.3563223 5.3451152 -2.0275886
-24.255657 24.213358 0.59823358
-6.2286248 6.2199302 -2.0322077
-7.4600897 7.452281 -2.0496705
-9.0696239 9.0664577 -2.0311453
-11.802824 11.806944 -2.0498426
-14.236913 14.246853 -1.7621148
-22.785265 22.817097 -1.6899282
-30.3225 30.386066 -0.74930161
-5.3403563 5.3665185 -2.0286238
-24.176628 24.303551 0.59837323
-6.2027526 6.2374897 -2.0308583
-7.4312625 7.4754915 -2.0489073
-9.0407047 9.1008644 -2.0317712
-11.778319 11.864976 -2.0527673
-14.168852 14.278079 -1.7598487
-22.671728 22.862459 -1.6874161
-30.20499 30.480368 -0.74902242
-5.3215914 5.3851275 -2.0286238
-24.090244 24.386366 0.59833831
-6.1823092 6.2604909 -2.0313082
-51.977398 52.653084 3.8774667
-7.3996053 7.4957972 -2.0473807
-9.0047188 9.1281481 -2.0308325
-11.749377 11.91874 -2.0549612
-14.1413 14.350157 -1.7626377
-22.415209 22.76215 -1.6742274
-22.496311 22.860462 -0.55983829
-5.3027625 5.4036694 -2.0286238
-23.999372 24.4646 0.59819865
-6.1658754 6.2875981 -2.0331075
-7.3733964 7.5215793 -2.0473807
-8.9769487 9.1637592 -2.0317712
-11.722974 11.975286 -2.0576422
-14.086941 14.395159 -1.7621148
-22.399851 22.905941 -1.6790422
-22.402405 22.924543 -0.55948925
-5.2784748 5.4166126 -2.0265532
-23.902658 24.536772 0.59791946
-6.1479702 6.3132706 -2.0344574
-7.344358 7.5444584 -2.0466175
-8.9338894 9.1837091 -2.0292683
-11.697704 12.033216 -2.0605671
-14.031056 14.438526 -1.7614175
-22.261318 22.923815 -1.674646
-22.283249 22.962429 -0.55851191
-5.2689376 5.4447246 -2.0301766
-23.818258 24.621489 0.59795433
-6.1164126 6.3248863 -2.0313082
-7.3288922 7.5813432 -2.0496705
-8.9045229 9.21768 -2.0298939
-11.683206 12.102535 -2.0654416
-13.975037 14.481681 -1.7607204
-22.195034 23.015753 -1.6756928
-22.226547 23.06455 -0.55910534
-5.2512398 5.4644747 -2.0306942
-23.743252 24.716019 0.59823358
-6.0956478 6.3476043 -2.0317578
-7.2969465 7.6012125 -2.0481439
-8.877759 9.2544107 -2.0311453
-11.671111 12.17477 -2.0708041
-13.934047 14.540449 -1.7619405
-22.551073 23.548922 -1.7087691
-5.2334666 5.48417 -2.0312121
-6.0734529 6.368844 -2.0317578
-7.2676597 7.6237955 -2.0473807
-8.8454037 9.2853413 -2.0311453
-13.990342 14.701574 -1.7755368
-22.474234 23.633291 -1.7091877
-23.554081 24.786135 -0.5968374
-5.2036605 5.4911866 -2.0270708
-6.0538635 6.3928347 -2.0326576
-7.2423525 7.6505442 -2.0477622
-36.187748 38.240719 4.6061807
-8.8047934 9.3075514 -2.0292683
-13.895146 14.70398 -1.7699587
-22.460171 23.784199 -1.7144215
-5.1871099 5.5121298 -2.0281062
-6.0353012 6.4157143 -2.0335574
-7.2196393 7.6800685 -2.0489073
-8.7765837 9.3395777 -2.0298939
-11.501642 12.247998 -2.0630045
-13.299747 14.1727 -1.7004085
-22.39757 23.876036 -1.7156775
-5.1701212 5.5307121 -2.0286238
-6.006218 6.4296222 -2.0313082
-7.1954713 7.7054024 -2.0492887
-8.7425814 9.3687124 -2.0295811
-11.447984 12.27646 -2.0610545
-13.937387 14.951246 -1.7882615
-14.671404 15.749679 -1.1280493
-5.1573558 5.5558052 -2.0312121
-5.9901648 6.4552178 -2.0331075
-7.1698647 7.7319117 -2.0496705
-8.7128086 9.3991013 -2.0298939
-11.399117 12.305618 -2.0595922
-13.776839 14.882835 -1.7743167
-14.629947 15.809971 -1.1288867
-53.949001 58.341236 -1.3870126
-5.1340017 5.5695138 -2.029659
-5.970428 6.4814286 -2.0344574
-7.1401696 7.7540064 -2.0489073
-14.461184 15.709896 1.8680962
-8.6769657 9.4295168 -2.0295811
-11.335131 12.326856 -2.0561798
-13.750422 14.958705 -1.7776285
-5.1158347 5.5888247 -2.0301766
-14.468713 15.811974 0.37410977
-5.9451365 6.4993539 -2.0335574
-7.1104116 7.7759829 -2.0481439
-14.368618 15.719103 1.8632153
-8.6479921 9.4641237 -2.0305195
-11.27597 12.348759 -2.0532548
-13.704834 15.013972 -1.7785
-14.485477 15.891449 -0.37533146
-5.0910969 5.6009302 -2.0281062
-5.9224129 6.5200667 -2.0335574
-7.0819054 7.7993026 -2.0477622
-14.2842 15.736708 1.8593806
-8.6029587 9.4810867 -2.0277038
-11.22746 12.38216 -2.0522799
-13.711217 15.126672 -1.7861698
-22.170542 24.476444 -1.7307502
-5.0792813 5.6272721 -2.0312121
-5.8943973 6.5349126 -2.0317578
-7.0638399 7.8341818 -2.0504336
-14.295879 15.86047 1.8680962
-8.5698109 9.5110588 -2.0277038
-11.178854 12.415378 -2.0513051
-12.674647 14.08156 -1.6575279
-22.122368 24.595268 -1.7336812
-31.359062 34.888935 -0.81883204
-5.0596089 5.6449671 -2.0312121
-5.8689494 6.5525451 -2.0308583
-7.0299044 7.8514771 -2.0485253
-8.5391922 9.5438595 -2.0283296
-11.069294 12.38033 -2.0391181
-13.568107 15.180429 -1.7812891
-22.070976 24.711063 -1.7364025
-31.253847 35.004665 -0.81911123
-5.0398722 5.6625948 -2.0312121
-5.85496 6.5807066 -2.0335574
-6.9920168 7.8642321 -2.0454724
-35.407082 39.837917 4.6630063
-8.5048733 9.5691719 -2.0277038
-11.038724 12.428843 -2.0410681
-13.480652 15.188951 -1.776757
-22.060486 24.864794 -1.7420549
-31.120844 35.101589 -0.81883204
-5.0146689 5.6720386 -2.0286238
-5.835825 6.6054835 -2.0349073
-6.974998 7.8976746 -2.0481439
-35.251041 39.92823 4.6598687
-8.4740343 9.6017609 -2.0283296
-11.008403 12.482188 -2.0435054
-12.789856 14.507242 -1.6920416
-22.021088 24.995602 -1.745823
-30.947926 35.152966 -0.81750566
-4.9935637 5.6880584 -2.0281062
-5.8050213 6.6170254 -2.0322077
-6.9486804 7.9234514 -2.0485253
-35.135098 40.077995 4.6630063
-8.4209366 9.6089983 -2.0236366
-10.975226 12.532486 -2.0454552
-13.466191 15.382298 -1.7886101
-21.983673 25.129438 -1.7498006
-30.867144 35.308956 -0.81862259
-4.9774876 5.7098217 -2.029659
-33.225025 38.126831 0.8827427
-5.7793264 6.6343107 -2.0313082
-6.9274263 7.9550619 -2.0504336
-8.3860445 9.6368456 -2.0233238
-10.923601 12.561731 -2.0439928
-13.464697 15.489362 -1.7955827
-21.911545 25.224112 -1.7510566
-4.9663768 5.7373862 -2.0332825
-5.7612319 6.6603394 -2.0331075
-6.891912 7.9702826 -2.0481439
-34.91959 40.397667 4.6717219
-8.3497715 9.6630707 -2.0226979
-10.874491 12.593777 -2.0430176
-14.012008 16.233068 -1.8761145
-21.872925 25.35792 -1.7550341
-4.9438004 5.7517576 -2.0322473
-50.848431 59.17939 1.3619159
-5.7404895 6.6833653 -2.0340075
-6.8614907 7.991313 -2.0473807
-34.778362 40.519318 4.6717219
-8.3044157 9.6786642 -2.019882
-10.833053 12.634671 -2.0435054
-13.898213 16.215319 -1.8684448
-21.776489 25.425013 -1.7544062
-4.9124074 5.755754 -2.0275886
-50.716808 59.444767 1.3639405
-5.7209201 6.7078094 -2.0353572
-6.8335557 8.015214 -2.0473807
-8.2641764 9.7000723 -2.0183177
-10.781158 12.663342 -2.042043
-13.888015 16.318352 -1.87472
-21.816992 25.653019 -1.7648733
-4.8997784 5.7817101 -2.0306942
-5.6936908 6.7232785 -2.0340075
-6.8055334 8.0390196 -2.0473807
-8.2200575 9.7167978 -2.0158148
-10.747146 12.713025 -2.0439928
-14.715737 17.413719 -1.9946463
-23.11129 27.367884 -1.877291
-4.8758359 5.7943425 -2.0291414
-5.6664228 6.7386389 -2.0326576
-6.7824864 8.068737 -2.0489073
-8.1835451 9.7424097 -2.0151892
-10.702706 12.75046 -2.0439928
-14.683031 17.49856 -1.998481
-17.238297 20.558357 -1.406058
-4.8605337 5.8172593 -2.0312121
-5.6328759 6.7464089 -2.0290585
-6.7542772 8.0923653 -2.0489073
-8.1545515 9.7769814 -2.0164404
-10.65813 12.787745 -2.0439928
-14.611661 17.537458 -1.9970866
-17.080803 20.515572 -1.3990449
-4.841433 5.8356757 -2.0317297
-5.6241589 6.7815509 -2.0340075
-6.7209792 8.1098442 -2.0473807
-8.1258678 9.8085327 -2.017379
-10.618199 12.826074 -2.0444803
-14.517339 17.548439 -1.9925545
-16.945221 20.490522 -1.3934973
-4.8146815 5.8427544 -2.0286238
-5.5992117 6.7996383 -2.0335574
-6.6965423 8.1351204 -2.0481439
-8.0853033 9.8292112 -2.0158148
-10.578402 12.869196 -2.0454552
-14.433764 17.565701 -1.9890683
-16.811483 20.473917 -1.3883684
-4.800375 5.8670001 -2.0312121
-5.5766773 6.8206496 -2.0340075
-6.6656208 8.155405 -2.0473807
-8.0509453 9.8573723 -2.0158148
-10.538439 12.912193 -2.0464303
-14.372364 17.615974 -1.9890683
-16.680601 20.459717 -1.3834488
-4.7835217 5.8882179 -2.0327649
-5.5466952 6.8325086 -2.0317578
-6.6445341 8.1877708 -2.0496705
-8.0052919 9.8716049 -2.0129991
-10.498299 12.955071 -2.0474052
-14.233026 17.570053 -1.9782611
-16.546244 20.440205 -1.3782152
-4.7629375 5.9048805 -2.0327649
-5.5227823 6.8493481 -2.0313082
-6.6109867 8.2047977 -2.0481439
-7.9725099 9.8980999 -2.0129991
-10.432878 12.961976 -2.0430176
-14.159123 17.604101 -1.9765179
-16.423309 20.42647 -1.3736097
-4.7409153 5.9176264 -2.0317297
-5.5000596 6.8701053 -2.0317578
-6.5739264 8.2144156 -2.0450909
-7.9416137 9.9304953 -2.0139375
-10.392524 13.004522 -2.0439928
-14.093211 17.641615 -1.975472
-16.308289 20.429047 -1.3699461
-4.7130122 5.9250689 -2.0286238
-5.4784675 6.8923144 -2.0326576
-6.5501003 8.2434597 -2.0466175
-7.9068985 9.9581585 -2.0139375
-10.334729 13.025166 -2.0415554
-14.034016 17.693827 -1.9758208
-16.213312 20.456104 -1.3679574
-4.6970921 5.9475479 -2.0306942
-5.4604101 6.9190459 -2.0349073
-6.5164227 8.260107 -2.0450909
-7.8635263 9.9748402 -2.0117474
-10.291659 13.064278 -2.042043
-13.967231 17.736448 -1.9751234
-16.109699 20.471764 -1.3652358
-4.6751094 5.9623885 -2.0301766
-5.421803 6.9196553 -2.0295084
-6.4948115 8.292078 -2.0473807
-7.8262277 9.9991159 -2.0111217
-10.243546 13.096998 -2.0415554
-13.924873 17.810205 -1.9779123
-16.040596 20.531025 -1.3654453
-4.6578293 5.9832439 -2.0317297
-5.4047971 6.9477668 -2.0322077
-6.4610076 8.3084984 -2.0458541
-7.7888536 10.023252 -2.0104959
-10.183158 13.113857 -2.0386305
-13.865067 17.861851 -1.9782611
-15.99087 20.615295 -1.3673294
-4.6357355 5.9979367 -2.0312121
-5.3793192 6.9650507 -2.0317578
-6.4283652 8.3263407 -2.0447092
-7.7574358 10.055074 -2.0114346
-10.130044 13.139894 -2.0371683
-13.807493 17.916456 -1.9789582
-15.95049 20.712135 -1.3700508
-4.6124167 6.0110178 -2.0301766
-5.3597183 6.9899693 -2.0335574
-6.394486 8.342495 -2.0431828
-7.718689 10.077385 -2.0104959
-10.081705 13.172019 -2.0366805
-13.742452 17.961376 -1.9786097
-15.907213 20.805763 -1.372563
-4.5949168 6.031693 -2.0317297
-5.3352838 7.0086374 -2.0335574
-6.367702 8.3678913 -2.043946
-7.6798749 10.099551 -2.0095575
-10.021257 13.188164 -2.0337558
-13.679666 18.009241 -1.9786097
-15.862268 20.897749 -1.3749704
-4.5703397 6.0430717 -2.0301766
-5.3060889 7.0209985 -2.0317578
-6.3384557 8.3900671 -2.043946
-7.6493378 10.132603 -2.0108089
-9.9799385 13.229405 -2.0347307
-13.633517 18.079149 -1.98105
-4.5550184 6.0667124 -2.0327649
-5.2803802 7.0379171 -2.0313082
-6.3044195 8.4058571 -2.0424197
-7.616293 10.162401 -2.0114346
-9.9194155 13.245096 -2.031806
-13.567942 18.123436 -1.9807014
-15.817674 21.143925 -1.3838675
-4.5395846 6.0903206 -2.0353529
-5.2592711 7.0609961 -2.0326576
-6.2715206 8.4230909 -2.0412748
-7.5831289 10.192097 -2.0120604
-9.8731232 13.279638 -2.031806
-13.502214 18.167492 -1.9803529
-16.127216 21.715311 -1.4175718
-4.5079575 6.0921521 -2.0306942
-5.2345934 7.0793104 -2.0326576
-6.2432489 8.4465075 -2.0416565
-7.5510287 10.22327 -2.0129991
-9.8290701 13.317214 -2.0322933
-13.450539 18.230549 -1.9820958
-15.73013 21.335815 -1.3892057
-4.4878068 6.1094093 -2.0312121
-5.2098479 7.0975409 -2.0326576
-6.2160468 8.4714165 -2.0424197
-7.5094533 10.241603 -2.0114346
-9.7754612 13.336928 -2.0303433
-13.38447 18.274172 -1.9817473
-15.703916 21.456678 -1.3934973
-4.4743547 6.1336212 -2.0343177
-5.1782489 7.1037536 -2.0295084
-6.1902347 8.4951553 -2.0431828
-7.4731269 10.263254 -2.0108089
