# .PCD v0.7 - Point Cloud Data file format
VERSION 0.7
FIELDS x y z
SIZE 4 4 4
TYPE F F F
COUNT 1 1 1
WIDTH 1505
HEIGHT 1
VIEWPOINT 0 0 0 1 0 0 0
POINTS 1505
DATA ascii
-14.150729 17.562262 -1.973206
-21.327625 26.488319 -1.7822487
-30.95042 38.467045 -0.86179984
-4.8840714 6.0876007 -2.0912578
-5.6596618 7.0593581 -2.0888956
-6.7184014 8.3829336 -2.0882137
-8.1596985 10.188606 -2.0674381
-10.304852 12.876372 -2.0249813
-14.106759 17.633333 -1.9756464
-21.302372 26.646854 -1.7879012
-30.862627 38.619465 -0.86291683
-4.8748274 6.1197243 -2.0964344
-5.6398611 7.0826626 -2.0902452
-6.6939869 8.4124804 -2.0897403
-8.1393909 10.232617 -2.0708797
-10.269508 12.919795 -2.0264435
-14.055039 17.694948 -1.9770409
-21.278477 26.798679 -1.7933441
-30.687864 38.676826 -0.86179984
-4.8425217 6.1207047 -2.0912578
-5.6042275 7.0885472 -2.0861959
-6.6526642 8.4176874 -2.0855424
-8.0987272 10.254764 -2.0696282
-10.229264 12.961801 -2.0274186
-13.993191 17.743896 -1.9770409
-21.254038 26.96063 -1.7992057
-30.510607 38.730297 -0.86061311
-4.8355637 6.1581659 -2.0979872
-5.5794482 7.108068 -2.0861959
-6.6278229 8.4497404 -2.0874505
-8.0574341 10.279712 -2.0686896
-10.183959 12.997426 -2.0274186
-13.931162 17.792639 -1.9770409
-21.2117 27.110703 -1.8040205
-30.303764 38.745213 -0.85858858
-4.8033504 6.1612949 -2.0933285
-5.5509648 7.1253939 -2.0852964
-6.6007023 8.4759207 -2.0882137
-8.0142202 10.298424 -2.0668125
-10.143567 13.044065 -2.0288811
-13.883646 17.860031 -1.9791325
-21.190454 27.279213 -1.8103008
-30.21306 38.922363 -0.86005461
-4.7747202 6.1688566 -2.0902226
-5.5260563 7.1447277 -2.0852964
-6.575881 8.5051212 -2.0897403
-7.9890904 10.340406 -2.0696282
-10.112526 13.09825 -2.031806
-13.823648 17.911545 -1.9794812
-21.158524 27.435263 -1.8157438
-30.025732 38.961071 -0.85858858
-4.7684588 6.2054005 -2.096952
-5.5058327 7.170156 -2.087096
-6.5473456 8.529583 -2.0901217
-7.9661736 10.38547 -2.0730698
-10.066746 13.133468 -2.031806
-13.763469 17.962849 -1.9798299
-21.133057 27.600925 -1.8218148
-30.023222 39.240334 -0.86242813
-4.7327085 6.2035761 -2.0907402
-5.4689574 7.1738324 -2.0825968
-6.5044436 8.5352077 -2.0859239
-7.9322686 10.416355 -2.0736954
-10.020837 13.16853 -2.031806
-13.715161 18.029808 -1.9819216
-21.087339 27.741312 -1.826211
-29.924761 39.395863 -0.86354512
-4.7285199 6.2431598 -2.098505
-5.4474092 7.1975422 -2.0839467
-6.4864535 8.5735178 -2.0897403
-7.9006233 10.450286 -2.0749471
-9.9843855 13.2161 -2.0337558
-13.647333 18.071217 -1.9812243
-21.064972 27.913589 -1.8327007
-29.914391 39.654514 -0.86703557
-4.6939292 6.2426419 -2.0928109
-5.4270248 7.2202387 -2.0852964
-6.4588466 8.5992451 -2.0905035
-7.857625 10.465369 -2.072757
-9.9476547 13.25866 -2.0352182
-13.600897 18.141066 -1.9836646
-21.027395 28.056805 -1.8375156
-29.761395 39.739491 -0.86661673
-4.6720438 6.2566266 -2.0922933
-5.4052863 7.2438226 -2.0866458
-6.4244242 8.6127501 -2.0885954
-7.8257651 10.499069 -2.0740085
-9.9060516 13.299674 -2.0361931
-13.538289 18.182869 -1.9833159
-20.984167 28.203749 -1.8423306
-29.64378 39.857216 -0.86703557
-4.6478758 6.2697916 -2.0912578
-5.3591886 7.2319608 -2.0780978
-6.3908172 8.6303883 -2.0874505
-7.8038363 10.542426 -2.07745
-9.8571749 13.326066 -2.0352182
-13.491321 18.252443 -1.9857564
-20.930883 28.327791 -1.8458893
-29.549612 40.021572 -0.86836189
-4.6214318 6.2821159 -2.089705
-5.346384 7.2728992 -2.0839467
-6.3684444 8.6664085 -2.0905035
-7.7691422 10.580276 -2.0790143
-9.8153248 13.376621 -2.0371683
-13.438469 18.321053 -1.987848
-20.772362 28.3403 -1.8414931
-29.360266 40.086349 -0.86731482
-4.6233993 6.3309727 -2.1005754
-5.3071809 7.2726259 -2.0785477
-6.3219543 8.6663828 -2.0851607
-7.7403102 10.618505 -2.0812044
-9.775588 13.420426 -2.0386305
-13.369747 18.361406 -1.9871509
-20.478249 28.144539 -1.8241175
-29.257795 40.240341 -0.86843175
-4.5933332 6.3361259 -2.096952
-5.2817607 7.2911086 -2.0785477
-6.2916622 8.6884003 -2.0851607
-7.6997204 10.640659 -2.0802658
-9.7333374 13.4609 -2.0396054
-13.31257 18.417654 -1.9881967
-20.370533 28.202896 -1.8232802
-29.112478 40.320934 -0.8680827
-4.5621624 6.3395758 -2.0928109
-5.251864 7.3006721 -2.0762982
-6.2658815 8.7166843 -2.0866873
-7.6782269 10.685382 -2.0840201
-9.690959 13.496333 -2.0400932
-13.257496 18.476959 -1.9895912
-20.272232 28.263807 -1.8228616
-29.113684 40.620598 -0.8723411
-4.5253906 6.3326635 -2.0855639
-5.2354054 7.3316483 -2.0798974
-6.2506304 8.7565889 -2.0912669
-7.6317019 10.699256 -2.0815172
-9.6507044 13.539775 -2.0415554
-13.197545 18.529612 -1.9902885
-20.15029 28.301849 -1.8207681
-29.059824 40.845802 -0.87499386
-4.5110879 6.3618159 -2.089705
-5.2086563 7.3482881 -2.0794475
-6.195796 8.7473984 -2.0836341
-7.5992861 10.736828 -2.0833945
-9.6010866 13.57014 -2.0410681
-13.13278 18.575571 -1.9902885
-20.122475 28.483185 -1.8276764
-28.863997 40.871864 -0.87338823
-4.4788475 6.3633046 -2.0850463
-5.1816902 7.3673282 -2.0794475
-6.1674848 8.7721834 -2.0843976
-7.5685768 10.772986 -2.0852716
-9.5626945 13.621484 -2.0435054
-13.065574 18.618034 -1.9899398
-19.999998 28.520538 -1.8255829
-28.762184 41.046169 -0.87485421
-4.4676704 6.3947377 -2.0902226
-5.1548247 7.3837748 -2.0789976
-6.1345768 8.7904406 -2.0836341
-7.5196233 10.783137 -2.0821428
-9.5309734 13.677586 -2.0469177
-13.011889 18.679882 -1.991683
-19.877495 28.5574 -1.8234897
-28.748911 41.333462 -0.87883341
-4.4431214 6.4071183 -2.0891874
-5.1168113 7.3841023 -2.0740488
-6.1116824 8.8230963 -2.0863059
-7.4662008 10.78658 -2.0777628
-9.4786491 13.704243 -2.0459425
-12.955673 18.738295 -1.9930775
-19.802658 28.662771 -1.8257923
-28.729433 41.614574 -0.88267297
-4.41854 6.419405 -2.0881522
-5.1009417 7.4163709 -2.0780978
-6.0919714 8.8605528 -2.0901217
-7.4296179 10.814206 -2.0780756
-9.4285116 13.733971 -2.0454552
-12.887924 18.780121 -1.9927288
-19.664085 28.675709 -1.8222334
-28.615635 41.760803 -0.8836503
-4.4048214 6.4475517 -2.0922933
-5.0728269 7.4309106 -2.077198
-6.0499372 8.8655491 -2.0863059
-7.402956 10.856394 -2.0812044
-9.3872232 13.77664 -2.0469177
-12.837996 18.848045 -1.9951692
-19.595341 28.790401 -1.8251643
-28.445505 41.809166 -0.88267297
-4.3681922 6.4421029 -2.0855639
-5.0415983 7.4380121 -2.0744987
-6.0145469 8.8801126 -2.0847793
-7.3591633 10.869431 -2.0790143
-9.3526068 13.824138 -2.049355
-12.763206 18.879538 -1.9937748
-19.488569 28.83868 -1.8241175
-28.402336 42.060677 -0.88588417
-4.3381758 6.4437323 -2.081423
-5.0243044 7.468503 -2.0780978
-5.9795904 8.8918619 -2.082871
-7.3167677 10.888497 -2.0777628
-9.3109369 13.866587 -2.0508175
-12.720509 18.951538 -1.9969124
-19.387791 28.906528 -1.8241175
-28.263144 42.171185 -0.88612849
-4.316731 6.4604411 -2.0819407
-4.9949589 7.4811325 -2.0767481
-5.9485173 8.9126787 -2.082871
-7.2841973 10.922186 -2.0793271
-9.2646809 13.902305 -2.0513051
-12.652064 18.992514 -1.9965637
-19.286776 28.974024 -1.8241175
-28.392626 42.685844 -0.89485466
-4.2994905 6.4835215 -2.0845287
-4.9709649 7.5017719 -2.0776479
-5.9271255 8.948122 -2.0863059
-7.2373023 10.93437 -2.0768242
-9.2095222 13.924629 -2.0498426
-12.59116 19.052052 -1.9979583
-19.185514 29.041176 -1.8241175
-28.298544 42.868126 -0.89659989
-4.2831316 6.5105329 -2.0881522
-4.9447503 7.5190768 -2.0776479
-5.8899784 8.9632215 -2.0847793
-7.2112746 10.982287 -2.0808916
-9.1630354 13.960011 -2.0503302
-12.550808 19.135868 -2.0021417
-19.078949 29.111296 -1.8241175
-4.2498164 6.5092688 -2.0829759
-4.9160953 7.5355172 -2.077198
-5.8500733 8.9705725 -2.0817263
-7.1588726 10.98588 -2.0768242
-9.1248093 14.013463 -2.0532548
-12.470887 19.159529 -2.0000501
-18.959787 29.150934 -1.8224429
-24.855047 38.229576 -0.79593444
-4.2260203 6.5224414 -2.0824583
-4.8931961 7.5550508 -2.0780978
-5.8240595 8.9991779 -2.0836341
-7.1213312 11.007898 -2.0765114
-9.0804472 14.046977 -2.0537424
-12.410423 19.212982 -2.0010958
-18.858688 29.206934 -1.8220242
-24.66942 38.235443 -0.79425901
-4.2043657 6.5364213 -2.0824583
-4.8636351 7.5671663 -2.0767481
-5.8069172 9.0382643 -2.0882137
-7.088202 11.041 -2.0780756
-15.422665 24.032499 3.5061812
-9.0377855 14.088615 -2.0552046
-12.359542 19.27416 -2.0031877
-18.788937 29.323036 -1.8251643
-24.479723 38.233757 -0.79244399
-4.1804857 6.549428 -2.0819407
-4.8309011 7.5742402 -2.0740488
-5.7637248 9.0402679 -2.0840161
-7.0453701 11.059012 -2.0768242
-15.281108 23.995768 3.4930193
-8.9821596 14.110028 -2.0537424
-15.176772 23.8503 4.477468
-12.296472 19.323908 -2.0038848
-18.658613 29.344622 -1.8224429
-24.395451 38.39661 -0.79404956
-4.1679373 6.5802994 -2.0871167
-4.8117261 7.6025853 -2.077198
-5.7342343 9.0636492 -2.0847793
-7.0109434 11.090219 -2.0780756
-15.199379 24.052317 3.4935069
-8.937088 14.148011 -2.0547173
-15.12717 23.956585 4.4874797
-12.241703 19.386932 -2.0059764
-18.549664 29.399441 -1.8218148
-24.380728 38.670986 -0.79795897
-4.1428843 6.5915384 -2.0860815
-4.7924156 7.6308861 -2.0803473
-5.702559 9.0836115 -2.0847793
-6.9742904 11.11797 -2.0787015
-15.111103 24.098501 3.4925318
-8.8897591 14.182483 -2.0552046
-12.167612 19.419413 -2.0049307
-18.45117 29.470779 -1.8222334
-24.353758 38.92878 -0.80151922
-4.116785 6.6010413 -2.0845287
-4.7554445 7.6310282 -2.0758483
-5.6760044 9.1117964 -2.0866873
-6.9312654 11.135537 -2.07745
-8.8548803 14.237025 -2.0586171
-12.108171 19.4753 -2.006325
-18.314468 29.480715 -1.818884
-24.321068 39.180058 -0.80493987
-4.0967655 6.6203003 -2.0860815
-4.7113538 7.6194053 -2.0681999
-5.6534553 9.1465816 -2.0901217
-6.896502 11.166389 -2.0787015
-8.8072109 14.271228 -2.0591044
-12.040112 19.51745 -2.006325
-18.15275 29.449257 -1.8130224
-4.072475 6.6352701 -2.0860815
-21.927935 35.7411 0.73191905
-4.7119231 7.6831355 -2.0807972
-5.6127129 9.1555233 -2.0874505
-6.8431497 11.171375 -2.0749471
-8.7465572 14.289865 -2.0571547
-11.992416 19.600534 -2.0103345
-18.117622 29.634872 -1.8203495
-4.0412521 6.6362453 -2.0819407
-4.6894569 7.7037139 -2.0821469
-5.5664387 9.151576 -2.0821078
-6.8091416 11.199072 -2.0758855
-8.7217941 14.356119 -2.0625172
-11.93219 19.655905 -2.0117288
-17.936354 29.558197 -1.8119756
-4.0182223 6.6479578 -2.081423
-4.6433973 7.6883407 -2.0735989
-5.5259104 9.1531782 -2.0782917
-6.7730713 11.227845 -2.0768242
-8.6839285 14.406875 -2.0654416
-11.858722 19.681711 -2.0103345
-17.826891 29.610353 -1.8113476
-3.9939997 6.660285 -2.0809052
-4.618536 7.7078438 -2.0744987
-5.5110736 9.201046 -2.0847793
-6.7277536 11.241248 -2.0749471
-8.6396961 14.447326 -2.0669043
-11.796084 19.733244 -2.0113802
-17.735706 29.692984 -1.8126037
-3.9835653 6.6957707 -2.0876343
-4.5906048 7.7222452 -2.0740488
-5.4789243 9.2202263 -2.0847793
-6.6874619 11.262967 -2.0746341
-8.5993443 14.494466 -2.0693417
-11.735867 19.796915 -2.0134718
-17.63603 29.76158 -1.8130224
-3.9540911 6.7020063 -2.0850463
-4.5566897 7.7264733 -2.0708995
-5.4440994 9.238553 -2.0843976
-6.6451359 11.285698 -2.0743213
-8.544672 14.517549 -2.0683665
-11.670734 19.844627 -2.0141692
-17.516705 29.808805 -1.8119756
-3.9365261 6.7257729 -2.0881522
-4.5352283 7.7548971 -2.0740488
-5.4009161 9.2388582 -2.0801997
-6.6076908 11.312239 -2.0749471
-8.4833956 14.535056 -2.0664167
-11.615443 19.90934 -2.0166094
-17.390421 29.831804 -1.809673
-3.8965352 6.7110705 -2.0793524
-4.505199 7.7656231 -2.0726991
-5.3617415 9.2457638 -2.0775285
-6.5790596 11.354033 -2.0783885
-8.4375839 14.573168 -2.0676355
-11.551868 19.96011 -2.0176554
-17.286188 29.892323 -1.809673
-3.8663349 6.7129135 -2.0757289
-4.4712586 7.7694807 -2.0695498
-5.3284535 9.2627239 -2.0771468
-6.5236335 11.349529 -2.0733826
-8.3827047 14.595649 -2.0666604
-11.490054 20.014137 -2.0190499
-17.042601 29.70994 -1.7950188
-3.857255 6.7515292 -2.0834932
-4.4406385 7.7758026 -2.0673003
-5.3067932 9.3000231 -2.0813446
-6.4869423 11.372815 -2.0736954
-8.3431072 14.638886 -2.0688543
-11.439846 20.088749 -2.022536
-16.951895 29.780176 -1.7958562
-3.8291266 6.7542005 -2.0803876
-4.4173093 7.7980399 -2.0690999
-5.2759218 9.3175716 -2.0813446
-6.4588737 11.416022 -2.07745
-8.2919531 14.667923 -2.0688543
-11.382963 20.143925 -2.0242794
-16.9205 29.967871 -1.8036019
-3.8254123 6.8028855 -2.0912578
-4.3852906 7.8049159 -2.0668504
-5.2231774 9.2999821 -2.0733306
-6.413187 11.428161 -2.0755727
-8.2465296 14.707164 -2.0703166
-11.318427 20.19396 -2.0253251
-16.884108 30.148729 -1.8109289
-3.776237 6.7706432 -2.0772817
-4.3684564 7.8388991 -2.071799
-5.1964173 9.3284483 -2.0756204
-6.3799787 11.462562 -2.0777628
-8.1912794 14.728925 -2.0693417
-11.251735 20.240313 -2.0260222
-16.827251 30.29479 -1.8161626
-3.7525783 6.7837844 -2.0772817
-4.3429499 7.857513 -2.0726991
-5.1723657 9.3619976 -2.0790551
-6.3332472 11.472655 -2.0755727
-8.1474886 14.77133 -2.0712914
-12.939653 23.469172 4.2446933
-11.182943 20.282955 -2.026371
-13.748346 24.956528 -1.4932497
-21.761833 39.535564 -0.78773183
-3.7251573 6.7900691 -2.0752113
-21.721823 39.610023 0.78853464
-4.3089409 7.8606625 -2.0695498
-5.1396523 9.3799963 -2.0790551
-6.2874722 11.484295 -2.0736954
-8.0958805 14.799679 -2.0712914
-12.905032 23.600859 4.2603369
-11.121627 20.339348 -2.0281141
-21.591106 39.551617 -0.78654504
-3.7005112 6.801333 -2.0746937
-21.510805 39.552101 0.78588188
-4.2786808 7.8705196 -2.0681999
-21.525162 39.611435 2.3626547
-5.1040683 9.392704 -2.0779099
-6.2558265 11.521798 -2.0765114
-8.0441666 14.82785 -2.0712914
-12.879075 23.74995 4.279109
-11.065763 20.406069 -2.0309031
-21.441502 39.605637 -0.7861262
-3.6749136 6.8108072 -2.0736582
-21.378317 39.637505 0.78609133
-4.256732 7.8956976 -2.0708995
-21.362137 39.640617 2.3599331
-5.0675273 9.4035492 -2.0763836
-21.349451 39.633636 3.9385679
-6.2024612 11.519214 -2.0721312
-21.33462 39.639236 5.5272627
-7.9923549 14.855842 -2.0712914
-10.996356 20.448078 -2.0312517
-3.6492927 6.820188 -2.072623
-4.2374115 7.9259772 -2.0749483
-5.0281925 9.4090624 -2.0737123
-6.164072 11.544282 -2.072757
-7.944191 14.890656 -2.0722666
-10.934281 20.50392 -2.0329947
-13.363806 25.080835 -1.4893768
-3.629087 6.8397107 -2.0746937
-4.2060699 7.9338326 -2.073149
-5.0072699 9.4491062 -2.0786731
-6.1209664 11.560488 -2.0718184
-7.8903108 14.914783 -2.071779
-10.862647 20.541962 -2.0329947
-13.303238 25.178537 -1.4924122
-3.6096852 6.8608856 -2.0772817
-4.1720042 7.9363909 -2.0699997
-4.9788194 9.4752178 -2.0805814
-6.0723138 11.566042 -2.0690024
-7.8400412 14.945753 -2.0722666
-10.816777 20.629164 -2.0378757
-3.5803547 6.8631663 -2.0741758
-4.1469755 7.9560905 -2.0713491
-4.9302955 9.4629402 -2.0740941
-6.0410218 11.604691 -2.0721312
-7.7840252 14.959342 -2.0705605
-10.741029 20.659721 -2.0371783
-3.5602376 6.8801503 -2.0757289
-4.1196761 7.9680662 -2.0708995
-4.8961811 9.4740067 -2.0729489
-5.9997897 11.619393 -2.0711925
-7.7380118 14.992128 -2.0715353
-10.677934 20.705854 -2.0382242
-3.5321112 6.8816051 -2.072623
-4.0896711 7.9747496 -2.0690999
-4.8638434 9.4884424 -2.0725675
-5.9621224 11.640985 -2.0715053
-7.6954937 15.031841 -2.0734851
-10.620106 20.762436 -2.0403159
-15.672339 30.666012 -1.8048579
-3.50752 6.8898368 -2.0715878
-4.0764575 8.0143213 -2.0758483
-4.8279047 9.4957676 -2.0706592
-5.9163318 11.646602 -2.0690024
-7.6464987 15.05905 -2.0737288
-10.553002 20.80109 -2.0406644
-15.585017 30.746319 -1.8065327
-3.4926839 6.9233446 -2.0777996
-4.0365286 8.0083265 -2.0704496
-4.7957163 9.5186615 -2.0718043
-5.8718262 11.664681 -2.0683768
-7.5957584 15.102485 -2.0756788
-10.492795 20.871672 -2.043802
-15.438148 30.735415 -1.8025552
-26.133303 52.073437 -1.0169866
-3.4598558 6.9182148 -2.072623
-3.9963572 7.9979625 -2.0641508
-4.7668495 9.5441246 -2.0737123
-5.8372498 11.697478 -2.0705669
-7.5403414 15.123576 -2.0749476
-10.442985 20.954533 -2.0483341
-11.789711 23.667171 5.1396313
-15.343221 30.814152 -1.8040205
-3.4511325 6.9614048 -2.0819407
-3.978792 8.0328197 -2.0695498
-4.7247958 9.5431099 -2.069896
-5.7937517 11.712472 -2.0696282
-7.4936566 15.162264 -2.0766537
-10.382125 21.015869 -2.0507746
-3.4208455 6.9612727 -2.0783172
-3.9481528 8.0414104 -2.0681999
-4.687993 9.552495 -2.0683696
-5.7528343 11.732624 -2.0696282
-7.4433084 15.193676 -2.0773852
-10.343757 21.123554 -2.0577469
-3.3931396 6.9662251 -2.0762465
-3.9106808 8.0358677 -2.0632513
-4.658103 9.5802059 -2.0706592
-5.7083883 11.745528 -2.0683768
-7.3936977 15.226705 -2.0783601
-10.278435 21.186424 -2.0601873
-3.3625481 6.9681745 -2.0731406
-3.8778141 8.0431261 -2.0614514
-4.62466 9.6007547 -2.0714226
-5.6627316 11.761031 -2.0674381
-7.3395572 15.257282 -2.0788474
-10.23179 21.288597 -2.0664625
-3.3361542 6.9787083 -2.072623
-3.8499861 8.0608034 -2.0623512
-4.6012702 9.6380968 -2.0760019
-18.8267 39.453243 3.8245683
-5.6170335 11.77636 -2.0664995
-7.2853971 15.281021 -2.0786037
-10.186542 21.385344 -2.0723894
-11.83296 24.864111 -1.4431118
-20.502623 43.100746 -0.83310813
-3.3212662 7.0071917 -2.0777996
-3.8290741 8.0858536 -2.0655005
-4.5558429 9.6249123 -2.069896
-18.705978 39.537071 3.8266599
-5.5813308 11.802063 -2.0677509
-7.2194147 15.272788 -2.0742164
-10.127486 21.444227 -2.0748296
-11.79646 25.000755 -1.4487641
-3.2988341 7.0199146 -2.0783172
-3.8063824 8.1073265 -2.06775
-4.5197277 9.6310825 -2.0679879
-5.5404882 11.816928 -2.0671253
-7.1626949 15.290705 -2.0732415
-10.072375 21.511974 -2.0781415
-3.2628911 7.0068698 -2.0710702
-3.7813492 8.1276302 -2.0695498
-4.4844279 9.643239 -2.0672247
-5.4958735 11.829032 -2.0658739
-7.109273 15.315617 -2.0732415
-10.007279 21.568693 -2.0802333
-3.2481265 7.0392647 -2.0772817
-3.742347 8.117774 -2.0637012
-4.4515624 9.6606159 -2.0676064
-5.4528995 11.844554 -2.065248
-7.049964 15.327712 -2.0715353
-9.9585648 21.661419 -2.0858111
-3.2219303 7.0470457 -2.0762465
-3.7188439 8.1414251 -2.0664005
-4.422708 9.6868105 -2.069896
-5.4188957 11.879693 -2.0680637
-6.9890051 15.335974 -2.0693417
-9.9060116 21.746819 -2.0906918
-14.478545 31.814402 -1.8318634
-3.1885412 7.0388932 -2.0705523
-3.6879933 8.1490288 -2.0650506
-4.3815832 9.6860924 -2.0664616
-17.803368 39.375095 3.7806418
-5.3692622 11.880534 -2.0649352
-6.9386997 15.367511 -2.0703166
-10.465243 23.188725 4.0294394
-9.852994 21.832111 -2.0955727
-14.400247 31.937571 -1.8360502
-3.1512942 7.0217814 -2.0622702
-3.6746757 8.1956377 -2.0735989
-4.3453341 9.6959534 -2.0653167
-17.631596 39.360638 3.7733207
-5.3326044 11.910021 -2.0668125
-6.8866324 15.395265 -2.0708041
-10.414881 23.29364 4.0413284
-9.8011274 21.920937 -2.1008019
-14.335916 32.093418 -1.8421211
-3.1353989 7.052156 -2.0679643
-3.6436698 8.2030735 -2.0722492
-4.3122611 9.7128563 -2.0656981
-17.461777 39.349094 3.7663481
-5.2869902 11.919535 -2.065248
-6.8264203 15.404689 -2.0688543
-10.3751 23.423773 4.0575976
-9.7390671 21.987806 -2.1039395
-14.22704 32.150566 -1.8425398
-32.038555 72.469749 -1.3830683
-3.1310103 7.1090245 -2.081423
-3.6048086 8.1925554 -2.0664005
-4.2783327 9.727849 -2.0656981
-17.287441 39.325897 3.7583299
-5.2445536 11.93611 -2.0649352
-6.7758012 15.435693 -2.0698292
-9.686265 22.076406 -2.109169
-14.129151 32.232964 -1.8444239
-3.1138988 7.1376176 -2.0865991
-3.573076 8.1979418 -2.0646007
-4.2451315 9.744524 -2.0660799
-17.213686 39.53215 3.7722747
-5.201283 11.950722 -2.0643096
-6.7123766 15.437407 -2.0669043
-9.618681 22.13201 -2.1112607
-14.065875 32.395664 -1.8509135
-31.690992 73.058556 -1.3900492
-3.0813036 7.1307101 -2.081423
-3.5405781 8.2014179 -2.0623512
-4.2126489 9.762888 -2.0668433
-5.1556282 11.959733 -2.0627451
-6.6615934 15.468036 -2.0678792
-9.5445223 22.172768 -2.1119578
-3.0548716 7.1378703 -2.0803876
-3.5103936 8.2101431 -2.0614514
-4.1816278 9.7847557 -2.0683696
-5.115397 11.981291 -2.0633709
-6.6052179 15.485717 -2.067148
-9.467061 22.205952 -2.1119578
-3.0284309 7.1449323 -2.0793524
-3.4870346 8.2349081 -2.0646007
-4.147449 9.7992916 -2.0683696
-16.708731 39.497383 3.7520547
-5.0712385 11.993616 -2.0624323
-6.5503535 15.50685 -2.0669043
-9.3894949 22.238861 -2.1119578
-3.000479 7.1483355 -2.0772817
-3.4537439 8.236248 -2.0619013
-4.107903 9.8010359 -2.0656981
-16.499941 39.386398 3.7360179
-5.0255241 12.002134 -2.060868
-6.5007839 15.540606 -2.0683665
-9.3194895 22.289885 -2.1137011
-2.9777346 7.1641169 -2.0788348
-3.4234805 8.2446537 -2.0610015
-4.0729156 9.8135014 -2.0653167
-16.377615 39.480564 3.7395043
-4.9873834 12.028728 -2.0624323
-6.4388976 15.544868 -2.0659294
-9.2477274 22.337006 -2.1150956
-10.344947 25.011932 -1.4185139
-2.954181 7.1780396 -2.07987
-3.4006102 8.2709713 -2.0646007
-4.0281901 9.8022356 -2.059974
-16.157936 39.338455 3.7206786
-4.9423666 12.038752 -2.0611808
-6.3845921 15.567249 -2.0659294
-9.1878424 22.413393 -2.1192791
-10.281033 25.105188 -1.4217587
-2.9254599 7.1793637 -2.0772817
-3.3702469 8.2791824 -2.0637012
-3.9954264 9.8198748 -2.0607371
-16.014524 39.379848 3.7192843
-4.9025412 12.06142 -2.0621192
-6.3279762 15.583922 -2.0651982
-9.1170349 22.463791 -2.121022
-2.9018285 7.1931148 -2.0783172
-3.3406 8.2890882 -2.0632513
-3.9596593 9.8301182 -2.059974
-15.93948 39.590759 3.7339263
-4.854507 12.063802 -2.0596163
-6.2757645 15.61144 -2.0659294
-9.0504456 22.525061 -2.1238112
-2.8774168 7.2049947 -2.0788348
-3.3087547 8.2934589 -2.0614514
-3.9311364 9.85847 -2.0630269
-4.8145628 12.086179 -2.060555
-6.2219615 15.635097 -2.0661731
-9.0071135 22.645376 -2.1321781
-2.8522508 7.2149944 -2.0788348
-3.2726285 8.2868319 -2.0569522
-3.8974228 9.8739576 -2.0634086
-4.7658253 12.08637 -2.0577393
-6.1578851 15.632712 -2.0630045
-8.9878664 22.828697 -2.1464715
-13.194261 33.5471 -1.8892236
-2.8277538 7.2267046 -2.0793524
-3.2543218 8.3254318 -2.0637012
-3.8586478 9.8765287 -2.0611188
-4.7221675 12.099255 -2.0571134
-6.1018405 15.650413 -2.0625172
-8.9110136 22.867359 -2.1471689
-13.097372 33.645065 -1.8921545
-2.7997179 7.2293262 -2.0772817
-41.812439 108.02248 2.0218613
-3.2245398 8.3349228 -2.0632513
-3.8262703 9.8954325 -2.0622637
-4.6884484 12.137775 -2.060868
-6.0507483 15.680873 -2.0637355
-8.7952948 22.805376 -2.1384532
-12.985601 33.705482 -1.8929918
-2.775847 7.2426639 -2.0783172
-3.2016983 8.3625059 -2.0673003
-3.7902999 9.9050636 -2.0615005
-4.6326461 12.11901 -2.0549233
-5.9924316 15.692631 -2.0625172
-8.7497311 22.925291 -2.1468203
-12.897742 33.828991 -1.897388
-2.7505498 7.2523088 -2.0783172
-3.1621301 8.3462973 -2.0605516
-3.7598753 9.9292488 -2.0637903
-4.5931129 12.142497 -2.056175
-5.9376206 15.713451 -2.0625172
-8.7791834 23.245691 3.9355788
-8.7203407 23.08989 -2.1593707
-12.793686 33.911182 -1.8994814
-2.7265768 7.2654819 -2.0793524
-3.1309221 8.3518105 -2.059202
-3.7210619 9.9312811 -2.0615005
-4.5541587 12.167706 -2.0577393
-5.8771682 15.719206 -2.0605671
-8.6494465 23.14632 -2.1618109
-12.6878 33.989315 -1.9013655
-2.7005243 7.2731452 -2.0788348
-3.1003962 8.3590336 -2.0583022
-3.6815929 9.931325 -2.0588293
-4.5075445 12.172414 -2.0558619
-5.8236423 15.743347 -2.0610545
-8.8822746 24.024788 -2.2409484
-12.589843 34.0896 -1.9045057
-2.6771164 7.2879686 -2.0803876
-3.0705292 8.3679752 -2.0578523
-3.6448729 9.9385862 -2.0576842
-4.4670682 12.193637 -2.0568006
-5.7713842 15.771034 -2.0620294
-8.8188944 24.111778 -2.2461777
-9.3769016 25.665194 -1.4320166
-2.6510019 7.2954526 -2.07987
-3.0419676 8.3804731 -2.0583022
-3.6101611 9.9512482 -2.0576842
-4.4116869 12.173871 -2.0508561
-5.7122402 15.779888 -2.0605671
-8.3808355 23.164429 -2.1551871
-2.6255217 7.3046608 -2.07987
-3.0252051 8.42589 -2.0668504
-3.576731 9.9674835 -2.0584474
-4.3791656 12.217088 -2.0555491
-5.653111 15.788515 -2.0591044
-8.3026152 23.201046 -2.1558845
-12.303424 34.41893 -1.9156008
-2.6019471 7.3192439 -2.081423
-2.9885995 8.4161978 -2.0619013
-3.5412564 9.9780588 -2.0580659
-4.3351698 12.228577 -2.0549233
-5.5953102 15.80067 -2.0581295
-2.5783057 7.3337479 -2.0829759
-2.9682448 8.4523201 -2.0681999
-3.5038066 9.9829493 -2.0565395
-4.2885389 12.23245 -2.0530462
-5.5388126 15.816357 -2.0576422
-7.5322752 21.52083 -1.9948206
-8.7065296 24.903725 -1.3826114
-2.5482481 7.3299308 -2.0793524
-2.9323316 8.4442196 -2.0637012
-3.4708669 10.000684 -2.0576842
-4.2522874 12.266009 -2.056175
-5.4848642 15.839346 -2.0581295
-8.5114298 24.593391 -2.2768564
-2.5239038 7.3424344 -2.0803876
-2.9028356 8.4544058 -2.0637012
-3.4410367 10.027594 -2.0607371
-4.2017555 12.258354 -2.0524204
-5.4321165 15.865908 -2.0591044
-8.4506807 24.696474 -2.2836547
-2.5007465 7.3585157 -2.0824583
-2.8701723 8.4552603 -2.0614514
-3.4091687 10.04884 -2.0626454
-4.1602044 12.27669 -2.0530462
-5.3754315 15.881012 -2.0586171
-8.3880396 24.795656 -2.2901042
-9.0206785 26.696476 -1.4768161
-2.4725823 7.3598757 -2.0803876
-2.8394024 8.4615326 -2.0605516
-3.3672016 10.040204 -2.0584474
-4.1179557 12.293008 -2.053359
-5.3149209 15.88462 -2.0566673
-8.3361931 24.928705 -2.2996914
-8.9729996 26.864197 -1.4843526
-2.4511397 7.3812947 -2.0840108
-2.8135319 8.4824896 -2.0632513
-3.3234875 10.025805 -2.0531049
-4.0768852 12.312933 -2.0542977
-5.2600665 15.904958 -2.056911
-8.2728901 25.029539 -2.3063152
-2.4217429 7.3787937 -2.0809052
-2.7845099 8.4941111 -2.0637012
-3.289691 10.041079 -2.0538683
-4.0271192 12.306438 -2.0508561
-5.2075953 15.932658 -2.0581295
-7.5156879 23.007872 3.8335834
-7.4678197 22.861334 -2.1041138
-7.4656825 22.881845 -1.2614013
-7.5070662 23.03595 -0.4229067
-7.4698453 22.935322 6.4632297
-2.3953769 7.3853641 -2.0803876
-7.420929 22.893631 0.42007944
-2.7554455 8.5056334 -2.0641508
-7.4217463 22.923426 1.2627621
-3.2522037 10.045029 -2.0523417
-7.4272623 22.954132 2.1107376
-3.9792774 12.305384 -2.0483532
-7.4445763 23.035089 2.9723935
-5.1519518 15.950738 -2.0581295
-7.4207602 22.988852 3.8260748
-7.3708305 22.834175 -2.0992332
-7.3649316 22.843134 -1.2578424
-7.3598032 22.85454 -0.4191021
-7.3790922 22.928152 6.4539118
-2.3725286 7.4028797 -2.0829759
-7.3153572 22.839409 0.41861343
-2.7257361 8.5152006 -2.0641508
-7.318553 22.876911 1.2587845
-3.2195108 10.063801 -2.0538683
-7.3191862 22.892618 2.1027195
-3.9399035 12.33049 -2.0502305
-7.303731 22.871834 2.9480195
-5.0926242 15.957277 -2.0566673
-7.310461 22.920517 3.8104312
-6.4229107 20.137775 -1.8492705
-7.2985892 22.897097 4.6713858
-7.2839303 22.864901 -1.2576331
-7.2922707 22.9049 5.5495429
-7.2745175 22.862942 -0.41878793
-7.2703218 22.863562 6.4285479
-2.350174 7.4221659 -2.0860815
-7.2524743 22.91819 0.41959077
-2.69541 8.5228043 -2.0637012
-7.2374535 22.898506 1.2585752
-3.1867306 10.082464 -2.0553946
-7.2320242 22.895233 2.1006277
-3.8950565 12.338515 -2.0492916
-7.23102 22.919905 2.9509444
-5.0333061 15.963597 -2.0552046
-7.2244768 22.927052 3.8073025
-6.3567729 20.173374 -1.8504907
-7.2115479 22.899961 4.6668067
-7.2304597 22.97401 -1.2622387
-7.2075996 22.91534 5.5459433
-7.2288523 22.996931 -0.4207775
-7.1939473 22.899857 6.4316535
-2.325983 7.4358549 -2.0876343
-2.6656454 8.5321608 -2.0637012
-7.2110572 23.095213 1.2679956
-3.1526895 10.097275 -2.0561578
-3.8543186 12.359579 -2.0505433
-7.1911402 23.073877 2.9675186
-4.9787283 15.984861 -2.0556922
-7.7578268 24.9228 -2.2836547
-7.159554 23.01498 4.6851244
-2.2954485 7.4291639 -2.0834932
-2.6404407 8.5563097 -2.0673003
-3.1116354 10.089458 -2.0523417
-3.8094037 12.367294 -2.0496047
-4.9217367 15.998348 -2.0552046
-7.6889267 25.008768 -2.2890584
-2.271759 7.4445214 -2.0855639
-2.6099916 8.563611 -2.0668504
-3.0798318 10.111526 -2.0546315
-11.9293 39.190125 3.5840185
-3.7667828 12.382408 -2.0499175
-4.8624029 16.004034 -2.0537424
-7.6131539 25.073586 -2.2925446
-2.2457571 7.4524069 -2.0855639
-2.5755877 8.5577421 -2.0632513
-3.046211 10.127856 -2.0557761
-11.761446 39.128494 3.5746057
-3.7167199 12.372778 -2.0461631
-4.8104978 16.03422 -2.0554485
-7.5667887 25.237415 -2.3050952
-8.5991335 28.71702 -1.5710208
-2.221384 7.4657545 -2.0871167
-2.5488632 8.5718384 -2.0646007
-3.0046937 10.117724 -2.0515785
-11.63385 39.199871 3.5773945
-3.6790385 12.396399 -2.0480404
-4.7510972 16.029146 -2.0527673
-7.5369024 25.460447 -2.3230491
-8.4947987 28.714731 -1.5693462
-2.1971571 7.4749341 -2.0876343
-2.5200214 8.5844231 -2.0655005
-2.9650435 10.106912 -2.0473807
-11.494853 39.207638 3.5746057
-3.63908 12.420538 -2.0499175
-4.6951118 16.045635 -2.0527673
-7.5066662 25.670797 -2.3399572
-2.1678231 7.471426 -2.0845287
-2.4932971 8.6043978 -2.0681999
-2.93084 10.12097 -2.0481439
-11.313603 39.094418 3.5606606
-3.5924115 12.421779 -2.0480404
-4.6374254 16.056206 -2.0520363
-7.4358029 25.761925 -2.3458838
-2.1427948 7.4826612 -2.0855639
-2.4643166 8.6167965 -2.0690999
-2.9100623 10.182106 -2.0584474
-11.20223 39.221802 3.5686791
-3.5425205 12.411449 -2.0442858
-4.585155 16.085659 -2.0537424
-7.3380518 25.777512 -2.3448381
-8.688755 30.542576 -1.664179
-2.1169283 7.4960427 -2.0871167
-2.4278734 8.6028395 -2.0637012
-2.8695254 10.181367 -2.0561578
-3.4986148 12.430055 -2.0452244
-4.525219 16.08819 -2.0520363
-2.0923066 7.5089693 -2.0886698
-2.3978913 8.6173134 -2.0650506
-2.8371263 10.202669 -2.0584474
-3.4546726 12.440289 -2.0449116
-4.4619732 16.089363 -2.0500863
-7.2946634 26.321556 -2.389636
-8.4784985 30.634768 -1.6658536
-2.0645444 7.5106387 -2.0871167
-2.3688302 8.6293888 -2.0659504
-2.7879887 10.163285 -2.0485253
-10.696594 39.019871 3.5397432
-3.4138389 12.461797 -2.0464759
-4.4047399 16.101011 -2.0495987
-7.2269144 26.435265 -2.3976545
-8.3652058 30.641052 -1.6645976
-2.0388184 7.5196648 -2.0876343
-2.3422604 8.6507721 -2.0690999
-2.7545431 10.180536 -2.0500519
-3.3682599 12.466009 -2.0452244
-4.3474793 16.112453 -2.0491114
-7.1688328 26.587292 -2.4091592
-9.8731833 36.667923 -1.9901272
-2.0125589 7.5267353 -2.0876343
-2.3110416 8.6551304 -2.0681999
-2.7200041 10.193882 -2.0508151
-3.3252301 12.4796 -2.0455372
-4.2891641 16.119862 -2.0481365
-7.1066933 26.727684 -2.4196177
-9.7184658 36.601784 -1.9846842
-1.9877528 7.5393186 -2.0891874
-2.2773442 8.6499519 -2.0650506
-2.6874037 10.214706 -2.0531049
-3.2766314 12.472025 -2.0424087
-4.2338796 16.138573 -2.0486238
-7.0275049 26.80629 -2.4244983
-9.6422262 36.832569 -1.995361
-1.9653093 7.5611696 -2.0933285
-2.2486029 8.6635084 -2.0664005
-2.6522214 10.225926 -2.0534863
-3.2330725 12.483388 -2.0424087
-4.1735392 16.13788 -2.046674
-4.9019256 18.967997 -1.7140048
-9.5450459 36.987831 -2.0019553
-1.9384261 7.566112 -2.0928109
-2.2188327 8.673192 -2.0668504
-2.61554 10.231318 -2.0527232
-9.9528303 38.961239 3.5181286
-3.1880145 12.488854 -2.0414701
-4.1162047 16.1485 -2.0461864
-4.8583117 19.073807 -1.7220231
-1.9082184 7.557848 -2.0886698
-2.1919634 8.6880608 -2.0686498
-2.5798073 10.240385 -2.0527232
-3.1504369 12.514684 -2.043973
-4.0573039 16.140886 -2.0435054
-6.8182011 27.164413 -2.4502966
-8.1653137 32.555576 -1.7590116
-1.88548 7.5735068 -2.0912578
-2.1635056 8.7032242 -2.0704496
-2.5496233 10.264126 -2.0557761
-3.1029315 12.510265 -2.0414701
-4.0052357 16.172293 -2.0456991
-6.7318912 27.202349 -2.4516909
-9.2091875 37.268356 -2.011899
-1.8613309 7.5894241 -2.0938461
-2.1294062 8.6955795 -2.0668504
-2.5156429 10.280592 -2.0573027
-3.0592463 12.521019 -2.0414701
-3.9449906 16.170746 -2.0437491
-6.6690025 27.357307 -2.4635441
-9.1083174 37.420601 -2.0183887
-1.8393688 7.6146526 -2.0990226
-2.1008651 8.7105379 -2.0686498
-2.4825087 10.30076 -2.0595925
-9.38764 38.982418 3.5080187
-3.0187531 12.545068 -2.0436602
-3.8875964 16.180557 -2.0432615
-6.5846229 27.426918 -2.4677277
-8.1489267 33.99498 -1.8320726
-1.807411 7.598474 -2.0928109
-2.0713496 8.721611 -2.0695498
-2.4442677 10.299813 -2.0576842
-2.9694815 12.532462 -2.0399058
-3.8265173 16.174711 -2.0408242
-6.5301023 27.624239 -2.4834156
-8.9303493 37.837055 -2.0374389
-1.7773504 7.5896897 -2.0886698
-2.0408905 8.7287884 -2.0695498
-2.4065106 10.300637 -2.0561578
-2.9266109 12.546598 -2.0405314
-3.7709458 16.191835 -2.0413115
-6.4625292 27.771061 -2.4945717
-8.8027649 37.887447 -2.0384855
-1.7508483 7.5958476 -2.0886698
-2.0125916 8.7453547 -2.071799
-2.3736219 10.322367 -2.0588293
-8.943223 38.923237 3.4940734
-2.8783736 12.537485 -2.0374026
-3.7170596 16.216511 -2.0427742
-6.404686 27.964357 -2.5099111
-8.7105188 38.093174 -2.0479062
-1.7234663 7.5981445 -2.0876343
-1.9799066 8.7428226 -2.0695498
-2.3375731 10.330589 -2.0588293
-2.8354716 12.55131 -2.0380285
-3.6591158 16.223577 -2.042043
-6.3307052 28.091497 -2.5193238
-8.6186953 38.306511 -2.0577452
-1.6969348 7.6041141 -2.0876343
-1.949374 8.7496815 -2.0695498
-2.3032067 10.346351 -2.0603557
-2.7950671 12.576557 -2.0405314
-3.5973065 16.212996 -2.0391181
-6.2334642 28.117315 -2.5196724
-8.5367298 38.57037 -2.0703061
-1.6682235 7.6065092 -2.0865991
-1.9181271 8.7605734 -2.0704496
-2.2610717 10.335545 -2.0565395
-2.7485282 12.584788 -2.0402186
-3.5349021 16.212494 -2.0374119
-6.1566539 28.260672 -2.5304799
-8.4445505 38.827789 -2.0824478
-1.6396269 7.6028433 -2.0840108
-1.890705 8.7745075 -2.0722492
-2.2262208 10.349133 -2.0576842
-2.7121789 12.618939 -2.0442858
-3.4831977 16.233831 -2.0386305
-6.0855165 28.410572 -2.5419843
-8.3491735 39.011822 -2.0908215
-1.6140065 7.6063485 -2.0834932
-1.8604662 8.7829599 -2.0726991
-2.1922982 10.358377 -2.0580659
-2.666069 12.618667 -2.0427215
-3.4248672 16.238125 -2.0376556
-6.0463142 28.691837 -2.5653422
-7.270555 34.561062 -1.8509135
-1.5882324 7.6157193 -2.0845287
-1.8274155 8.7779541 -2.0699997
-2.1565244 10.367889 -2.0584474
-2.6179924 12.608555 -2.039593
-3.3653474 16.236372 -2.0359495
-5.9727969 28.841534 -2.5768466
-7.1547308 34.609707 -1.8521698
-7.1428757 34.613293 -0.61690772
-1.562416 7.6250014 -2.0855639
-7.0921082 34.642101 0.61722177
-1.7971517 8.7861891 -2.0704496
-2.117178 10.359965 -2.0553946
-2.573961 12.617617 -2.039593
-3.3046942 16.228569 -2.0335121
-5.8919377 28.959827 -2.5855622
-7.5577974 37.214191 -1.9901272
-1.5361694 7.6323028 -2.0860815
-1.7680126 8.8000498 -2.0722492
-2.0794539 10.359595 -2.0538683
-2.529134 12.622649 -2.0389671
-3.2499681 16.249741 -2.0347307
-3.6467452 18.25013 -1.6282436
-7.42237 37.212925 -1.9886618
-1.5061454 7.620563 -2.081423
-1.7391675 8.8157263 -2.0744987
-2.0447953 10.374496 -2.0553946
-2.485054 12.631401 -2.0389671
-3.1909339 16.249294 -2.0332682
-3.571506 18.204096 -1.6230143
-7.3223748 37.391491 -1.9968263
-1.4806443 7.6314621 -2.0829759
-1.7061589 8.8102646 -2.071799
-2.0123057 10.400844 -2.0592108
-2.4379473 12.624483 -2.0364642
-3.1334381 16.256437 -2.0327806
-3.506428 18.208628 -1.622317
-1.4554399 7.6441755 -2.0850463
-1.6732138 8.8046808 -2.0690999
-1.9759849 10.407805 -2.0592108
-2.3957064 12.64262 -2.0380285
-3.0740871 16.253624 -2.0310745
-3.4213951 18.107206 -1.6122069
-7.6489167 40.558407 -2.1630452
-1.4273306 7.641613 -2.0829759
-1.6399673 8.7970572 -2.0659504
-1.9410828 10.422359 -2.0607371
-2.3540845 12.664501 -2.0402186
-3.0137227 16.244736 -2.0286372
-3.3552587 18.103365 -1.6108123
-7.4477434 40.262768 -2.145879
-1.40169 7.6522503 -2.0845287
-1.6106535 8.8103962 -2.06775
-1.903982 10.42521 -2.059974
-2.3105738 12.676527 -2.0408442
-2.959482 16.268827 -2.0303433
-3.2891998 18.099285 -1.6094179
-7.3292432 40.410366 -2.1523688
-1.371895 7.6399832 -2.07987
-1.577829 8.8044548 -2.0650506
-1.8679227 10.433724 -2.0603557
-2.2659657 12.68257 -2.0405314
-2.9023306 16.277105 -2.0300996
-3.2190173 18.071426 -1.6059316
-7.2468753 40.766056 -2.1699536
-1.346559 7.6523361 -2.0819407
-1.5491062 8.8214254 -2.06775
-1.8325108 10.445983 -2.0615005
-2.2209969 12.686512 -2.0399058
-2.8454907 16.287138 -2.0300996
-3.1518011 18.059 -1.6038399
-7.1257682 40.913105 -2.1764433
-1.320169 7.6588931 -2.0824583
-1.5146722 8.8056526 -2.0628011
-1.7986983 10.467793 -2.0645535
-2.1777031 12.700027 -2.0408442
-2.7879467 16.29306 -2.0296123
-3.0840485 18.042397 -1.6013995
-7.0205121 41.158237 -2.1881666
-1.2937495 7.665359 -2.0829759
-1.4832758 8.8070431 -2.0619013
-1.7614987 10.470137 -2.0637903
-2.1340094 12.711449 -2.0414701
-2.7294202 16.292902 -2.0283935
-3.0177567 18.033403 -1.5996565
-6.937995 41.548908 -2.2076356
-1.2676121 7.6736403 -2.0840108
-1.4534771 8.8179359 -2.0632513
-1.7242996 10.472347 -2.0630269
-2.0896277 12.71882 -2.0414701
-2.6731682 16.306248 -2.0288811
-2.9554379 18.04776 -1.6000051
-6.8824468 42.12085 -2.2367344
-1.2383507 7.6627622 -2.07987
-1.4226855 8.8229561 -2.0632513
-1.6889799 10.486056 -2.0645535
-2.0464683 12.733838 -2.0427215
-2.6149867 16.307638 -2.0279062
-2.8779213 17.967468 -1.5919868
-6.7694449 42.357609 -2.248039
-1.2121998 7.6708546 -2.0809052
-1.3930906 8.8355684 -2.0650506
-1.654812 10.507402 -2.0676064
-1.9998568 12.727245 -2.0405314
-2.5574274 16.312746 -2.0274186
-2.8114817 17.953785 -1.589895
-6.6480513 42.55069 -2.2570407
-1.1854142 7.6750388 -2.0809052
-1.3589816 8.81919 -2.0601017
-1.610655 10.464604 -2.0580659
-1.9566264 12.741958 -2.0417829
-2.4989622 16.311764 -2.0262001
-2.7463958 17.947733 -1.5885006
-6.5495048 42.901386 -2.2744162
-1.1597742 7.6867709 -2.0829759
-1.3293465 8.8315887 -2.0619013
-1.5747079 10.474046 -2.0588293
-1.9135982 12.758477 -2.0433471
-2.4493558 16.369467 -2.0322933
-2.684314 17.961153 -1.5888492
-6.4533238 43.283512 -2.2934666
-1.133778 7.696507 -2.0845287
-1.2987957 8.8381033 -2.0623512
-1.5358534 10.463939 -2.0557761
-1.8707709 12.776806 -2.0452244
-2.3913355 16.372023 -2.0315621
-2.6124015 17.907322 -1.5832711
-6.3430281 43.58643 -2.3083301
-1.1033299 7.675559 -2.0777996
-5.5645084 38.758633 0.68347114
-1.2693177 8.8522282 -2.0646007
-1.499037 10.467294 -2.0553946
-1.8247601 12.773482 -2.0436602
-2.3336229 16.376341 -2.0310745
-2.5453813 17.884775 -1.5804822
-6.2649665 44.130348 -2.3359632
-1.0770684 7.6831894 -2.0788348
-5.4197435 38.710487 0.68228436
-1.2375981 8.8508158 -2.0632513
-5.4076557 38.722572 2.0490575
-1.4627639 10.474406 -2.0557761
-5.4045186 38.749477 3.4229546
-1.7796125 12.77586 -2.0430343
-5.3953185 38.782452 4.8077459
-2.274255 16.368658 -2.0291247
-2.479645 17.869867 -1.5783905
-5.3441901 38.612423 -2.0428817
-5.3347545 38.643566 -0.6809231
-1.0505019 7.6888165 -2.0793524
-5.2797284 38.693508 0.68165612
-1.2067015 8.8550816 -2.0632513
-5.2708302 38.729343 2.0484295
-1.4275136 10.489176 -2.0576842
-5.2692327 38.768105 3.4229546
-1.7342113 12.776122 -2.0420959
-5.2572322 38.78138 4.8053083
-2.2157679 16.366661 -2.0279062
-2.4151206 17.862619 -1.5769961
-5.2077641 38.618973 -2.042254
-5.2014198 38.673847 -0.68113256
-1.0241679 7.6962662 -2.0803876
-1.1755253 8.8573074 -2.0628011
-1.3896031 10.484364 -2.0557761
-1.690383 12.787971 -2.0430343
-2.1562924 16.356585 -2.0257125
-2.350677 17.855137 -1.5756015
-5.0869751 38.743847 -2.0479062
-5.0741701 38.751251 -0.68217963
-0.99704641 7.6978788 -2.07987
-1.144852 8.8632898 -2.0632513
-1.3524923 10.485256 -2.0550129
-1.6472492 12.805551 -2.0449116
-2.0979171 16.354166 -2.0244937
-2.286315 17.847422 -1.5742069
-5.8096652 45.477501 -2.4027441
-0.96896404 7.6917281 -2.0772817
-1.1160899 8.8846331 -2.0673003
-1.3158859 10.489913 -2.0550129
-1.6018006 12.805343 -2.043973
-2.0410666 16.363358 -2.0247374
-2.2195647 17.819708 -1.5710694
-5.71736 46.032646 -2.4310052
-0.94258028 7.6988988 -2.0783172
-1.0843592 8.8826733 -2.0659504
-1.2797385 10.49834 -2.0557761
-1.5556583 12.79909 -2.0420959
-1.9848864 16.378269 -2.0257125
-2.1554289 17.811523 -1.5696748
-5.5963449 46.381481 -2.4483809
-0.91706675 7.7136531 -2.081423
-1.0519719 8.8747931 -2.0632513
-1.2435434 10.506642 -2.0565395
-1.5123633 12.816213 -2.043973
-1.9272428 16.381149 -2.0252249
-2.0904562 17.795193 -1.5675831
-5.500865 46.968075 -2.4783173
-0.88903022 7.707211 -2.0788348
-1.0212069 8.8803463 -2.0637012
-1.206863 10.510919 -2.0565395
-1.4678384 12.823377 -2.0442858
-1.8696035 16.383833 -2.0247374
-2.026969 17.790506 -1.5665373
-5.3725061 47.300537 -2.4948552
-0.86340755 7.721787 -2.0819407
-0.99128789 8.8935404 -2.0659504
-1.1692945 10.507264 -2.0550129
-1.421334 12.812716 -2.0417829
-1.8134886 16.400127 -2.0259562
-1.9639939 17.789551 -1.5658401
-5.2409959 47.624733 -2.5109746
-0.8345744 7.7074676 -2.0772817
-0.96023524 8.8969469 -2.0659504
-1.131766 10.503473 -2.0534863
-1.3755425 12.807778 -2.0402186
-1.7564452 16.408331 -2.0262001
-1.898916 17.768564 -1.5633998
-5.1157727 48.028027 -2.531281
-0.80726802 7.706491 -2.0762465
-0.92917091 8.9002447 -2.0659504
-1.0959165 10.51517 -2.0550129
-1.3293947 12.798749 -2.0380285
-1.6991543 16.414362 -2.0262001
-1.8362614 17.769138 -1.5628768
-5.0012779 48.562149 -2.5584958
-0.78016591 7.7073402 -2.0757289
-0.89653486 8.8879223 -2.0623512
-1.0595956 10.522839 -2.0557761
-1.2847133 12.803311 -2.0380285
-1.6426327 16.428095 -2.0271747
-1.7730404 17.763542 -1.5618308
-4.8550463 48.813831 -2.570847
-0.7540105 7.7177076 -2.0777996
-0.86588007 8.8948774 -2.0632513
-1.0228597 10.526473 -2.0557761
-1.2403908 12.811649 -2.0386541
-1.5845268 16.425823 -2.0262001
-1.7091092 17.749792 -1.5600878
-4.7334867 49.339443 -2.5976431
-0.72688282 7.7183685 -2.0772817
-0.83537376 8.9036655 -2.0646007
-0.98555732 10.524115 -2.0546315
-1.1958485 12.817867 -2.0389671
-1.5264411 16.423347 -2.0252249
-1.6473281 17.757631 -1.5602621
-4.6097403 49.880707 -2.6252766
-0.69975978 7.7189355 -2.0767641
-0.80376518 8.9007053 -2.0632513
-0.94828373 10.521626 -2.0534863
-1.1509244 12.819996 -2.0386541
-1.4703447 16.442417 -2.026931
-1.5826795 17.733509 -1.5576475
-4.4479856 50.035748 -2.6326034
-0.67180681 7.7097831 -2.0736582
-0.77302569 8.90734 -2.0641508
-0.9117223 10.526827 -2.0538683
-1.1056547 12.818032 -2.0377157
-1.4131067 16.449429 -2.0271747
-1.5195725 17.725029 -1.5564274
-4.3069291 50.444992 -2.6533287
-0.64585811 7.7236323 -2.0767641
-0.74128354 8.902216 -2.0623512
-0.87546122 10.535815 -2.0550129
-1.061559 12.829687 -2.0389671
-1.3564894 16.464153 -2.0283935
-1.4562256 17.712353 -1.5548583
-4.1396031 50.567215 -2.6589808
-0.61858678 7.7219887 -2.0757289
-0.71051198 8.9086342 -2.0632513
-0.83836979 10.534893 -2.0542498
-1.0162971 12.827409 -2.0380285
-1.2979213 16.454933 -2.0266874
-1.393759 17.709383 -1.5541612
-3.981173 50.812332 -2.6711228
-0.59177375 7.7260265 -2.0762465
-0.67867184 8.9013443 -2.0610015
-0.80084366 10.527966 -2.0523417
-0.97211403 12.838755 -2.0392799
-1.2406198 16.461344 -2.026931
-1.3316382 17.710167 -1.5538126
-3.7939293 50.694466 -2.6642144
-0.56437683 7.7222657 -2.0746937
-0.64815933 8.9114332 -2.0628011
-0.76380229 10.526782 -2.0515785
-0.92743146 12.844041 -2.039593
-1.1820245 16.449734 -2.0249813
-1.2680961 17.690861 -1.5517209
-3.6260791 50.834904 -2.6709135
-4.3938131 61.902813 -1.083236
-0.53715098 7.7203336 -2.0736582
-0.61691171 8.9116983 -2.0623512
-0.72732496 10.5333 -2.0523417
-0.88164049 12.833405 -2.0374026
-1.1243221 16.4498 -2.0244937
-1.2052468 17.679277 -1.5503262
-3.4421096 50.751602 -2.6658893
-0.510324 7.7240896 -2.0741758
-0.58516741 8.9040737 -2.0601017
-0.69067812 10.537735 -2.0527232
-0.83684707 12.836404 -2.0374026
-1.0665048 16.447681 -2.0237625
-1.144311 17.695305 -1.5513722
-3.2641497 50.751347 -2.6652613
-0.48312289 7.7219672 -2.0731406
-0.55395949 8.9041166 -2.0596519
-0.65341139 10.532244 -2.0511968
-0.79227442 12.843191 -2.0380285
-1.008481 16.441395 -2.0225437
-1.0820446 17.691238 -1.550675
-3.098866 50.957802 -2.675519
-3.6697707 60.6959 -1.0613855
-0.45627707 7.7255349 -2.0736582
-0.5228768 8.9059963 -2.0596519
-0.61652541 10.532499 -2.0508151
-0.74755591 12.84785 -2.0383413
-0.95016229 16.428963 -2.0205939
-1.0202879 17.694908 -1.550675
-2.9268999 51.071999 -2.6809618
-3.4522359 60.608517 -1.0596403
-0.42909077 7.7232232 -2.072623
-0.49199843 8.9116602 -2.0605516
-0.57996935 10.538508 -2.0515785
-0.70248485 12.846437 -2.0377157
-0.89291996 16.434162 -2.0208375
-0.95786363 17.686424 -1.5496291
-2.7438967 50.994152 -2.6763566
-3.2316689 60.452469 -1.0567083
-0.40213072 7.7246742 -2.072623
-0.46078485 8.911376 -2.0601017
-0.54297966 10.536547 -2.0508151
-0.65712982 12.838946 -2.0361512
-0.83514893 16.429247 -2.0198627
-0.89551115 17.677723 -1.5485833
-2.5767257 51.218849 -2.6876609
-3.0166523 60.383488 -1.0553122
-0.37516207 7.7260308 -2.072623
-0.42948976 8.9090376 -2.059202
-0.50619417 10.538379 -2.0508151
-0.61212409 12.837216 -2.0355256
-0.77788454 16.434046 -2.0201063
-0.83295792 17.662827 -1.5470144
-2.3725078 50.684872 -2.6591902
-3.0608656 65.882896 -1.1512306
-0.34880126 7.7408028 -2.0762465
-0.39821661 8.9065886 -2.0583022
-0.46940747 10.540081 -2.0508151
-0.56748718 12.843221 -2.0361512
-0.71956146 16.414845 -2.0174253
-0.7721709 17.685534 -1.5487574
-2.2042232 50.892384 -2.6696575
-2.8420136 66.152901 -1.1557683
-0.32129526 7.730392 -2.0731406
-3.2740316 79.106216 1.3819863
-0.36760774 8.9196072 -2.0610015
-0.43244904 10.537732 -2.0500519
-0.5225749 12.84315 -2.0358384
-0.66161406 16.401388 -2.0154753
-0.70963627 17.668211 -1.5470144
-2.0251186 50.863846 -2.6677732
-2.6226718 66.161957 -1.1557683
-0.29372299 7.7160234 -2.0689995
-0.33780336 8.9149351 -2.0596519
-0.39566508 10.539178 -2.0500519
-0.4799791 12.844812 -2.0358384
-0.60737169 16.407461 -2.0159631
-0.64780766 17.666599 -1.5466658
-1.8380914 50.367306 -2.6413958
-2.3967459 66.3106 -1.1582116
-0.26840398 7.7246776 -2.0710702
-0.30694798 8.9238501 -2.0614514
-0.36084512 10.544356 -2.0508151
-0.43466789 12.83259 -2.0336483
-0.5496996 16.397577 -2.0145004
-0.58801937 17.632807 -1.5435282
-1.6555572 50.169804 -2.6307194
-0.24125509 7.7197742 -2.0695171
-0.27538088 8.911232 -2.0583022
-0.3240988 10.547515 -2.0511968
-0.38934007 12.816257 -2.0308325
-0.49221539 16.39146 -2.0135255
-0.5268178 17.646702 -1.544574
-1.4853562 50.342976 -2.6395118
-0.21451893 7.7282939 -2.0715878
-0.2442708 8.9121399 -2.0583022
-0.28722283 10.546618 -2.0508151
-0.34449106 12.81359 -2.0302067
-0.43468297 16.38117 -2.012063
-0.46533331 17.652418 -1.5449227
-1.3045385 50.152187 -2.6292541
-0.18778047 7.7386518 -2.0741758
-0.21339074 8.9226799 -2.0605516
-0.25032058 10.543632 -2.0500519
-0.29994255 12.822615 -2.0314584
-0.37749499 16.382587 -2.012063
-0.40398058 17.665886 -1.5459685
-1.1262159 50.012669 -2.6217177
-0.16052362 7.7276716 -2.0710702
-0.18224537 8.9233704 -2.0605516
-0.21343264 10.540517 -2.0492887
-0.25526276 12.827533 -2.032084
-0.32026365 16.381823 -2.0118194
-0.34177601 17.639297 -1.5435282
-0.94440025 49.636883 -2.60183
-0.13348289 7.7243214 -2.0700347
-0.15115947 8.9278479 -2.0614514
-0.17670102 10.545122 -2.0500519
-0.21015725 12.808594 -2.0289552
-0.26312158 16.384823 -2.012063
-0.27994344 17.624445 -1.5421337
-0.7684955 49.468136 -2.5928283
-0.58673447 38.637661 -0.67450064
-0.10654373 7.7266717 -2.0705523
-0.1198393 8.9166307 -2.0587521
-0.13978867 10.537823 -2.0485253
-0.16544834 12.80925 -2.0289552
-0.2057972 16.375719 -2.0108442
-0.21871251 17.649223 -1.5442253
-0.59137601 49.103046 -2.5735686
-0.079589814 7.7289295 -2.0710702
-0.088599265 8.905302 -2.0560527
-0.10300114 10.538246 -2.0485253
-0.12071878 12.807775 -2.0286424
-0.1484753 16.358473 -2.0086505
-0.15686774 17.621986 -1.541785
-0.41912699 49.004951 -2.5683348
-0.052572507 7.7233639 -2.0695171
-0.057536218 8.9094543 -2.0569522
-0.066143379 10.526763 -2.0462358
-0.076065779 12.817995 -2.0302067
-0.091346152 16.354919 -2.0081632
-0.09537144 17.62641 -1.5421337
-0.24778937 48.954193 -2.5656135
-0.3225722 68.448822 -1.1947918
-0.025614239 7.7235007 -2.0695171
-0.026466858 8.9193449 -2.059202
-0.029377997 10.519076 -2.0447092
-0.031315204 12.814232 -2.0295811
-0.034251913 16.355139 -2.0081632
-0.033839256 17.622652 -1.541785
-0.076202638 48.515358 -2.5425856
-0.083621055 68.449524 -1.1947918
0.0013443405 7.7235432 -2.0695171
0.004670003 8.919383 -2.059202
0.0073434114 10.519114 -2.0447092
0.013399796 12.796484 -2.0267651
0.022834944 16.35516 -2.0081632
0.027661402 17.610708 -1.5407393
0.093283527 48.591225 -2.5465631
0.15593366 68.729362 -1.1996784
0.028299507 7.7215595 -2.0689995
0.035755616 8.9076195 -2.0565026
0.044051491 10.517061 -2.0443277
0.058109902 12.806236 -2.0283296
0.079890527 16.347042 -2.0071883
0.089179106 17.618475 -1.5414364
0.098176897 18.144833 -0.95094436
0.055268485 7.7233453 -2.0695171
0.066851161 8.9074402 -2.0565026
0.080840811 10.52666 -2.0462358
0.10284678 12.809905 -2.0289552
0.1367577 16.324827 -2.0045071
0.15064074 17.614071 -1.5410879
0.082246594 7.7250371 -2.0700347
0.097945899 8.9071522 -2.0565026
0.11740755 10.510608 -2.0431828
0.14760999 12.81342 -2.0295811
0.19372195 16.322266 -2.0042634
0.21212909 17.613438 -1.5410879
0.47782046 38.558121 -2.0209007
0.87537867 68.703957 -1.1993294
0.1090497 7.7131128 -2.0669291
0.1289745 8.9028606 -2.0556028
0.15395463 10.50032 -2.0412748
0.19235712 12.814801 -2.0298939
0.2507309 16.323473 -2.0045071
