# .PCD v0.7 - Point Cloud Data file format
VERSION 0.7
FIELDS x y z
SIZE 4 4 4
TYPE F F F
COUNT 1 1 1
WIDTH 1511
HEIGHT 1
VIEWPOINT 0 0 0 1 0 0 0
POINTS 1511
DATA ascii
-19.830008 14.888786 -2.1694808
-6.3209181 4.7666111 -2.1212809
-7.3202496 5.52422 -2.1172395
-8.7025261 6.5697346 -2.1195064
-9.478982 7.1610975 -1.8815941
-13.757334 10.400814 -2.1176019
-19.796982 14.972337 -2.1715724
-6.305778 4.7898159 -2.1217985
-7.3009224 5.549737 -2.1172395
-8.6857891 6.6048274 -2.121033
-9.4743652 7.209691 -1.8856614
-11.200384 8.5293159 -1.7285949
-19.738262 15.036516 -2.1708751
-6.2920885 4.8141465 -2.122834
-7.2861462 5.5787439 -2.1185889
-8.6657991 6.6374946 -2.1217961
-9.4491386 7.2427211 -1.8856614
-11.135892 8.5417786 -1.7232326
-11.203782 8.5969629 -1.2355198
-6.2669072 4.8279119 -2.1197281
-7.2706943 5.6052532 -2.119489
-8.6375208 6.6613989 -2.1202698
-9.4469633 7.2909107 -1.8900415
-11.120074 8.5883675 -1.7251827
-11.118452 8.5902166 -1.2292446
-6.2500176 4.8497567 -2.1197281
-7.2541614 5.6329913 -2.1203887
-8.6266212 6.7011418 -2.1233225
-9.4432878 7.3408175 -1.8944216
-13.687832 10.64801 -2.1293013
-19.569798 15.229188 -2.1694808
-6.2391386 4.8763018 -2.1217985
-7.2283149 5.6534748 -2.1185889
-8.6124535 6.7384725 -2.1256123
-9.4362717 7.3883476 -1.8981761
-13.594325 10.651653 -2.1205268
-19.519655 15.299865 -2.1698294
-6.2251153 4.9004412 -2.122834
-7.207006 5.6774664 -2.118139
-8.5857954 6.7660646 -2.1248491
-9.4104242 7.4212422 -1.8981761
-13.54771 10.691662 -2.1190643
-19.472387 15.372841 -2.1705265
-29.291674 23.158085 -0.65177757
-6.206459 4.9209399 -2.1223164
-29.291298 23.232647 0.65258038
-7.1886702 5.7038002 -2.1185889
-29.285048 23.244356 1.9594585
-8.5528975 6.7886724 -2.1225593
-29.236134 23.213839 3.2660744
-9.399929 7.466331 -1.9013047
-29.35721 23.3267 4.6039805
-13.507202 10.736415 -2.1185768
-19.396774 15.42336 -2.1680863
-6.1816945 4.9365487 -2.1197281
-7.1748071 5.7337232 -2.1203887
-8.5337496 6.8221617 -2.1237042
-9.423171 7.5385842 -1.9113165
-13.491337 10.800867 -2.1219893
-19.355257 15.500942 -2.1694808
-6.16292 4.9568858 -2.1192105
-7.1547475 5.7587352 -2.1203887
-8.5098839 6.8519092 -2.1237042
-9.390645 7.5664763 -1.9100651
-13.453552 10.847896 -2.1219893
-19.270018 15.543389 -2.1659944
-47.030205 37.989258 -1.0552772
-6.1545873 4.9856634 -2.1223164
-7.1346016 5.7836752 -2.1203887
-8.4981155 6.8914638 -2.1267571
-9.3902512 7.6203709 -1.9153838
-13.412522 10.892288 -2.1215017
-19.228014 15.62061 -2.1673892
-30.850794 25.0807 -2.083704
-6.1401401 5.0095587 -2.1233516
-7.1083312 5.8036146 -2.1185889
-8.4709663 6.918602 -2.125994
-9.3697119 7.658103 -1.9166353
-13.383638 10.946581 -2.1229641
-19.179539 15.692679 -2.1680863
-6.1211233 5.0297356 -2.122834
-7.0910411 5.8308654 -2.119489
-8.437665 6.9406476 -2.1237042
-9.3551254 7.7008042 -1.9191382
-13.348412 10.995758 -2.1234517
-19.115421 15.751926 -2.1670403
-6.0945978 5.0436831 -2.1197281
-7.0751467 5.8593111 -2.1208386
-8.4148989 6.9713116 -2.1240859
-9.3464365 7.7485418 -1.9228927
-9.8969069 8.2107334 -1.5789393
-19.038851 15.800748 -2.1645999
-6.0843759 5.0711093 -2.1223164
-7.0526848 5.8802462 -2.1199389
-8.3950357 7.0044136 -2.1252308
-9.3222055 7.7807589 -1.9232055
-13.303729 11.11181 -2.1283264
-19.004982 15.884997 -2.1670403
-6.0645661 5.0887742 -2.1212809
-7.027638 5.9010692 -2.1185889
-8.3777761 7.0372658 -2.1267571
-9.307086 7.8234215 -1.9257084
-10.290444 8.6561527 -1.651086
-10.323706 8.687211 -1.1804373
-6.0556188 5.1173949 -2.1243868
-7.0099726 5.928081 -2.119489
-8.3501616 7.0639305 -2.125994
-9.2827349 7.8584142 -1.9263341
-10.234417 8.6702061 -1.6469425
-10.249926 8.6925659 -0.70433736
-6.028892 5.1309891 -2.1212809
-6.9922037 5.9550419 -2.1203887
-8.3209696 7.0892153 -2.1248491
-9.259757 7.8946142 -1.9272728
-13.212311 11.272419 -2.1324699
-10.216482 8.7256985 -0.70412803
-6.009479 5.150744 -2.1207633
-6.9684162 5.9768758 -2.119489
-8.2991543 7.1207728 -2.1256123
-9.221652 7.9178815 -1.9250828
-10.260967 8.8164797 -1.6610793
-10.263899 8.822114 -1.1840979
-21.747097 18.718662 -0.50084919
-5.9914627 5.17169 -2.1207633
-6.9593091 6.011353 -2.1230881
-8.2816744 7.1561198 -2.1275203
-9.1879826 7.9448528 -1.9238312
-13.112278 11.3462 -2.1290576
-5.9762878 5.1951084 -2.1217985
-6.9279919 6.0266562 -2.1199389
-8.2625675 7.1901402 -2.1290469
-9.1691322 7.9846601 -1.9257084
-13.086062 11.403634 -2.1312513
-18.719046 16.318161 -2.1726184
-30.966644 27.01391 -2.1536248
-5.956665 5.2146645 -2.1212809
-6.9083762 6.0520883 -2.1203887
-8.2433262 7.224112 -2.1305733
-9.1530828 8.0270395 -1.9282113
-13.034241 11.438769 -2.1293013
-18.66197 16.383404 -2.1726184
-5.9427733 5.2392588 -2.122834
-6.8857489 6.0748758 -2.1199389
-8.2062836 7.2424498 -2.1275203
-9.1457386 8.0772467 -1.9325917
-13.009104 11.497347 -2.1317387
-18.58676 16.432606 -2.1705265
-5.9143367 5.2509933 -2.1192105
-6.8717847 6.1053457 -2.1221881
-8.1838865 7.2736602 -2.1282835
-9.1337233 8.1235619 -1.9360331
-12.974826 11.547963 -2.1327136
-18.514404 16.484137 -2.1687834
-33.959785 30.257053 -2.3836937
-44.122292 39.339169 -1.0318211
-5.9017324 5.2767549 -2.1212809
-6.848979 6.1279969 -2.1217382
-8.1613731 7.3048015 -2.1290469
-9.1185551 8.1672573 -1.9388491
-12.931479 11.590534 -2.1322262
-18.441916 16.535364 -2.1670403
-33.853958 30.37541 -2.3836937
-5.886147 5.299911 -2.1223164
-6.8188615 6.1440382 -2.1190388
-8.1314497 7.3293023 -2.127902
-43.942738 39.621799 5.176528
-9.1119938 8.2188816 -1.943542
-12.908625 11.651564 -2.1351511
-18.375208 16.591631 -2.1659944
-5.8647485 5.3178296 -2.1212809
-6.8017015 6.1717339 -2.1203887
-8.1087227 7.3602805 -2.1286652
-9.1124916 8.2772045 -1.9497994
-12.864939 11.69388 -2.1346636
-18.311287 16.650307 -2.1652973
-5.8490047 5.3408728 -2.1223164
-6.7786784 6.1941247 -2.1199389
-8.0916777 7.3964863 -2.130955
-9.1039486 8.3276281 -1.9541795
-12.824039 11.738719 -2.1346636
-18.288321 16.746416 -2.1694808
-5.8246379 5.3560266 -2.1202457
-6.7667055 6.2244849 -2.1226382
-8.0744762 7.4326653 -2.1332448
-9.1038923 8.3831968 -1.9601241
-12.790883 11.786559 -2.1356385
-18.226822 16.807451 -2.169132
-5.804009 5.3726883 -2.1192105
-6.7506557 6.2533631 -2.1244378
-8.0512228 7.4607344 -2.1336262
-9.0977507 8.4364119 -1.96513
-12.764211 11.844643 -2.1380758
-18.182669 16.878647 -2.1705265
-5.7880454 5.3955503 -2.1202457
-6.7159619 6.264926 -2.1203887
-8.0323086 7.495491 -2.1355343
-9.1028976 8.5004749 -1.9726388
-12.716985 11.883705 -2.1371009
-18.112 16.931124 -2.169132
-5.7790351 5.4249763 -2.1238692
-6.6869507 6.2816601 -2.118139
-7.9960785 7.5140738 -2.132863
-9.1249743 8.5809155 -1.9839021
-12.672536 11.925299 -2.1366136
-18.052788 16.994244 -2.169132
-5.750236 5.4358268 -2.1202457
-6.6748934 6.3143358 -2.1212883
-7.9655247 7.53789 -2.1317184
-9.1408615 8.6561823 -1.9939139
-12.630832 11.969461 -2.1366136
-17.987568 17.051678 -2.1684349
-5.7326255 5.4571977 -2.1207633
-6.6570435 6.3416319 -2.1226382
-41.428406 39.465523 2.9986413
-7.944849 7.5710669 -2.1332448
-9.1663446 8.7412014 -2.0061157
-12.609079 12.032666 -2.1400259
-17.933706 17.119862 -2.169132
-5.7121477 5.4758372 -2.1202457
-6.6373844 6.3650198 -2.1230881
-7.909873 7.5905967 -2.130955
-9.2299347 8.8604708 -2.0264523
-12.566246 12.071664 -2.1395385
-17.93129 17.237589 -2.1761045
-5.6911778 5.4920669 -2.1192105
-6.6067138 6.3800297 -2.1203887
-7.8903065 7.6222425 -2.1324816
-9.3736401 9.0615091 -2.0649352
-12.529739 12.120972 -2.1405134
-18.111504 17.532888 -2.2053888
-5.6723943 5.5142369 -2.1197281
-6.5830054 6.4016943 -2.1199389
-7.8735723 7.6620646 -2.1355343
-9.5158529 9.2666931 -2.1037309
-12.490193 12.167408 -2.1410007
-18.055902 17.601561 -2.2060859
-5.6503501 5.5313015 -2.1186929
-6.5594993 6.4257779 -2.1199389
-7.832757 7.6757607 -2.1317184
-9.503191 9.3192186 -2.1081111
-12.442682 12.210321 -2.1405134
-18.019939 17.68961 -2.2092237
-5.6378875 5.5577703 -2.1212809
-6.5464797 6.4557042 -2.1226382
-7.808712 7.705812 -2.1324816
-9.4652081 9.3437405 -2.1065466
-12.416245 12.265468 -2.1429508
-17.952414 17.746801 -2.2085266
-5.6153121 5.5723538 -2.1197281
-6.5280533 6.482636 -2.1239879
-7.7831149 7.7316647 -2.1324816
-9.4381361 9.3822966 -2.1077983
-12.37054 12.305933 -2.1424632
-17.935545 17.854334 -2.2141044
-5.5880194 5.5860686 -2.1171398
-6.495739 6.4957376 -2.1208386
-7.7574997 7.7629161 -2.1332448
-9.4036875 9.4168234 -2.1077983
-12.333119 12.354661 -2.1434383
-17.895626 17.939402 -2.2168934
-5.5739322 5.6110229 -2.1192105
-6.4746327 6.5222688 -2.1217382
-7.7386527 7.7983098 -2.1355343
-9.3791037 9.4580078 -2.1096754
-12.295506 12.403274 -2.1444132
-17.838507 18.007423 -2.2175908
-5.5634375 5.6377249 -2.1223164
-6.4557056 6.5464792 -2.1226382
-38.778656 39.323921 2.894388
-7.7072382 7.8183355 -2.1340079
-9.350461 9.4918728 -2.1103013
-12.243165 12.432664 -2.1424632
-17.706022 17.992634 -2.2085266
-5.5379496 5.6492453 -2.1197281
-6.4394155 6.5734191 -2.1244378
-38.786491 39.607441 2.9052739
-7.6757746 7.8382397 -2.1324816
-9.3244591 9.5284758 -2.1115527
-12.20802 12.483842 -2.1439257
-18.955452 19.39049 -2.3723793
-5.5087633 5.6588521 -2.1161046
-6.4109969 6.5902681 -2.1226382
-7.6565795 7.8734303 -2.1347711
-9.2801304 9.5496311 -2.1090496
-12.186496 12.549166 -2.1478255
-18.965372 19.536592 -2.3821406
-5.4983745 5.6877713 -2.1197281
-6.3784757 6.6027956 -2.119489
-7.6385779 7.9127398 -2.1378241
-9.2481098 9.5833874 -2.1093626
-12.14262 12.591625 -2.1478255
-18.72773 19.433819 -2.3612232
-5.4761543 5.706491 -2.1192105
-6.3569293 6.6289434 -2.1203887
-7.5986567 7.9293461 -2.1347711
-9.2197561 9.6243525 -2.1109269
-12.085402 12.624578 -2.1458757
-18.670153 19.516722 -2.3629665
-32.254864 33.740982 -2.4462874
-5.4631972 5.7349162 -2.1223164
-6.337965 6.6578431 -2.1221881
-7.5682268 7.9529762 -2.1340079
-9.181694 9.6552181 -2.1103013
-12.041788 12.671663 -2.146363
-17.48217 18.403059 -2.2207284
-32.164394 33.882339 -2.4483809
-5.4298687 5.7399168 -2.1171398
-6.3133473 6.6785107 -2.1217382
-7.5512061 7.9907608 -2.1370609
-9.15065 9.6900806 -2.1109269
-11.997482 12.71362 -2.146363
-17.461575 18.510347 -2.2263062
-32.174698 34.131023 -2.45822
-5.4097996 5.7588358 -2.1171398
-6.2953315 6.7061915 -2.123538
-7.5178938 8.011344 -2.1355343
-9.1208229 9.7262859 -2.1118655
-11.958457 12.76122 -2.1473379
-18.306749 19.542494 -2.3427463
-30.674051 32.767548 -2.3522921
-5.3936191 5.7819219 -2.1186929
-6.2625828 6.7181473 -2.1203887
-7.4952383 8.0432816 -2.1370609
-9.089509 9.7609558 -2.1124914
-11.911136 12.799974 -2.1468506
-19.972698 21.470623 -2.5655162
-32.123299 34.556683 -2.4726648
-5.3714862 5.794589 -2.1171398
-6.2467427 6.7435069 -2.1221881
-7.4699306 8.0667906 -2.1370609
-9.0641642 9.7952633 -2.1137428
-11.868173 12.834414 -2.146363
-19.891623 21.518635 -2.5637734
-32.106731 34.757195 -2.4797826
-5.3564615 5.8189878 -2.1192105
-6.2244844 6.766706 -2.1226382
-7.4417281 8.0928144 -2.1370609
-9.0325909 9.8297529 -2.1143684
-11.82061 12.872843 -2.1458757
-19.908005 21.687746 -2.5756266
-32.077015 34.969139 -2.4869001
-5.3295994 5.8305206 -2.1166222
-6.2047706 6.792707 -2.1239879
-7.4134331 8.1187429 -2.1370609
-8.992897 9.8553858 -2.113117
-11.788979 12.928694 -2.1483128
-19.88855 21.818949 -2.5829475
-32.056973 35.193115 -2.4948552
-5.3131094 5.8533802 -2.118175
-6.1848292 6.8161321 -2.1248875
-7.3758168 8.1343908 -2.1343896
-8.9548588 9.8792992 -2.1118655
-11.743376 12.964774 -2.1478255
-18.929825 20.913326 -2.4679019
-5.300138 5.8781409 -2.1207633
-6.1609983 6.8376794 -2.1248875
-7.3606267 8.1719332 -2.1378241
-8.9229641 9.9134321 -2.1124914
-11.700702 13.008638 -2.1483128
-18.350594 20.416193 -2.4016635
-32.035595 35.654152 -2.5120213
-5.2759814 5.8946486 -2.1197281
-6.1266975 6.8475256 -2.1212883
-7.3384767 8.2076387 -2.1401138
-8.8905153 9.950491 -2.1134298
-11.639357 13.031634 -2.1453881
-19.746536 22.12413 -2.5944521
-5.2566562 5.9144735 -2.1202457
-6.105442 6.8743067 -2.1226382
-7.2941408 8.2155876 -2.1355343
-8.8609743 9.9873724 -2.1146812
-11.594146 13.077182 -2.1458757
-31.874981 35.990131 -2.519558
-5.2283096 5.9240947 -2.1171398
-6.0865645 6.9014225 -2.1244378
-7.2693138 8.2454166 -2.1366794
-8.8286686 10.021207 -2.1153071
-11.54843 13.117571 -2.1458757
-18.838688 21.405922 -2.494746
-5.2114191 5.9466681 -2.1186929
-6.0585847 6.9182291 -2.1230881
-7.2430758 8.273694 -2.1374426
-8.7897329 10.047504 -2.1143684
-11.507797 13.163781 -2.1468506
-18.776962 21.486555 -2.496489
-5.1931643 5.9677386 -2.1197281
-6.0305648 6.9349227 -2.1217382
-34.068317 39.191116 2.7214701
-7.2231646 8.3093004 -2.1401138
-8.7688589 10.094527 -2.11781
-11.469584 13.212864 -2.1483128
-18.772366 21.633223 -2.5059018
-5.1773529 5.9916768 -2.1217985
-6.0088654 6.9588828 -2.1226382
-7.1941152 8.3344631 -2.1401138
-8.7413063 10.134051 -2.1196871
-11.400064 13.225757 -2.1439257
-18.868404 21.89786 -2.5289109
-5.1526341 6.0053134 -2.1202457
-5.9882951 6.9817281 -2.123538
-7.1483712 8.3401451 -2.1351528
-8.7179375 10.174982 -2.1221902
-11.36131 13.269517 -2.1449006
-18.913612 22.10589 -2.5452962
-5.1301842 6.0194283 -2.1192105
-5.9651489 7.0040736 -2.1239879
-7.1257639 8.3697863 -2.1366794
-8.6964436 10.221903 -2.1256318
-11.327783 13.324217 -2.1473379
-15.61974 18.379114 -2.1102149
-29.589912 34.841888 -2.3956263
-29.590538 34.867287 -0.79823816
-5.1016541 6.02845 -2.1161046
-5.9469576 7.0322914 -2.1262374
-7.1003079 8.3991041 -2.1378241
-8.6607122 10.252195 -2.1256318
-11.28248 13.365197 -2.1475818
-15.573482 18.45484 -2.1126552
-31.363388 37.192478 -2.5497034
-5.0880384 6.0550942 -2.1192105
-5.9060845 7.0336056 -2.1203887
-7.0734725 8.4268436 -2.1385872
-8.6413736 10.302042 -2.129699
-11.224277 13.390808 -2.1453881
-18.718241 22.33919 -2.5498283
-31.305166 37.387493 -2.5555649
-5.0705819 6.0772691 -2.1207633
-5.8864861 7.0601668 -2.1221881
-7.0502973 8.4590263 -2.1404953
-8.6129475 10.341249 -2.1315763
-11.16096 13.41007 -2.1422195
-18.657995 22.425835 -2.5522687
-31.215334 37.545677 -2.5589144
-5.0456419 6.0904684 -2.1192105
-5.8618073 7.0806704 -2.1221881
-7.0082078 8.468462 -2.1366794
-8.5931644 10.391038 -2.1356435
-11.096382 13.427523 -2.1388073
-18.698874 22.63522 -2.5686541
-31.150211 37.734497 -2.5643573
-5.0292583 6.1140122 -2.1212809
-5.8481903 7.1146393 -2.1262374
-6.9823446 8.4974213 -2.1378241
-8.5643597 10.430133 -2.1375208
-11.045663 13.461574 -2.1380758
-18.506033 22.561707 -2.5529659
-31.084131 37.923332 -2.5698004
-5.0091085 6.1330252 -2.1217985
-5.8159289 7.1259508 -2.123538
-6.9551249 8.5247841 -2.1385872
-8.5216608 10.452307 -2.1359563
-11.009885 13.513901 -2.1402695
-18.341614 22.521111 -2.5411129
-14.615347 17.958557 -1.2134616
-4.9840212 6.1459708 -2.1202457
-5.7849007 7.136116 -2.1208386
-31.730684 39.156181 2.6412914
-6.9352102 8.5612164 -2.1416404
-8.4794903 10.4713 -2.1340792
-10.981249 13.570396 -2.1434383
-18.180199 22.482752 -2.5296082
-14.555717 18.00692 -1.2134616
-4.9660349 6.1654749 -2.1212809
-5.7587361 7.154747 -2.1203887
-6.8969374 8.571929 -2.1385872
-8.444128 10.502374 -2.1343923
-10.938787 13.614831 -2.1444132
-18.13549 22.580194 -2.5337915
-29.991909 37.369129 -2.5111842
-4.9493108 6.1888061 -2.1233516
-5.7422404 7.185463 -2.123538
-6.8645253 8.5928822 -2.1378241
-8.4098778 10.534875 -2.1350179
-10.896144 13.659142 -2.1453881
-18.05904 22.646482 -2.5341403
-29.811485 37.411118 -2.5069971
-4.918066 6.193943 -2.1192105
-5.7231812 7.2130947 -2.1257875
-6.8320456 8.6137171 -2.1370609
-8.3816442 10.575001 -2.137208
-10.843472 13.690866 -2.1444132
-17.922993 22.637522 -2.5261221
-29.797213 37.662186 -2.5168364
-4.900001 6.2156248 -2.1207633
-5.6955571 7.2299652 -2.1248875
-6.8043633 8.6405993 -2.1378241
-8.3361311 10.593327 -2.1350179
-10.807889 13.744237 -2.1468506
-17.105083 21.760124 -2.421535
-29.788944 37.923019 -2.5273035
-4.8806572 6.2357321 -2.1217985
-5.6630802 7.2405939 -2.1221881
-6.7862554 8.6797638 -2.1416404
-8.2990999 10.622362 -2.1350179
-10.764729 13.788141 -2.1478255
-17.705677 22.686705 -2.517755
-29.749727 38.146473 -2.5352585
-4.8576765 6.251205 -2.1212809
-5.6377726 7.2603164 -2.1221881
-6.754714 8.7018471 -2.1412585
-8.2643929 10.654387 -2.1356435
-10.701937 13.806808 -2.1449006
-17.648348 22.776716 -2.5208926
-30.900274 39.908272 -2.6451643
-4.8358245 6.2681241 -2.1212809
-5.6183419 7.2876697 -2.1244378
-6.7123113 8.7098236 -2.1374426
-8.2307653 10.687867 -2.1365821
-10.646417 13.834641 -2.1434383
-17.551722 22.816078 -2.5184524
-30.785133 40.047554 -2.6472576
-4.8139167 6.2849655 -2.1212809
-5.5988851 7.3124495 -2.1262374
-6.6866417 8.7394371 -2.1389689
-8.2012796 10.722945 -2.1381464
-10.588428 13.854095 -2.1410007
-17.280909 22.627022 -2.490911
-30.792759 40.333561 -2.6593995
-4.7883716 6.2947435 -2.1192105
-5.5745029 7.3335013 -2.1266873
-6.6600013 8.7646875 -2.1397321
-8.1626024 10.749938 -2.1378336
-10.535202 13.884648 -2.1400259
-17.424908 22.97312 -2.5226359
-30.716917 40.526764 -2.6650517
-4.7733536 6.3206706 -2.1223164
-5.5418286 7.3435812 -2.1239879
-6.6317282 8.7910175 -2.1404953
-8.1214647 10.773632 -2.1368952
-10.489062 13.924506 -2.1405134
-17.414127 23.12611 -2.5327458
-30.659336 40.745449 -2.672379
-4.7558947 6.3434777 -2.1243868
-5.5114889 7.3566413 -2.1221881
-6.6045299 8.8188295 -2.1416404
-8.095645 10.817727 -2.1400237
-10.430884 13.948315 -2.1385634
-13.702008 18.329191 -2.0021417
-30.531271 40.871418 -2.673635
-4.7348776 6.361589 -2.1249044
-5.4915886 7.3836546 -2.1244378
-6.5666795 8.8323746 -2.1393507
-8.0625448 10.852266 -2.1412752
-10.384495 13.987831 -2.1390507
-13.690192 18.447304 -2.0098114
-15.531483 20.943684 -1.3664919
-4.704608 6.3672013 -2.1212809
-5.4646254 7.4012108 -2.1239879
-6.5358109 8.8552418 -2.1393507
-8.0152359 10.867624 -2.1387722
-10.340314 14.03039 -2.1400259
-16.68412 22.646318 -2.4609296
-30.039141 40.803722 -2.655422
-15.473462 21.026089 -0.45568234
-4.6823521 6.3835855 -2.1212809
-5.4423542 7.4224353 -2.1248875
-6.5071783 8.8811712 -2.1401138
-7.9791508 10.894147 -2.1387722
-10.289042 14.058191 -2.1390507
-16.397957 22.421383 -2.4302506
-30.068699 41.128826 -2.6700761
-4.6702585 6.4115696 -2.1254222
-5.4072394 7.4287815 -2.1212883
-6.4869342 8.9153996 -2.1431668
-7.9445615 10.926723 -2.1397109
-10.253906 14.113297 -2.1419756
-16.433577 22.627169 -2.446636
-13.054399 17.987646 -1.1647891
-4.6444545 6.4231348 -2.1238692
-5.3835554 7.4507718 -2.1221881
-6.4534769 8.9348049 -2.1424036
-7.9156179 10.967205 -2.1422138
-10.19297 14.132902 -2.1395385
-16.841534 23.359955 -2.5194981
-29.834534 41.412289 -2.674891
-4.6265097 6.4455872 -2.1259398
-5.3643308 7.4790187 -2.1248875
-6.413095 8.9445143 -2.1393507
-7.8738375 10.98995 -2.1412752
-10.150511 14.178078 -2.1410007
-16.681614 23.317814 -2.5083423
-27.798397 38.871357 -2.5044851
-27.816395 38.925232 -0.83509767
-4.5938897 6.4499111 -2.1217985
-27.835268 39.081261 0.83750612
-5.3370633 7.4961095 -2.1244378
-27.845615 39.124722 2.5167317
-6.3848233 8.9743567 -2.140877
-27.869175 39.186771 4.2070074
-7.8300686 11.013907 -2.1403368
-10.094055 14.203719 -2.1395385
-16.549355 23.30443 -2.5006726
-27.678843 39.005562 -2.5065784
-27.701164 39.051453 -0.8357259
-4.5769219 6.4737964 -2.1243868
-5.307302 7.5124397 -2.123538
-6.3511906 8.9933834 -2.1401138
-7.7904377 11.039556 -2.1400237
-10.057947 14.26333 -2.1429508
-16.504644 23.414164 -2.5062504
-29.826719 42.34478 -2.7144568
-4.5542974 6.4897318 -2.1243868
-5.2732162 7.5197492 -2.1203887
-6.3242645 9.0219316 -2.1416404
-7.7552581 11.071535 -2.1409624
-10.008093 14.298353 -2.1429508
-16.370275 23.396538 -2.4982321
-29.767982 42.576321 -2.7226214
-4.5305104 6.5040059 -2.1238692
-5.2513862 7.5445089 -2.1221881
-6.2949781 9.0471735 -2.1424036
-7.7188158 11.101784 -2.141588
-9.9513283 14.323417 -2.1414883
-16.299868 23.469906 -2.4999754
-29.692066 42.784981 -2.7293203
-4.5110774 6.5245471 -2.1254222
-5.2318802 7.5698962 -2.1244378
-6.2588978 9.0626287 -2.140877
-7.6875725 11.135446 -2.1431525
-9.9015245 14.353068 -2.1410007
-16.251759 23.575876 -2.5052047
-29.611227 42.972012 -2.7349727
-4.4872274 6.5362864 -2.1243868
-5.2065277 7.5897183 -2.1248875
-6.2265878 9.0800982 -2.1401138
-7.6497688 11.163844 -2.1434653
-9.8648176 14.407202 -2.1439257
-16.049707 23.44878 -2.4860303
-29.492609 43.121277 -2.7379036
-4.467649 6.5566983 -2.1259398
-5.1800013 7.6078477 -2.1248875
-6.2014847 9.1115141 -2.1424036
-7.6040897 11.180676 -2.141588
-9.8167 14.444829 -2.1444132
-15.880433 23.37611 -2.472434
-29.427149 43.349564 -2.7458587
-4.4414864 6.5674539 -2.1243868
-5.1468649 7.6161971 -2.1221881
-6.1652431 9.1265993 -2.140877
-7.5605931 11.200605 -2.1403368
-9.7728758 14.488886 -2.1458757
-15.836601 23.48757 -2.4783607
-29.458681 43.72366 -2.7630248
-4.4217658 6.587729 -2.1259398
-5.121335 7.6357346 -2.1226382
-6.137723 9.1545868 -2.1424036
-7.5368443 11.249903 -2.1447167
-9.7178268 14.516311 -2.1449006
-15.805495 23.618874 -2.4863789
-29.428013 44.008846 -2.7745388
-4.4008837 6.6063404 -2.1269751
-5.0968118 7.6568084 -2.123538
-6.0970268 9.1628819 -2.1393507
-7.4920621 11.267916 -2.1431525
-9.6670914 14.550146 -2.1449006
-15.687685 23.620787 -2.4808009
-29.472994 44.410854 -2.7933798
-4.3682094 6.6071577 -2.1223164
-5.0732737 7.679431 -2.1248875
-6.0693345 9.1906595 -2.140877
-7.4537687 11.29565 -2.1434653
-9.6228037 14.593744 -2.146363
-15.631446 23.715332 -2.4849844
-29.359541 44.576836 -2.7973571
-4.3504195 6.6304398 -2.1249044
-14.444791 22.023571 0.45973128
-5.0453658 7.6954651 -2.1244378
-6.0350661 9.2085037 -2.1401138
-7.4088807 11.313339 -2.141901
-9.5739803 14.630565 -2.1468506
-15.522387 23.72974 -2.4808009
-29.37859 44.946548 -2.8141048
-15.311982 23.434858 -0.48863247
-4.330409 6.6504436 -2.1264575
-14.325844 22.000973 0.4582653
-5.0145049 7.7039871 -2.1221881
-6.009306 9.2393904 -2.1424036
-7.3734789 11.341157 -2.1425269
-9.5383835 14.682211 -2.1497755
-15.456824 23.810514 -2.4835901
-29.277227 45.117435 -2.8187101
-4.3083329 6.6647663 -2.1264575
-14.23377 22.02733 0.45777664
-4.9822984 7.7132592 -2.1199389
-5.977571 9.257618 -2.1420219
-7.3402739 11.376783 -2.1444039
-9.4827766 14.708741 -2.1488004
-11.59378 17.990011 -1.8724539
-29.325003 45.538418 -2.8385978
-4.287127 6.6830177 -2.1274927
-14.102335 21.983522 0.45589176
-4.9682608 7.7477837 -2.1248875
-5.9378023 9.2668571 -2.1393507
-7.3003736 11.397738 -2.1437781
-9.4318037 14.736764 -2.1483128
-11.518025 18.010233 -1.8703622
-11.513979 18.01083 -1.1203035
-4.2607927 6.6906791 -2.1254222
-13.97612 21.955015 0.45428613
-4.9443269 7.7700105 -2.1262374
-5.9133639 9.2964344 -2.1416404
-7.2573671 11.418148 -2.1428397
-9.386694 14.77965 -2.1497755
-14.194491 22.366928 -2.3176455
-15.19993 23.960514 -1.487074
-15.213321 24.000113 -0.4959974
-4.2352071 6.704618 -2.1249044
-13.839586 21.908995 0.45233148
-4.9119701 7.778985 -2.1239879
-5.8792491 9.3180466 -2.1416404
-7.2154708 11.44467 -2.1428397
-9.3392754 14.819046 -2.1507504
-14.12695 22.433197 -2.3193886
-15.166262 24.10227 -1.4924122
-4.2128057 6.7209973 -2.1254222
-13.725222 21.905346 0.45121452
-4.8772202 7.787025 -2.1212883
-5.8446045 9.3351831 -2.140877
-7.178617 11.474813 -2.1437781
-9.2870064 14.856542 -2.1512377
-14.060166 22.500963 -2.321306
-29.11581 46.631229 -2.8810947
-4.1903415 6.7373013 -2.1259398
-13.591254 21.852249 0.44919002
-4.8596034 7.8163943 -2.1248875
-5.8119855 9.355526 -2.140877
-7.1394858 11.496874 -2.1434653
-9.225132 14.867012 -2.1483128
-14.00673 22.590548 -2.3254895
-29.08939 46.934631 -2.8938646
-4.1760931 6.7643113 -2.1300809
-13.443476 21.783844 0.4468165
-4.8343349 7.8366294 -2.1257875
-5.7788658 9.3714085 -2.1401138
-7.1003447 11.52341 -2.1437781
-9.1815023 14.91265 -2.1502628
-13.947629 22.671543 -2.3288014
-29.006973 47.168594 -2.902029
-4.1462302 6.7713332 -2.1274927
-13.356915 21.81358 0.44646746
-4.8049169 7.8501301 -2.1248875
-5.7414083 9.3874998 -2.1389689
-7.0652742 11.561153 -2.1459682
-9.1314573 14.947999 -2.1507504
-12.419287 20.346043 -2.0854626
-28.967005 47.492859 -2.915427
-4.1215634 6.7841153 -2.1269751
-13.355756 21.99229 0.44912022
-4.7791443 7.8726878 -2.1262374
-5.7136946 9.4158773 -2.140877
-7.0136065 11.567167 -2.1425269
-9.0704412 14.97118 -2.1492879
-12.309997 20.32622 -2.0790131
-12.529437 20.704863 -1.2683097
-4.1028457 6.8067327 -2.1295633
-13.363278 22.170044 0.45184281
-4.7429557 7.8717999 -2.1217382
-5.6828194 9.4391279 -2.1416404
-6.9741931 11.588667 -2.1422138
-9.0187016 14.99777 -2.1488004
-12.214337 20.328081 -2.0748296
-28.87755 48.079292 -2.9392922
-12.43881 20.72624 -0.42192936
-4.0822325 6.8236179 -2.1305985
-13.372014 22.360722 0.4547748
-4.7214494 7.8983426 -2.1244378
-5.6545057 9.4629774 -2.1427851
-6.9377518 11.619723 -2.1434653
-8.9683247 15.032573 -2.1492879
-12.118299 20.320549 -2.0699489
-12.309491 20.657558 -1.26025
-4.0554323 6.8328409 -2.1290457
-13.355103 22.510447 0.4568691
-4.6998129 7.9248338 -2.1271372
-5.6134324 9.4691467 -2.1397321
-6.8971462 11.643872 -2.1434653
-8.9158001 15.063785 -2.1492879
-12.041201 20.35244 -2.068903
-4.0295973 6.8436251 -2.1280103
-13.349482 22.681005 0.45938224
-4.6740956 7.944551 -2.128037
-5.5843272 9.495451 -2.1412585
-6.8604598 11.674691 -2.1447167
-8.8631592 15.094817 -2.1492879
-11.940831 20.344521 -2.0638478
-28.71196 48.957935 -2.974462
-4.0086055 6.8626547 -2.1295633
-13.318567 22.801128 0.46091807
-4.6477261 7.9600062 -2.128037
-5.5521345 9.5165834 -2.1416404
-6.8167334 11.688844 -2.1431525
-8.8210526 15.137845 -2.1512377
-28.700163 49.311802 -2.9901628
-3.9838898 6.8725662 -2.1285279
-4.6179571 7.9728107 -2.1271372
-5.5185804 9.5315428 -2.140877
-6.7739096 11.70915 -2.1425269
-8.7701397 15.171983 -2.1517253
-11.921689 20.632343 -2.0847654
-28.663658 49.646923 -3.0043981
-3.965652 6.8964801 -2.1316338
-4.5881586 7.9855008 -2.1262374
-5.4901624 9.5592632 -2.1427851
-6.741847 11.748142 -2.1453426
-8.7072563 15.185282 -2.1492879
-11.934807 20.822485 -2.099756
-3.941556 6.9102802 -2.1316338
-4.5641174 8.0082388 -2.128037
-5.4489837 9.564724 -2.1397321
-6.7027535 11.775036 -2.1459682
-8.6679401 15.239739 -2.1527004
-12.437138 21.875523 -2.2015541
-3.9155064 6.9206352 -2.1305985
-4.5399694 8.0309095 -2.1298366
-5.4174967 9.5871029 -2.1404953
-6.6586938 11.793202 -2.1450298
-8.622489 15.283735 -2.1546502
-12.440948 22.061113 -2.2158475
-3.8894355 6.9308901 -2.1295633
-4.5138168 8.050106 -2.1307364
-5.3859205 9.6093788 -2.1412585
-6.6165242 11.814649 -2.1447167
-8.578783 15.331062 -2.1570876
-13.001904 23.245096 -2.3301959
-10.070244 18.018568 -1.0817842
-3.8699141 6.9528651 -2.1321514
-4.4781098 8.0521898 -2.1271372
-5.3580647 9.6384172 -2.1435483
-6.5742807 11.835947 -2.1444039
-8.532918 15.374802 -2.1590376
-10.038462 18.094967 -1.8103991
-10.020838 18.078072 -1.0832498
-3.8446884 6.9646397 -2.1316338
-4.451859 8.0711842 -2.128037
-5.3205991 9.6501846 -2.1420219
-6.5319748 11.857092 -2.1440909
-8.4753723 15.397536 -2.1580625
-10.002133 18.178772 -1.8152797
-10.005785 18.200447 -1.0884833
-3.8203552 6.9780169 -2.1316338
-4.4255304 8.0900946 -2.1289368
-5.2812271 9.6583643 -2.1397321
-6.4971781 11.891953 -2.146281
-8.4196663 15.423544 -2.1575749
-12.131721 22.232662 -2.2158475
-28.30641 51.917641 -3.0990217
-3.7938008 6.9814987 -2.1290457
-4.4075294 8.1176586 -2.1325359
-5.2489877 9.6714563 -2.1389689
-6.454133 11.90189 -2.1444039
-8.3598251 15.428972 -2.1546502
-12.042831 22.235628 -2.2123613
-28.245838 52.196014 -3.1103263
-3.7703254 6.9963989 -2.1295633
-4.3708534 8.1175508 -2.1284869
-5.2207799 9.7000904 -2.1412585
-6.4097443 11.919126 -2.1434653
-8.3077917 15.461559 -2.1551375
-11.980229 22.305611 -2.2151504
-28.191895 52.533638 -3.1245615
-3.7504311 7.0180368 -2.1321514
-4.3443251 8.136198 -2.1293867
-5.1878104 9.7199888 -2.1416404
-6.3699555 11.944916 -2.1440909
-8.2537737 15.490462 -2.1551375
-11.917276 22.375437 -2.2179394
-28.152849 52.903244 -3.140681
-3.7250075 7.0293779 -2.1316338
-4.3154979 8.1471148 -2.1284869
-5.1611991 9.7519188 -2.1446934
-6.3349309 11.974703 -2.1456554
-8.2079306 15.528278 -2.1566
-11.926566 22.582504 -2.2343247
-14.48888 27.445745 -1.626497
-14.498827 27.487825 -0.54245567
-3.7034764 7.0451117 -2.1326692
-4.2870307 8.1621294 -2.1284869
-5.1151452 9.7429066 -2.1389689
-6.2949247 12.000242 -2.146281
-8.1499863 15.549804 -2.1556253
-11.819931 22.571049 -2.2290952
-14.37816 27.467846 -1.6248223
-14.365711 27.467394 -0.54105949
-3.6758425 7.055212 -2.1316338
-4.262115 8.1839571 -2.1302865
-5.0803046 9.7633314 -2.1393507
-6.2545471 12.030243 -2.1475327
-8.0993223 15.585202 -2.1566
-11.713531 22.55912 -2.2238657
-14.235074 27.438814 -1.6200074
-14.247658 27.474766 -0.54022181
-3.6503079 7.0662832 -2.1311162
-4.2356639 8.2064514 -2.132086
-5.046195 9.781004 -2.1393507
-6.2052717 12.037957 -2.1450298
-8.0530481 15.635962 -2.1595249
-11.652946 22.635303 -2.2273521
-14.088054 27.38887 -1.6141456
-12.191256 23.711439 -0.46538585
-3.6264982 7.0807023 -2.1316338
-4.2048764 8.2135124 -2.1302865
-5.0120201 9.7985611 -2.1393507
-6.1671195 12.061986 -2.1456554
-8.0011568 15.66258 -2.1595249
-11.579303 22.686487 -2.2283978
-13.98082 27.403414 -1.6122617
-13.990112 27.445288 -0.53770864
-3.6047494 7.0961337 -2.1326692
-4.1735368 8.222928 -2.1289368
-4.9812775 9.8186274 -2.1401138
-6.1258731 12.085199 -2.1459682
-7.9392548 15.676248 -2.1575749
-11.541808 22.799417 -2.235719
-13.832786 27.348679 -1.6061906
-13.879167 27.452272 -0.53694075
-3.5860379 7.1207523 -2.1362925
-4.1506243 8.2454252 -2.1311862
-4.9452071 9.8324499 -2.1393507
-6.0875349 12.108979 -2.146594
-7.8925767 15.71313 -2.1590376
-11.456785 22.828886 -2.2346733
-13.724114 27.358694 -1.6040972
-13.747421 27.429041 -0.53554451
-3.5563641 7.1205063 -2.1326692
-4.1244292 8.2650948 -2.1325359
-4.9046893 9.8329811 -2.135916
-6.0496368 12.138993 -2.1481583
-7.8359051 15.737032 -2.1585498
-11.320656 22.745461 -2.22282
-13.607181 27.363518 -1.601585
-13.628451 27.430302 -0.53463703
-3.5297742 7.1294127 -2.1316338
-4.096415 8.281189 -2.1329858
-4.8772998 9.8641214 -2.1389689
-6.0028496 12.151183 -2.146594
-7.7897148 15.782089 -2.1609874
-11.175951 22.652618 -2.2099209
-13.488627 27.364267 -1.5988636
-13.491983 27.395185 -0.5330314
-3.5082688 7.1486287 -2.1337044
-4.0623374 8.2849379 -2.1302865
-4.8471551 9.8899002 -2.140877
-5.9586625 12.168512 -2.1459682
-7.7293472 15.798485 -2.1595249
-11.173352 22.858105 -2.2259576
-13.394785 27.41477 -1.5990729
-13.39628 27.44211 -0.5330314
-3.4837353 7.1649127 -2.1347394
-4.0359464 8.304327 -2.1316364
-4.8143063 9.9146633 -2.1424036
-5.9235044 12.209823 -2.1494098
-7.6724234 15.821794 -2.1590376
-13.346421 27.571547 -1.6053532
-13.378787 27.650715 -0.53617287
-3.4628954 7.1857328 -2.1373277
-4.0114021 8.3313541 -2.1347857
-4.7728548 9.9172573 -2.1393507
-5.8791389 12.226864 -2.1487842
-7.6160975 15.853389 -2.1595249
-13.319217 27.762024 -1.6137271
-13.347906 27.834276 -0.53882557
-3.4294634 7.1803451 -2.1321514
-3.9845932 8.3463678 -2.1352355
-4.7398958 9.9374018 -2.1401138
-5.8385572 12.246294 -2.1487842
-7.5617719 15.874975 -2.1590376
-9.2569838 19.451319 -1.8846557
-13.318017 27.997223 -1.6248223
-13.339928 28.068539 -0.54245567
-3.407289 7.1951699 -2.1331868
-3.9570994 8.3637505 -2.1361351
-4.7052393 9.9495153 -2.1393507
-5.7898693 12.254096 -2.146594
-7.5097046 15.908453 -2.1600125
-13.307082 28.22781 -1.6354988
-13.340715 28.324783 -0.54650468
-3.3841774 7.2146044 -2.135257
-3.9254005 8.3722181 -2.1347857
-4.6737404 9.9773598 -2.1416404
-5.7449141 12.275236 -2.146594
-7.4524498 15.930972 -2.1595249
-10.887442 23.295105 -2.2496638
-13.269438 28.417553 -1.6436633
-13.317871 28.534266 -0.54964608
-3.3597858 7.228127 -2.1357749
-3.891403 8.3794804 -2.1329858
-4.6405349 9.9971762 -2.1424036
-5.7070189 12.305964 -2.1484711
-7.3956742 15.961784 -2.1600125
-10.775923 23.267883 -2.2433889
-3.3369606 7.2450738 -2.1373277
-3.8693006 8.4047289 -2.1361351
-4.6006899 10.002611 -2.1401138
-5.6694822 12.332001 -2.1497226
-7.3393836 15.979007 -2.1590376
-10.638136 23.182217 -2.2315357
-3.3064992 7.2420402 -2.1331868
-3.8375103 8.4128666 -2.1347857
-4.5683064 10.019601 -2.1404953
-5.6263981 12.351717 -2.1497226
-7.2917876 16.022594 -2.1614747
-10.577696 23.253641 -2.2350218
-25.999332 57.209007 -3.2932928
-3.2811978 7.2535391 -2.1331868
-3.8161476 8.4439669 -2.1392844
-4.5373464 10.044431 -2.1424036
-5.5702496 12.342473 -2.1447167
-7.235817 16.047949 -2.1614747
-10.27871 22.807247 -2.1886549
-3.259016 7.2720003 -2.135257
-3.7770948 8.4358921 -2.1338856
-4.5038586 10.063792 -2.1431668
-5.5311661 12.370856 -2.146281
-7.1797509 16.073111 -2.1614747
-10.072323 22.559175 -2.1614623
-3.2343979 7.2850976 -2.1357749
-3.7492037 8.45259 -2.1347857
-4.47507 10.09381 -2.1462197
-5.493547 12.402732 -2.1484711
-7.1171794 16.083553 -2.1595249
-10.235289 23.140835 -2.2137558
-3.20895 7.2963428 -2.1357749
-3.721241 8.4691944 -2.1356852
-4.433495 10.094988 -2.1431668
-5.4502163 12.421835 -2.1484711
-7.0657706 16.119207 -2.1609874
-10.045703 22.928234 -2.1900494
-3.1811447 7.302187 -2.1342218
-3.6970277 8.4904213 -2.1379349
-4.40136 10.117605 -2.1446934
-5.4066339 12.434405 -2.1475327
-7.0154467 16.149834 -2.1619625
-10.043345 23.142275 -2.2071321
-26.542429 61.24791 -1.1651576
-3.156914 7.312695 -2.1342218
-3.6689131 8.5068521 -2.1388347
-4.3693414 10.13575 -2.1454566
-5.3616366 12.449573 -2.1469069
-6.954318 16.163282 -2.1604998
-10.01378 23.285271 -2.2175908
-3.1321259 7.3254471 -2.1347394
-3.6346014 8.5088558 -2.1361351
-4.3370152 10.158164 -2.1469829
-5.3173685 12.466396 -2.146594
-6.9040842 16.202068 -2.1624498
-9.9136934 23.276091 -2.2134073
-3.1125641 7.3505669 -2.1388805
-3.6063976 8.5250788 -2.1370349
-4.2969451 10.162391 -2.1446934
-5.2738228 12.48488 -2.146594
-6.8413157 16.211437 -2.1604998
-9.8401318 23.328909 -2.2151504
-22.698782 53.866596 -3.0634332
-3.086885 7.3613877 -2.1388805
-3.5788784 8.5430079 -2.1383848
-4.2599258 10.173706 -2.14393
-5.2332621 12.510502 -2.1478455
-6.7877421 16.242544 -2.1614747
-9.3685331 22.429182 -2.1266
-22.472141 53.853344 -3.0581994
-3.0545042 7.35606 -2.1342218
-3.5520208 8.5626497 -2.1401844
-4.225893 10.192141 -2.1446934
-5.1903133 12.530519 -2.1481583
-6.7340441 16.273478 -2.1624498
-9.2384081 22.336552 -2.114747
-22.207764 53.746864 -3.0477324
-3.0310135 7.3720374 -2.1357749
-3.5213671 8.5731945 -2.1397343
-4.1932745 10.214093 -2.1462197
-5.1427908 12.539424 -2.146594
-6.6786981 16.300558 -2.1629374
-9.1339483 22.304131 -2.1086459
-9.1601362 22.412678 -0.42262748
-3.0067167 7.3861523 -2.1368101
-3.4921556 8.5872393 -2.1401844
-4.1575923 10.228669 -2.1462197
-5.0960188 12.549977 -2.1453426
-6.6305819 16.33733 -2.1648872
-9.0448122 22.308182 -2.1060314
-9.072258 22.409561 -0.42199919
-2.9822083 7.3960814 -2.1368101
-3.4585645 8.5861168 -2.1370349
-4.1251187 10.246042 -2.1469829
-5.0573244 12.574137 -2.146594
-6.5645261 16.329758 -2.1609874
-8.9730082 22.343603 -2.1065543
-9.0718966 22.612665 -1.2768928
-8.9852381 22.407974 -0.42140582
-2.9605293 7.4131069 -2.1388805
-3.4344034 8.6084013 -2.1397343
-4.0882077 10.252372 -2.1454566
-5.0192509 12.600015 -2.1481583
-6.5133524 16.367329 -2.1629374
-8.8973951 22.36953 -2.1062055
-8.8936901 22.405745 -0.4207775
-2.9317956 7.4162097 -2.1368101
-3.405767 8.6239605 -2.1406343
-4.0523973 10.266579 -2.1454566
-9.0045328 22.82427 2.1466458
-4.979588 12.628484 -2.1500356
-8.976717 22.777048 3.0060294
-6.4590855 16.397354 -2.1639123
-8.8309402 22.430111 -2.1089947
-20.992828 53.37537 -3.0058637
-2.9051878 7.4245982 -2.1362925
-3.3763499 8.6376123 -2.1410842
-4.0251107 10.302605 -2.1500359
-4.9290094 12.62923 -2.1472197
-6.4061389 16.430897 -2.1653748
-8.7800751 22.531347 -2.1156185
-8.9054632 22.888535 5.6701164
-8.9050493 22.911129 6.5864277
-2.8834376 7.4455042 -2.1393983
-3.342665 8.6402578 -2.1388347
-3.9869964 10.311099 -2.148891
-4.8877444 12.653727 -2.1484711
-6.3430314 16.438343 -2.1634247
-9.1630793 23.759008 -2.227875
-8.810112 22.879469 5.6602182
-2.8581197 7.4573278 -2.1399159
-3.3138797 8.6555119 -2.1397343
-3.9530818 10.330456 -2.1500359
-4.8463631 12.678093 -2.1497226
-6.2856083 16.460384 -2.1634247
-9.1546793 23.9863 -2.2461777
-2.8300176 7.4618397 -2.1383629
-3.2857151 8.6724949 -2.1410842
-3.9128289 10.333175 -2.1477461
-4.8034787 12.698627 -2.1503484
-6.2337294 16.49708 -2.1653748
-9.0258493 23.898819 -2.2350218
-2.8032765 7.4698634 -2.1378453
-3.2588408 8.6930361 -2.1433337
-3.8781149 10.350447 -2.1485093
-4.751503 12.694968 -2.1469069
-6.1747108 16.51502 -2.1648872
-8.8321714 23.635302 -2.2074807
-2.7778552 7.4814148 -2.1383629
-3.224412 8.6933956 -2.1406343
-3.8433239 10.367604 -2.1492727
-4.7051053 12.705917 -2.1459682
-6.1156507 16.532749 -2.1643996
-8.8767471 24.009836 -2.2395539
-18.843594 51.022923 -2.8505306
-2.7530537 7.4946942 -2.1393983
-3.1933775 8.7027674 -2.1401844
-3.8071079 10.380958 -2.1492727
-4.6580095 12.714845 -2.1447167
-6.0606365 16.561451 -2.1653748
-8.7600374 23.950857 -2.2311869
-2.7255573 7.5006261 -2.1383629
-3.1605065 8.7023191 -2.137485
-3.7735286 10.401564 -2.150799
-4.6238966 12.752506 -2.1484711
-6.0056787 16.581461 -2.1653748
-8.6492605 23.906351 -2.2242146
-18.357304 50.766846 -2.8291774
-2.7052469 7.522347 -2.1419864
-3.1360421 8.729805 -2.1415341
-3.7376902 10.410323 -2.1500359
-4.5766892 12.761131 -2.1472197
-5.9464259 16.598583 -2.1648872
-8.5497923 23.878628 -2.2189851
-18.252634 51.033714 -2.840482
-2.6731441 7.5153646 -2.1373277
-3.1068566 8.7443695 -2.1424339
-3.6986983 10.415909 -2.1485093
-4.5360756 12.788201 -2.149097
-5.891098 16.626726 -2.1658623
-8.4557419 23.878279 -2.2161963
-2.6481781 7.5282936 -2.1383629
-3.0776043 8.7588396 -2.1433337
-3.6675236 10.443574 -2.1515625
-4.4907579 12.802093 -2.1487842
-5.8317146 16.64344 -2.1653748
-8.3960505 23.975342 -2.2224715
-17.692793 50.579247 -2.808243
-2.6225193 7.5393157 -2.1388805
-3.0444508 8.762167 -2.1415341
-3.6349125 10.467439 -2.153852
-4.4479809 12.823289 -2.1497226
-5.7774768 16.67495 -2.166837
-8.3292542 24.053457 -2.2270036
-17.500448 50.595402 -2.8057311
-2.5968127 7.550252 -2.1393983
-3.0132151 8.770896 -2.1410842
-3.5983493 10.480064 -2.153852
-4.4057584 12.846211 -2.1509743
-5.7153792 16.683748 -2.1653748
-8.254281 24.108772 -2.229444
-2.5704398 7.5592713 -2.1393983
-2.9825823 8.7813606 -2.1410842
-3.5604804 10.488844 -2.1530888
-4.3640637 12.870864 -2.1525385
-5.6532898 16.692314 -2.1639123
-8.0832052 23.880775 -2.2057374
-2.5428076 7.5645342 -2.1383629
-2.9574916 8.8083458 -2.1451333
-3.5225987 10.497485 -2.1523256
-4.3209896 12.89164 -2.1534772
-5.5943542 16.710066 -2.1636686
-7.9782968 23.844608 -2.199811
-23.569191 70.60463 -1.2992619
-2.5163887 7.5733633 -2.1383629
-2.9255011 8.8149157 -2.1442335
-3.488409 10.51717 -2.153852
-4.2709961 12.891643 -2.1509743
-5.5428543 16.750221 -2.1663496
-7.9112844 23.921494 -2.2043431
-2.4911408 7.5857735 -2.1393983
-2.8934965 8.821372 -2.1433337
-3.4528964 10.533015 -2.1546154
-4.2302694 12.919615 -2.1531644
-5.4837298 16.767582 -2.1661057
-7.8425841 23.994417 -2.2085266
-2.4658406 7.5980973 -2.1404335
-2.8602846 8.8240023 -2.1415341
-3.4179254 10.550606 -2.15576
-4.1863642 12.93806 -2.15379
-5.4184551 16.765842 -2.1634247
-7.7489872 23.991308 -2.2057374
-2.4393015 7.6066585 -2.1404335
-2.8318455 8.8413563 -2.1433337
-3.3774822 10.551255 -2.1534703
-4.1435857 12.960119 -2.1550415
-5.3647251 16.799784 -2.1653748
-7.6651993 24.018209 -2.2057374
-2.4074843 7.5985522 -2.1357749
-2.8021393 8.8549032 -2.1442335
-3.3388572 10.557364 -2.1523256
-4.0989127 12.976389 -2.1553543
-5.3036637 16.810833 -2.1643996
-7.5525498 23.953611 -2.1973705
-2.3815246 7.6087527 -2.1362925
-2.7717919 8.8664913 -2.1446834
-3.3066707 10.583945 -2.1553786
-4.0512347 12.983076 -2.1541028
-5.2461362 16.833033 -2.1648872
-7.4831038 24.025488 -2.2015541
-2.3578014 7.6262479 -2.1388805
-2.7412257 8.8719101 -2.1437836
-3.2714393 10.601051 -2.1565235
-4.0075793 12.994551 -2.15379
-5.1902819 16.850338 -2.1648872
-7.4038854 24.066694 -2.2029486
-2.3370166 7.6488051 -2.1430218
-2.7108109 8.8832874 -2.1442335
-3.2345514 10.606208 -2.1553786
-3.9679539 13.027356 -2.1569188
-5.1279616 16.856962 -2.1634247
-7.3228707 24.087305 -2.2026
-12.161959 40.054871 -2.1938188
-2.3086267 7.6513677 -2.1414688
-2.67641 8.8815022 -2.1415341
-3.1941094 10.606155 -2.1530888
-3.9218831 13.039237 -2.1566057
-5.0690918 16.874758 -2.1634247
-7.2433338 24.127983 -2.2039945
-11.956685 39.878983 -2.1818862
-2.2780449 7.6464195 -2.1378453
-2.6453934 8.89079 -2.1415341
-3.1598678 10.62665 -2.1549969
-3.8797207 13.064208 -2.158483
-5.0112891 16.896152 -2.1639123
-7.1613369 24.160761 -2.2046916
-11.798141 39.855362 -2.1783273
-2.2529736 7.6598859 -2.1393983
-2.6192875 8.9167967 -2.1455832
-3.1210923 10.631963 -2.153852
-3.8313186 13.068192 -2.1569188
-4.9567389 16.928787 -2.1658623
-7.0735922 24.174139 -2.2036457
-11.63877 39.82729 -2.1745594
-2.2251461 7.6639924 -2.1383629
-2.5843446 8.9127846 -2.1424339
-3.0872416 10.654107 -2.1561418
-3.7878716 13.089079 -2.1581702
-4.8954139 16.938354 -2.1648872
-6.9913831 24.206339 -2.2043431
-11.4864 39.821613 -2.1720471
-2.1989138 7.6735687 -2.1388805
-11.557076 40.357426 0.73275679
-2.5558958 8.931119 -2.1446834
-11.536044 40.337246 2.1987383
-3.0500302 10.664819 -2.1561418
-3.7437835 13.10792 -2.1591089
-4.8340759 16.947706 -2.1639123
-6.914484 24.257423 -2.2067833
-11.367001 39.930622 -2.1758153
-2.1747413 7.6904936 -2.1414688
-2.5220585 8.9306087 -2.1424339
-3.0095873 10.664063 -2.153852
-3.6964004 13.115203 -2.1581702
-4.7743545 16.962566 -2.1636686
-6.8243785 24.262228 -2.2050402
-11.238359 40.008514 -2.1779087
-2.1426928 7.6794295 -2.1362925
-2.49401 8.9506216 -2.1451333
-2.9760334 10.687743 -2.1565235
-3.6532466 13.137542 -2.1597345
-4.7145791 16.977217 -2.1634247
-6.7439132 24.30126 -2.2064347
-11.129561 40.159138 -2.1839797
-2.1168971 7.690588 -2.1373277
-2.4632654 8.9611521 -2.1455832
-2.938185 10.696173 -2.1561418
-3.6063168 13.146404 -2.1591089
-4.6600122 17.010798 -2.1656184
-6.6621947 24.336184 -2.2074807
-11.05779 40.448189 -2.197587
-2.0925715 7.7072525 -2.1399159
-2.4289079 8.9584112 -2.1428835
-2.9033999 10.715838 -2.1580498
-3.5614336 13.162728 -2.1597345
-4.5980196 17.017378 -2.1643996
-6.5803146 24.370836 -2.2085266
-2.0656533 7.71451 -2.1399159
-2.3991346 8.9724827 -2.1442335
-2.8649604 10.722116 -2.1572866
-3.5159774 13.176988 -2.1600473
-4.5375633 17.02949 -2.1639123
-6.4911079 24.378252 -2.2071321
-11.841619 44.535343 -2.4150953
-2.0406861 7.7291441 -2.1419864
-2.3673806 8.9728518 -2.1424339
-2.8235168 10.716863 -2.1542337
-3.4737732 13.194305 -2.1609859
-4.4856129 17.061722 -2.1661057
-6.4140725 24.431593 -2.2099209
-11.5469 44.014118 -2.3847404
-2.0135813 7.7302613 -2.1404335
-2.3365333 8.9829464 -2.1428835
-2.7924047 10.743268 -2.1576684
-3.4266989 13.202526 -2.1603601
-4.4285145 17.086885 -2.1673245
-6.3330126 24.45273 -2.2099209
-1.9841849 7.7278867 -2.1378453
-2.3096397 9.0019712 -2.1455832
-2.754889 10.75295 -2.1576684
-3.3848615 13.221471 -2.1616118
-4.3708477 17.09763 -2.166837
-6.2466373 24.470825 -2.2095723
-1.9567924 7.738853 -2.1388805
-2.271239 8.9956579 -2.141984
-2.7178576 10.772493 -2.1595764
-3.3345494 13.236286 -2.1619246
-4.3090439 17.129686 -2.168787
-6.1636992 24.520609 -2.2120128
-11.242981 44.79319 -2.4203289
-1.9311734 7.7512593 -2.1404335
-2.2399855 8.997468 -2.1406343
-2.6778722 10.772388 -2.1576684
-3.2901642 13.245354 -2.1616118
-4.2493443 17.132322 -2.1673245
-6.077116 24.538107 -2.2116642
-10.854447 43.860851 -2.3679929
-1.9045349 7.7538695 -2.1393983
-2.2122757 9.0203733 -2.1442335
-2.6421371 10.781209 -2.1576684
-3.245784 13.264434 -2.162863
-4.1904612 17.150906 -2.1678119
-5.9966493 24.561996 -2.2120128
-10.639815 43.64621 -2.3543856
-1.8747296 7.7492042 -2.1362925
-2.1807816 9.028039 -2.1442335
-2.6049452 10.792274 -2.1580498
-3.2022486 13.287203 -2.1647403
-4.1333499 17.17701 -2.1692746
-5.9090295 24.575027 -2.2113154
-1.8490095 7.7613392 -2.1378453
-2.1478992 9.0299082 -2.1428835
-2.5695245 10.810853 -2.1599579
-3.153564 13.288692 -2.1631761
-4.072454 17.187471 -2.168787
-5.8222861 24.591627 -2.2109668
-10.164845 43.000259 -2.3156569
-1.8201469 7.760222 -2.1357749
-2.1154747 9.0335579 -2.141984
-2.5317793 10.819755 -2.1599579
-3.1058068 13.293848 -2.1622374
-4.0142331 17.209316 -2.1697619
-5.7409253 24.631205 -2.2127099
-1.7947837 7.7740579 -2.1378453
-2.0852442 9.0465841 -2.1433337
-2.4935524 10.826613 -2.1595764
-3.0607147 13.310384 -2.1631761
-3.9505782 17.207745 -2.1678119
-5.6584806 24.66663 -2.2141044
-9.6146803 41.979942 -2.2570407
-1.7680659 7.7821584 -2.1383629
-2.0549433 9.0595083 -2.1446834
-2.4553137 10.833337 -2.1591947
-3.0151024 13.324841 -2.1638019
-3.8939998 17.236919 -2.1697619
-5.5749688 24.697891 -2.2151504
-9.3969803 41.697605 -2.2400839
-1.7392026 7.7807422 -2.1362925
-2.0228848 9.064724 -2.1442335
-2.4166257 10.838009 -2.1584315
-2.9698622 13.341067 -2.1647403
-3.8368139 17.249737 -2.1697619
-5.4826818 24.689972 -2.2127099
-9.250495 41.72625 -2.2398744
-1.7125622 7.7826929 -2.135257
-1.9923979 9.069479 -2.1437836
-2.3815165 10.849799 -2.1591947
-2.9239166 13.343124 -2.1634889
-3.7829905 17.277878 -2.1717119
-5.4016333 24.71191 -2.2130587
-8.9315176 40.929333 -2.1954935
-1.6879693 7.7939944 -2.1368101
-1.9590143 9.0607996 -2.1401844
-2.3467646 10.863394 -2.1603396
-2.8825645 13.366264 -2.165679
-3.7234874 17.294861 -2.1721995
-4.1363873 19.229008 -1.720803
-8.7672348 40.825943 -2.1883759
-1.6631683 7.8111753 -2.1399159
-1.9281865 9.071394 -2.1410842
-2.3096478 10.875359 -2.1611028
-2.8354766 13.374313 -2.1653662
-3.6614537 17.299982 -2.1712244
-5.239058 24.7754 -2.2154989
-8.651083 40.981361 -2.1950748
-1.6358901 7.8169336 -2.1399159
-1.8977071 9.0837908 -2.1424339
-2.2704656 10.877591 -2.1599579
-2.7903953 13.391863 -2.1666176
-3.6026556 17.320433 -2.1721995
-5.1533713 24.797434 -2.2158475
-8.6369801 41.633198 -2.2283607
-1.6054789 7.8074589 -2.1357749
-1.8659847 9.0903606 -2.1424339
-2.2301123 10.873911 -2.1576684
-2.7432323 13.399588 -2.1663048
-3.5421777 17.332903 -2.1721995
-5.0635853 24.799652 -2.214453
-8.5897322 42.14452 -2.2541099
-1.5774562 7.8092265 -2.1347394
-1.8342397 9.0968199 -2.1424339
-2.1944757 10.893175 -2.1599579
-2.694881 13.401337 -2.1650534
-3.483211 17.352947 -2.1731744
-4.9754143 24.809366 -2.2137558
-8.5413494 42.667763 -2.2804871
-1.551689 7.8222666 -2.1368101
-1.8002056 9.0916967 -2.1397343
-2.155673 10.896918 -2.1591947
-2.649236 13.416473 -2.1659918
-3.4233799 17.368896 -2.1736617
-4.8857083 24.81094 -2.2123613
-8.4940414 43.214699 -2.3081205
-1.5251149 7.8314271 -2.1378453
-1.7691998 9.1017523 -2.1406343
-2.1187475 10.910157 -2.1603396
-2.6031358 13.42952 -2.1666176
-3.3619881 17.376841 -2.1731744
-4.7969995 24.840422 -2.2134073
-8.3295517 43.173485 -2.3043525
-1.4956745 7.8331695 -2.1368101
-1.7363287 9.1021271 -2.1392844
-2.0772738 10.910135 -2.158813
-2.5546372 13.442851 -2.1672435
-3.3027875 17.396273 -2.1741493
-4.7058148 24.833523 -2.2113154
-8.1526661 43.105598 -2.2991188
-1.4683241 7.8383427 -2.1368101
-1.7054565 9.1218405 -2.1424339
-2.0373778 10.907671 -2.1569052
-7.6103463 40.783546 3.6296883
-2.5091417 13.459455 -2.1684947
-3.2411876 17.41997 -2.1756117
-4.6205506 24.857634 -2.2120128
-8.0386114 43.33017 -2.3095858
-1.440254 7.8396201 -2.1357749
-1.6739583 9.1296539 -2.1428835
-1.999995 10.918579 -2.1576684
-7.4568105 40.749111 3.6242845
-2.4603708 13.458414 -2.1669304
-7.4534879 40.811401 5.093895
-3.1767929 17.41165 -2.1731744
-4.5301857 24.85401 -2.2102695
-7.8951645 43.401199 -2.3118889
-1.41322 7.8465014 -2.1362925
-1.6403579 9.1258526 -2.1406343
-1.9636019 10.935156 -2.1595764
-7.3162913 40.784695 3.6251559
-2.4137287 13.468865 -2.1672435
-7.305377 40.805912 5.0899954
-3.1187954 17.438267 -2.1751244
-4.4476118 24.893206 -2.2123613
-7.7639613 43.54253 -2.3179598
-1.3851521 7.8475809 -2.135257
-1.6091708 9.1353607 -2.1415341
-1.9250814 10.94001 -2.1591947
-7.1655917 40.762894 3.6209724
-2.3666954 13.477209 -2.1672435
-7.1546698 40.784237 5.0841455
-3.0589285 17.45491 -2.1758554
-4.3620591 24.916431 -2.2130587
-1.3603855 7.8675976 -2.1393983
-1.5759448 9.1332407 -2.1397343
-1.8842161 10.931184 -2.1561418
-7.019887 40.768021 3.6192293
-2.3213139 13.495121 -2.1688077
-7.0021853 40.750267 5.0768332
-3.0003352 17.479176 -2.1775615
-4.27843 24.951141 -2.2148015
-1.3290458 7.8494411 -2.1331868
-1.5459995 9.1502151 -2.1424339
