# .PCD v0.7 - Point Cloud Data file format
VERSION 0.7
FIELDS x y z
SIZE 4 4 4
TYPE F F F
COUNT 1 1 1
WIDTH 1467
HEIGHT 1
VIEWPOINT 0 0 0 1 0 0 0
POINTS 1467
DATA ascii
4.2880688 -16.544994 -2.0985904
4.2814536 -16.531342 -1.4940237
4.2525692 -16.467169 -0.29686543
2.0706625 -8.0646963 -2.2310205
2.4198663 -9.4384298 -2.2495105
3.0628281 -11.954906 -2.3988509
4.0082431 -15.667828 -2.5614581
5.0183625 -19.630541 -2.4878411
4.2139492 -16.531979 -0.89410758
4.2043548 -16.506372 -0.2973192
2.0510206 -8.0996084 -2.2387848
2.3799548 -9.4123955 -2.2414124
3.0106626 -11.915507 -2.3889287
3.9712465 -15.740409 -2.5711572
4.9619718 -19.681721 -2.4922283
9.2627716 -36.795074 -3.3195877
2.0208745 -8.0932455 -2.2351615
2.3624005 -9.47507 -2.2544594
2.9754052 -11.942572 -2.3923633
3.9123509 -15.726655 -2.566777
4.9042454 -19.743233 -2.4978342
9.1810198 -36.988014 -3.3342299
4.0398278 -16.299788 -0.88008147
12.988112 -52.482529 -0.94372141
1.9884571 -8.0833664 -2.2305026
2.3376799 -9.5173244 -2.2625577
2.9477372 -12.010086 -2.4038119
3.8329823 -15.640448 -2.5505078
4.8452067 -19.800724 -2.5029526
9.0717268 -37.101128 -3.3415511
3.9776974 -16.292448 -0.87893015
1.9647788 -8.1090345 -2.2356789
2.3136075 -9.5633087 -2.2715557
2.9016457 -12.003127 -2.4003773
3.7440629 -15.511635 -2.5273554
5.3895197 -22.362974 -2.8244441
8.9589558 -37.202301 -3.3478265
12.493497 -52.039146 -0.93415749
1.9288384 -8.0838976 -2.2268791
2.2887926 -9.6073446 -2.2801039
2.8606381 -12.017002 -2.4011405
3.7433395 -15.749465 -2.5639613
5.3425927 -22.512989 -2.8410182
8.8750153 -37.427208 -3.3652575
12.345811 -52.226452 -0.93674052
1.904143 -8.105628 -2.2310205
2.2494586 -9.5906105 -2.2742553
2.8244967 -12.051764 -2.4061015
3.7270448 -15.927851 -2.5908678
5.2612677 -22.519901 -2.839556
3.7561672 -16.090277 -1.4455651
12.842375 -55.186813 -0.98902786
1.8780141 -8.1216345 -2.2336085
2.2247336 -9.6363802 -2.2832532
2.7665253 -11.992681 -2.3923633
3.6319664 -15.769441 -2.5630226
5.1870747 -22.557478 -2.8419933
3.6923954 -16.070278 -1.4426018
1.8475097 -8.1187239 -2.2310205
14.046405 -61.775555 1.1058193
2.2023089 -9.6934958 -2.2949507
2.7472448 -12.101821 -2.4122074
3.5406592 -15.62212 -2.5370543
5.1302075 -22.672255 -2.8541803
1.8263338 -8.1571703 -2.23982
2.1582549 -9.6554804 -2.284153
2.6908638 -12.048107 -2.3996141
3.454721 -15.493639 -2.514215
5.0113535 -22.511759 -2.8317564
8.4424238 -37.955894 -3.4018629
1.7907853 -8.131424 -2.2310205
2.1287234 -9.6819878 -2.2886522
2.6622713 -12.118787 -2.4118259
3.3959639 -15.48438 -2.5107734
3.472193 -15.858418 -1.9932952
8.3049526 -37.994366 -3.40256
1.7699586 -8.179472 -2.2424083
2.0912082 -9.6722164 -2.2846029
2.6087232 -12.086245 -2.4034302
3.3495898 -15.544998 -2.5185952
3.4130573 -15.852976 -1.9911015
8.1647444 -37.988064 -3.3994224
1.7434068 -8.1950474 -2.2449965
2.0622211 -9.7103167 -2.2918015
2.5632594 -12.079913 -2.4003773
3.2977631 -15.568192 -2.5204725
3.3610897 -15.894508 -1.9947575
8.0320911 -38.016335 -3.3994224
1.7017423 -8.1386824 -2.2279146
2.0283129 -9.7174559 -2.2918015
2.5162656 -12.065724 -2.395798
3.2413883 -15.569937 -2.518908
4.6869564 -22.553141 -2.8283439
7.7851148 -37.494022 -3.3502667
12.815969 -61.940399 -1.1040741
1.6904285 -8.2278337 -2.2506905
1.9849837 -9.6786604 -2.2810037
2.4867451 -12.13598 -2.4080098
3.1897898 -15.594704 -2.5210981
4.6320138 -22.665804 -2.8405309
7.6661344 -37.579529 -3.3554959
1.6677246 -8.2561188 -2.2569022
1.9686691 -9.7635107 -2.2994497
2.4550161 -12.186501 -2.4164052
3.1376684 -15.603259 -2.5207851
4.5716834 -22.754995 -2.849793
7.5673332 -37.733673 -3.3670003
12.326454 -61.631863 -1.0970932
1.648615 -8.3032913 -2.2682903
1.9260522 -9.7183752 -2.2873023
2.4081094 -12.161835 -2.4099178
3.0885894 -15.627144 -2.5229752
4.5168152 -22.89546 -2.8653922
7.4340315 -37.752041 -3.3663032
12.12203 -61.729458 -1.0980705
1.6115235 -8.2751455 -2.2589729
1.893979 -9.7346029 -2.2895517
2.3743713 -12.22647 -2.4209847
3.0365546 -15.665508 -2.5273554
4.4293189 -22.87211 -2.8605175
7.2908626 -37.719078 -3.3610742
1.5761 -8.2465649 -2.2496552
1.859017 -9.745307 -2.2904515
2.3070531 -12.105471 -2.3954163
2.9833314 -15.683777 -2.5286071
4.4061818 -23.208033 -2.9004905
7.1784644 -37.846085 -3.3701384
1.5490855 -8.2615099 -2.2522435
1.8327897 -9.7839813 -2.2981
2.287874 -12.236958 -2.4198396
2.9595952 -15.845043 -2.5530109
4.3117366 -23.128845 -2.8887911
6.7664132 -36.366573 -3.2362669
1.5276257 -8.2988997 -2.2610431
1.8017961 -9.8075686 -2.3021491
2.2504716 -12.261857 -2.4232745
2.9049809 -15.859163 -2.5536366
4.1531525 -22.71806 -2.8356562
6.5679059 -35.997967 -3.2014048
1.5006262 -8.3234558 -2.2662196
1.7561498 -9.7505093 -2.2873023
2.2131569 -12.312532 -2.43167
2.8579938 -15.931923 -2.5636482
4.0773301 -22.751959 -2.8380935
6.4337902 -35.973606 -3.1972213
1.468201 -8.309618 -2.2610431
1.7224319 -9.7683935 -2.2900016
2.1664181 -12.298915 -2.4274724
2.8098893 -15.984604 -2.5705316
4.0062599 -22.837137 -2.846868
6.3095541 -36.003693 -3.1979184
1.4365501 -8.2994652 -2.2569022
1.6860456 -9.751009 -2.2846029
2.1264777 -12.323814 -2.4309068
2.751833 -15.964634 -2.5658383
3.9244494 -22.815084 -2.8424809
6.2512565 -36.418232 -3.2327809
7.4337997 -43.443867 -0.76933694
1.4086976 -8.3022785 -2.2563846
1.6441889 -9.710722 -2.2738054
2.0882175 -12.346285 -2.4339597
2.69313 -15.956612 -2.5630226
3.8434691 -22.820814 -2.841506
6.1564541 -36.632385 -3.2498634
1.373515 -8.2787991 -2.24862
1.6147436 -9.7433186 -2.2801039
2.0359049 -12.311242 -2.4255641
2.6381655 -15.987815 -2.5664639
3.7502229 -22.751825 -2.8312688
6.0453591 -36.755882 -3.2589276
10.717976 -65.379204 -1.1564313
1.3436804 -8.2778225 -2.247067
1.590238 -9.8184223 -2.2963004
1.9853944 -12.27176 -2.4164052
2.5691192 -15.915021 -2.5533235
3.6630197 -22.741901 -2.8283439
5.9258804 -36.831837 -3.2638083
1.314172 -8.2786455 -2.2460318
1.5546179 -9.8043947 -2.2918015
1.942547 -12.278616 -2.4164052
2.5033801 -15.841504 -2.5401831
3.5882025 -22.757845 -2.8288314
5.8127618 -36.95071 -3.2725236
1.2929391 -8.3230467 -2.2569022
1.5197886 -9.8059101 -2.2909014
1.9072248 -12.319913 -2.4232745
2.4468613 -15.842338 -2.5389318
3.5190217 -22.836935 -2.8371184
5.7023191 -37.04855 -3.2794962
1.2612692 -8.3103199 -2.2522435
1.4867159 -9.8188629 -2.2927012
1.875069 -12.398318 -2.4373941
2.3897774 -15.839061 -2.5370543
3.426877 -22.766636 -2.8268814
5.5788836 -37.107635 -3.2829826
2.6232762 -17.490097 -0.92686987
1.2186587 -8.2229443 -2.2273967
1.4575638 -9.8586922 -2.3007994
1.8271917 -12.373713 -2.4312882
2.3425364 -15.902027 -2.5458148
3.3687401 -22.923796 -2.8449183
5.4626279 -37.21756 -3.2910008
1.2079237 -8.3514252 -2.2610431
1.4276489 -9.8827591 -2.3052983
1.7646669 -12.245937 -2.4049568
2.2926042 -15.92926 -2.5489435
2.4006939 -16.721684 -2.0742164
5.3078299 -37.062843 -3.2756615
2.4795606 -17.335535 -0.91776341
1.1767087 -8.3305178 -2.2543139
1.3953191 -9.903121 -2.3088977
1.7240478 -12.251721 -2.4049568
2.2342422 -15.917603 -2.5458148
2.3384578 -16.70244 -2.0708041
5.1777201 -37.028938 -3.2711294
2.4405544 -17.498379 -0.92592788
1.1597452 -8.4226093 -2.2781253
1.3677809 -9.9463043 -2.3178957
1.6780702 -12.234324 -2.4003773
2.1860023 -15.958195 -2.5511336
2.2596784 -16.538988 -2.0495987
5.0285249 -36.9007 -3.2582302
2.4099851 -17.708233 -0.93660432
1.1246873 -8.3844824 -2.2667372
1.3315748 -9.9531822 -2.3183455
1.6389939 -12.267351 -2.40572
2.1264541 -15.958269 -2.5498822
2.2108123 -16.63571 -2.0605671
4.8764882 -36.792473 -3.2470741
2.2902911 -17.303131 -0.91472793
1.0917006 -8.3713083 -2.2620785
1.2970749 -9.9597015 -2.3187954
1.5869406 -12.218762 -2.3950348
2.0598297 -15.903265 -2.5398703
2.1209009 -16.39724 -2.0300996
2.2139454 -17.163698 -1.5140696
2.2426548 -17.434227 -0.92121762
1.0593127 -8.350153 -2.2553494
1.2620295 -9.9759893 -2.3214948
1.5511702 -12.278765 -2.40572
1.9991194 -15.869203 -2.5332999
2.0546019 -16.355661 -2.0240064
2.1572447 -17.19702 -1.5163356
2.1773236 -17.406275 -0.91933346
1.0261381 -8.3212051 -2.2465494
1.2182242 -9.8930826 -2.3012493
1.514519 -12.334768 -2.415642
1.9671596 -16.044365 -2.5602069
2.0003526 -16.362385 -2.0240064
2.0887644 -17.135225 -1.5102347
2.1101778 -17.336079 -0.91525131
1.0088924 -8.4108772 -2.2698431
1.1913199 -9.9611282 -2.3160961
1.4726768 -12.331925 -2.4141154
1.9006302 -15.962865 -2.5461278
2.0721667 -17.455427 -2.1583064
2.0319297 -17.142057 -1.5102347
2.0440266 -17.295736 -0.91273916
0.96835756 -8.3184023 -2.2439611
1.1486069 -9.8817883 -2.2967501
1.4345928 -12.379896 -2.4225113
1.8517711 -16.004402 -2.5517592
1.9089503 -16.54916 -2.0454552
1.9739031 -17.164881 -1.5116292
1.9862044 -17.298452 -0.91252983
0.94272131 -8.3388453 -2.24862
1.9970906 -17.692934 0.31079245
1.1197788 -9.9360857 -2.3084476
1.3952874 -12.400192 -2.4255641
1.7798214 -15.867463 -2.5289197
1.8275682 -16.344635 -2.0193753
1.9556547 -17.517845 -1.5421337
1.9275742 -17.321159 -0.91336721
0.90182972 -8.2345438 -2.2196321
1.8790237 -17.184946 0.30175212
1.0884731 -9.9709301 -2.3156462
1.3519939 -12.404987 -2.4255641
1.7481049 -16.091562 -2.5636482
1.7711443 -16.356834 -2.0201063
1.8634435 -17.237343 -1.5168586
1.9571831 -18.163788 -0.95743406
1.9758576 -18.397385 -0.32297423
0.88081717 -8.3106432 -2.2393024
1.8691033 -17.664684 0.31005946
1.0458809 -9.9010267 -2.2985499
1.3008611 -12.335438 -2.4110627
1.6997681 -16.17222 -2.5755374
1.716314 -16.384636 -2.0227876
1.8834176 -18.040667 -1.5869317
1.8225487 -17.487154 -0.92142695
1.8240299 -17.560835 -0.30817461
0.85801834 -8.3887682 -2.2594905
1.7836262 -17.438353 0.30597562
1.0150754 -9.941452 -2.3070979
1.2657763 -12.439734 -2.4305251
1.6301217 -16.076147 -2.5592682
1.7542681 -17.330626 -2.1388073
1.736451 -17.214554 -1.5137209
1.8201666 -18.107775 -0.95377058
1.757928 -17.519342 -0.30733687
0.82778031 -8.3820982 -2.2569022
1.71401 -17.38706 0.30496335
0.97767687 -9.9354086 -2.3048484
1.2223455 -12.444077 -2.4305251
1.5784208 -16.126955 -2.5664639
2.2126994 -22.689163 -2.7990952
1.8087748 -18.58086 -1.6332986
1.7663931 -18.211426 -0.95889944
1.691398 -17.501783 -0.30691803
0.8038283 -8.4407091 -2.2719138
1.6357064 -17.2078 0.30171719
0.94869584 -9.9989014 -2.3187954
1.1731632 -12.387679 -2.418695
1.493727 -15.83147 -2.5185952
2.1706412 -23.092026 -2.8478432
1.663874 -17.734077 -1.5583447
1.6187981 -17.31864 -0.91158777
1.5145981 -16.265146 -0.28513741
0.77753526 -8.4780903 -2.2812312
1.5375351 -16.797209 0.29442209
0.91627043 -10.029322 -2.325094
1.125278 -12.340865 -2.4087729
1.4391721 -15.84446 -2.5198469
2.0914521 -23.115276 -2.849793
1.57096 -17.396492 -1.5281887
1.5594079 -17.336119 -0.91221577
1.4726262 -16.435646 -0.28803453
0.74640882 -8.4634333 -2.2765725
1.4734569 -16.740723 0.29334006
0.88398409 -10.063519 -2.3322923
1.0811658 -12.332983 -2.4064832
1.3924463 -15.947779 -2.53549
2.0145347 -23.165945 -2.8551552
1.5112586 -17.41378 -1.5292346
1.3798673 -15.964487 -0.83978289
1.4250212 -16.554249 -0.29002407
0.71784019 -8.4775381 -2.2796783
1.4205676 -16.81152 0.29449192
0.85408998 -10.128683 -2.3466892
1.0328423 -12.274078 -2.3942714
1.344852 -16.049 -2.5508208
1.368947 -16.405354 -2.0213251
1.4402149 -17.295847 -1.5184274
1.3244641 -15.973189 -0.83999223
1.4202474 -17.164722 -0.30063516
0.68058479 -8.3856401 -2.2543139
1.3505747 -16.640741 0.29142028
0.82128471 -10.141171 -2.3489389
0.98714942 -12.242385 -2.3874023
1.2908316 -16.043526 -2.5492566
1.3146955 -16.411783 -2.021569
1.3682685 -17.155783 -1.5057026
1.2630898 -15.87197 -0.83444458
1.3767456 -17.376892 -0.30426523
0.65876961 -8.4648933 -2.2750194
1.3101292 -16.872637 0.29539943
0.78693378 -10.157577 -2.3520882
0.9550193 -12.355207 -2.4087729
1.2349722 -16.049902 -2.5495691
1.2587655 -16.434086 -2.0237625
1.3203268 -17.277437 -1.5159869
1.2082839 -15.884249 -0.83486325
1.302796 -17.206121 -0.30119365
0.62778568 -8.447875 -2.2698431
1.2413205 -16.743492 0.29306084
0.74759114 -10.107789 -2.3399408
0.92012155 -12.470067 -2.4305251
1.1605681 -15.803916 -2.5098348
1.1750554 -16.078053 -1.9794021
1.2466799 -17.099125 -1.4999503
1.1641039 -16.043749 -0.84302771
1.2411448 -17.188623 -0.30080968
0.6004771 -8.4808474 -2.2781253
1.1817377 -16.731766 0.29278156
0.7146318 -10.143384 -2.3475893
0.87755042 -12.486913 -2.4331965
1.1106309 -15.882753 -2.521724
1.1201669 -16.099878 -1.9815956
1.1854694 -17.081511 -1.4980329
1.1023164 -15.964026 -0.83863139
1.1794906 -17.168913 -0.30039081
0.55789721 -8.290143 -2.2263615
1.1357818 -16.921343 0.29602769
0.67635643 -10.10304 -2.3376913
0.83081806 -12.442885 -2.4240377
1.0615973 -15.983113 -2.5370543
1.0642223 -16.107653 -1.9820831
1.1347444 -17.220734 -1.5098861
1.0468438 -15.971763 -0.83884072
1.1168224 -17.13102 -0.29965782
0.53891838 -8.4482031 -2.2682903
1.0742937 -16.887289 0.29536456
0.6414572 -10.111174 -2.3390412
0.78452933 -12.400646 -2.4152606
1.0112565 -16.073467 -2.5508208
1.0129473 -16.190517 -1.9918326
1.0117259 -16.216408 -1.4215102
0.9926948 -16.001236 -0.84020156
1.0711195 -17.314259 -0.30279925
0.50558865 -8.3863964 -2.2512081
1.0247872 -16.998545 0.29724941
0.60511702 -10.066559 -2.3282435
0.74416429 -12.452302 -2.4248009
0.95724577 -16.064901 -2.5489435
1.0421236 -17.592812 -2.1639123
0.94527721 -16.052769 -1.406868
1.0342097 -17.615452 -0.92477638
0.99611151 -17.068356 -0.29843614
0.47568801 -8.3513823 -2.2413731
0.96861881 -17.05792 0.29822674
0.57405061 -10.140599 -2.3448899
0.70607585 -12.511546 -2.4358678
0.89640617 -15.983336 -2.53549
0.9798249 -17.580488 -2.1619625
0.89247882 -16.063774 -1.4075652
1.0072864 -18.245138 -0.95764339
0.91961581 -16.710167 -0.29211837
0.44643092 -8.3510618 -2.2408552
0.91471738 -17.11096 0.29909933
0.54083437 -10.15023 -2.3466892
0.66125619 -12.492368 -2.43167
0.84298366 -15.978332 -2.5342386
0.86541814 -16.513155 -2.0303433
0.83981985 -16.13245 -1.4133176
0.85395181 -16.459246 -0.86375272
0.87229401 -16.926958 -0.2958532
0.42238611 -8.4548311 -2.2682903
0.85776091 -17.230036 0.30112383
0.50237286 -10.126842 -2.3408406
0.61609596 -12.463226 -2.4255641
0.78354257 -15.963556 -2.5314229
0.92422062 -18.964903 -2.3313608
0.77374148 -15.934287 -1.395712
0.82145309 -17.101675 -0.29885501
0.39278072 -8.4543228 -2.2677724
0.79876465 -17.192835 0.30042574
0.46707603 -10.091466 -2.3322923
0.56817281 -12.369203 -2.4068646
0.73493487 -16.060783 -2.5464404
0.85763282 -18.886557 -2.3213673
0.71838439 -15.942863 -1.396235
0.81022161 -18.051029 -0.94696695
0.77029258 -17.296219 -0.30220586
0.36357713 -8.4285583 -2.2605255
0.73539776 -17.117603 0.29906446
0.43184835 -10.093035 -2.3322923
0.52456045 -12.310214 -2.3950348
0.67761439 -16.033649 -2.5417476
0.69070339 -16.479662 -2.0252249
0.66645378 -16.034855 -1.404079
0.71433681 -17.259518 -0.90530741
0.7090925 -17.278824 -0.30185685
0.33382609 -8.4587898 -2.2682903
0.67138487 -17.012163 0.29717955
0.39645991 -10.090586 -2.3313928
0.47898066 -12.300283 -2.392745
0.61716926 -15.992599 -2.5348644
0.86948079 -22.633209 -2.7810588
0.60979497 -16.019163 -1.4025102
0.64907539 -17.289185 -0.30199644
0.30582485 -8.5023766 -2.2796783
0.60709608 -16.960554 0.29623714
0.35871139 -10.070549 -2.3264439
0.43951711 -12.399981 -2.4118259
0.55822271 -15.905817 -2.5207851
0.79755163 -22.953669 -2.8200569
0.55318511 -16.001282 -1.4007671
0.59723341 -17.45182 -0.91514659
0.58732754 -17.339417 -0.30283415
0.27683368 -8.5246325 -2.2853725
0.5626052 -17.418261 0.30419543
0.32305557 -10.056157 -2.3228445
0.39685851 -12.421062 -2.415642
0.50232476 -15.895823 -2.518908
0.71692401 -22.940437 -2.8181069
0.5024631 -16.168404 -1.4152349
0.53097433 -17.280119 -0.90604013
0.82735956 -27.235287 -0.47561297
0.24416615 -8.4251318 -2.2584553
0.50612074 -17.570034 0.3068133
0.28783923 -10.053329 -2.3219447
0.35461503 -12.461621 -2.4232745
0.44761145 -15.925125 -2.5232882
0.63871741 -23.010267 -2.8263941
0.44508931 -16.136202 -1.4122716
0.48631331 -17.856865 -0.93618566
0.46566999 -17.321102 -0.30245018
0.21455732 -8.4182072 -2.2563846
0.44514263 -17.58569 0.30705765
0.25308734 -10.067909 -2.325094
0.31091735 -12.454932 -2.4217479
0.38997772 -15.84365 -2.5101478
0.55868101 -23.024263 -2.8278563
0.39495009 -16.3946 -1.4347577
0.42226911 -17.786572 -0.93241745
0.40511334 -17.318624 -0.30238038
0.18687098 -8.4961605 -2.2770901
0.38061094 -17.443192 0.30454451
0.21823835 -10.082369 -2.3282435
0.26533362 -12.357801 -2.402667
0.33462852 -15.842939 -2.5098348
0.47195846 -22.720438 -2.7903209
0.33624238 -16.324171 -1.4284827
0.35945365 -17.751995 -0.93053341
0.54286253 -27.280443 -0.47627616
0.15592588 -8.427227 -2.2584553
0.32272696 -17.608362 0.30740669
0.18226457 -10.040204 -2.3183455
0.22078177 -12.280135 -2.3874023
0.28339964 -16.075092 -2.5464404
0.39854786 -23.063332 -2.8322439
0.27643144 -16.159901 -1.4140148
0.2975184 -17.755138 -0.93063807
0.44816005 -27.314163 -0.47683463
0.12682714 -8.448967 -2.264149
0.26034024 -17.547398 0.30632463
0.14818767 -10.107029 -2.3336422
0.17996348 -12.42217 -2.4148786
0.2275642 -16.095736 -2.5495691
0.31256202 -22.667599 -2.7834959
0.21925938 -16.104984 -1.409134
0.23715505 -17.87789 -0.93702304
0.35170507 -27.229582 -0.47533375
0.096288852 -8.3585682 -2.23982
0.19949467 -17.58419 0.30695292
0.11188332 -10.015901 -2.3124969
0.13569541 -12.340271 -2.3988509
0.17064169 -16.0273 -2.5386188
0.23122989 -22.454172 -2.7571721
0.16451491 -16.251089 -1.4218588
0.1748669 -17.890593 -0.93765104
0.2591942 -27.500591 -0.48004588
0.067451395 -8.4013519 -2.2512081
0.13764359 -17.524792 0.30590579
0.07713104 -10.04351 -2.3187954
0.21080646 -28.088663 1.472106
0.093265481 -12.427051 -2.415642
0.11447024 -15.996192 -2.533613
0.15668556 -23.018597 -2.8263941
0.10794515 -16.275473 -1.4239506
0.11259119 -17.919056 -0.93911648
0.16422066 -27.6733 -0.48304772
0.038362261 -8.4536963 -2.2651844
0.07656531 -17.547161 0.30628973
0.042039242 -10.035924 -2.3169959
0.11276001 -28.089226 1.472106
0.049848136 -12.417484 -2.413734
0.058297008 -15.905626 -2.5192208
0.056335542 -16.988327 -2.0859158
0.05123844 -16.309622 -1.4269139
0.049867932 -17.857424 -0.9358716
0.066106319 -27.053801 -0.47222722
0.0087952167 -8.3977547 -2.2501729
0.015327292 -17.563318 0.30656895
0.0069809421 -9.9989834 -2.3084476
0.019712865 -28.235245 1.4797471
0.0064895912 -12.395987 -2.4095361
0.0027743487 -15.889932 -2.5167181
-0.0029344887 -16.821672 -2.0654416
-0.0057569421 -16.496984 -1.4432992
-0.012314927 -17.63979 -0.92446244
-0.023444971 -26.869898 -0.46901596
-0.020618835 -8.438303 -2.2610431
-0.04274451 -17.493284 0.30534729
-0.026105879 -9.9716692 -2.3021491
-0.077115163 -27.615995 1.4472986
-0.03697161 -12.46072 -2.4221294
-0.04999366 -15.913557 -2.5204725
-0.058897953 -16.873182 -2.071779
-0.063597016 -16.562613 -1.4490514
-0.069943205 -17.423946 -0.91315782
-0.11717243 -26.853657 -0.46873674
-0.048611593 -8.4401207 -2.2615609
-0.16611509 -27.993246 0.48863247
-0.06103266 -9.9910049 -2.3066483
-0.17546166 -27.925125 1.4635228
-0.078465827 -12.488016 -2.4274724
-0.18059985 -27.966589 2.4468102
-0.10550317 -15.90736 -2.5195339
-0.11765788 -16.853025 -2.0693417
-0.1196595 -16.721697 -1.4629964
-0.13118391 -17.479521 -0.9160887
-0.2096182 -26.689116 -0.46587455
-0.077822864 -8.4128532 -2.2543139
-0.16517116 -17.524553 0.30590579
-0.09558849 -9.9576035 -2.2989998
-0.12238172 -12.521039 -2.4339597
-0.27953267 -28.097279 2.4583149
-0.16126809 -15.930598 -2.5232882
-0.17650644 -16.854494 -2.0695853
-0.17724402 -16.647463 -1.4565467
-0.19206671 -17.46697 -0.91546065
-0.30337304 -26.740206 -0.46678209
-0.10711414 -8.4067364 -2.2527611
-0.35565236 -27.535511 0.48067418
-0.12991308 -9.9240847 -2.2913516
-0.16502021 -12.440048 -2.4183133
-0.21760175 -15.983267 -2.5317357
-0.23528159 -16.849808 -2.0690978
-0.23678836 -16.748346 -1.4654367
-0.38429737 -26.52681 -1.3903571
-0.40157455 -27.066898 -0.47250646
-0.13671055 -8.4217644 -2.2569022
-0.44946814 -27.39414 0.47823083
-0.16539414 -9.9742298 -2.3030491
-0.20791715 -12.407989 -2.4122074
-0.27308884 -15.964635 -2.5289197
-0.29444385 -16.868731 -2.0715353
-0.29805958 -16.906782 -1.4793816
-0.48274693 -26.850807 -1.4074187
-0.49326578 -26.91338 -0.46985367
-0.1659921 -8.4154406 -2.2553494
-0.53832942 -27.052525 0.47229704
-0.20142239 -10.033991 -2.3169959
-0.251028 -12.397375 -2.4102995
-0.32755351 -15.90236 -2.5192208
-0.35781521 -17.081942 -2.0978591
-0.35652697 -16.879744 -1.4771154
-0.57616824 -26.83498 -1.4066861
-0.58043492 -26.815636 -0.46817827
-0.19514249 -8.4051542 -2.2527611
-0.62626994 -26.974623 0.47097066
-0.2356514 -10.07418 -2.3264439
-0.29271892 -12.32969 -2.3973243
-0.38033178 -15.903163 -2.5195339
-0.41657841 -17.16798 -2.1085835
-0.40868098 -16.603529 -1.4530605
-0.66416419 -26.79299 -1.4045925
-0.67283016 -26.765469 -0.46734056
-0.22204059 -8.3677683 -2.2429259
-0.72128016 -27.004257 0.47152913
-0.27050149 -10.061608 -2.3237445
-0.33716106 -12.460141 -2.4228928
-0.44000965 -16.053783 -2.5436246
-0.47622636 -17.1565 -2.1073649
-0.46006706 -16.470638 -1.441556
-0.75621462 -26.738598 -1.4018711
-0.77955943 -27.394737 -0.47837046
-0.2521762 -8.3978376 -2.2512081
-0.83423489 -27.781248 0.48514202
-0.30457062 -10.084029 -2.329143
-0.38089317 -12.466738 -2.4244192
-0.4932422 -16.052237 -2.5436246
-0.53546047 -17.230223 -2.1166267
-0.51924568 -16.522697 -1.4462622
-0.84323972 -26.684042 -1.3991495
-0.87517768 -27.39185 -0.47837046
-0.27902827 -8.3235369 -2.2315381
-0.93793881 -27.833961 0.48611936
-0.34152856 -10.082846 -2.329143
-0.42420635 -12.459447 -2.4232745
-0.55350149 -16.09178 -2.5501947
-0.78148687 -22.491421 -2.7632658
-0.58790427 -16.835392 -1.4738036
-0.93948758 -26.636858 -1.3968468
-0.97571415 -27.392454 -0.47844028
-0.30836722 -8.3302336 -2.2336085
-1.0388052 -27.930431 0.48786455
-0.37926942 -10.149751 -2.3448899
-0.4662241 -12.418652 -2.415642
-0.60989374 -16.095671 -2.5511336
-0.84595627 -22.121582 -2.718174
-0.64100784 -16.685909 -1.4609046
-1.0328496 -26.643396 -1.3973701
-1.0727301 -27.424849 -0.47906855
-0.34276131 -8.4603653 -2.2688079
-0.41413963 -10.134735 -2.3417406
-0.51150131 -12.464026 -2.4248009
-0.66313225 -16.02239 -2.5398703
-0.92002743 -22.043125 -2.7089119
-0.70008349 -16.703478 -1.4626477
-1.1228108 -26.567793 -1.393602
-1.1916078 -27.964361 -0.48856267
-0.37330991 -8.4822769 -2.2750194
-0.44588697 -10.05146 -2.3228445
-0.5497638 -12.344487 -2.4019036
-0.71595711 -15.950911 -2.5289197
-1.0104202 -22.33724 -2.7454729
-1.286116 -28.322517 -2.4804523
-1.2180054 -26.61758 -1.3964281
-1.2632444 -27.396717 -0.47871953
-0.40410933 -8.5060081 -2.2817488
-0.48199543 -10.071255 -2.3277936
-0.59059197 -12.295429 -2.392745
-0.77163225 -15.948314 -2.5289197
-1.0777574 -22.115475 -2.7186615
-1.3775761 -28.166613 -2.4672046
-1.3112062 -26.619152 -1.3967421
-1.353691 -27.384388 -0.47857988
-0.43586427 -8.5450621 -2.2926192
-0.50682408 -9.9022293 -2.2891018
-0.63037407 -12.232512 -2.3809147
-0.82104701 -15.878595 -2.5182824
-1.1657416 -22.39328 -2.7532725
-1.4694233 -28.038275 -2.4563975
-1.415725 -26.923805 -1.4129663
-1.524321 -28.797293 -0.5033623
-0.46231204 -8.5088472 -2.2833018
-0.54755676 -10.013257 -2.3151963
-0.67018282 -12.216633 -2.3782434
-0.86938912 -15.747427 -2.4979458
-1.2377383 -22.278082 -2.7396231
-1.5617261 -28.021313 -2.4553516
-1.5138398 -26.992481 -1.4168391
-1.5876523 -28.132946 -0.49184373
-0.49256861 -8.5168257 -2.2858899
-0.58035457 -9.9743214 -2.3066483
-0.71488202 -12.249498 -2.3851125
-0.93488878 -15.923749 -2.526417
-1.3248568 -22.432158 -2.7591221
-2.2587328 -38.131252 -3.3418996
-1.6049608 -26.935194 -1.4141176
-1.7320266 -28.897732 -0.50531697
-0.51732659 -8.4340677 -2.264149
-0.61312962 -9.9391689 -2.2989998
-0.75533348 -12.209698 -2.377862
-0.98629731 -15.853354 -2.5157793
-1.3969516 -22.328333 -2.7469351
-1.7717853 -28.240391 -2.4755716
-1.6996052 -26.939396 -1.414641
-0.5518893 -8.5112524 -2.2853725
-0.64464974 -9.8883524 -2.2877522
-0.80422258 -12.30298 -2.3965611
-1.0260836 -15.61328 -2.478235
-1.4453107 -21.875668 -2.6918504
-2.5319958 -38.221909 -3.3513126
-1.7938938 -26.937283 -1.4148504
-0.57961988 -8.4803619 -2.2776077
-0.68370408 -9.9521437 -2.3030491
-0.83448297 -12.115989 -2.3606889
-1.0834432 -15.650988 -2.4848053
-1.5384694 -22.112085 -2.7215865
-2.6573598 -38.097561 -3.3412025
-1.89182 -26.986647 -1.4177812
-0.6040957 -8.4069929 -2.2584553
-0.72110617 -9.9866257 -2.3115969
-0.88740093 -12.259862 -2.3893104
-1.1253155 -15.471763 -2.45696
-1.6185429 -22.146177 -2.7264612
-2.7792618 -37.937035 -3.3279548
-3.8663113 -52.523617 -2.7600939
-0.63851857 -8.4722567 -2.2765725
-0.75934482 -10.028742 -2.3219447
-0.92959511 -12.248859 -2.387784
-1.1934321 -15.652889 -2.4863696
-1.6864362 -22.017677 -2.7113495
-2.9058757 -37.851612 -3.321331
-4.0542316 -52.569542 -2.7632341
-0.6699115 -8.4930868 -2.2827842
-0.79459399 -10.051423 -2.3277936
-0.96457756 -12.147684 -2.3687029
-1.2578676 -15.806378 -2.5113993
-1.7720941 -22.170265 -2.7308486
-3.050741 -38.000114 -3.3352759
-4.2304602 -52.5797 -2.7644901
-0.6947481 -8.450387 -2.2719138
-0.83015645 -10.054415 -2.329143
-1.0113301 -12.222682 -2.3839676
-1.3081293 -15.742833 -2.502013
-1.8311471 -21.944363 -2.7037935
-3.1717575 -37.930225 -3.3300464
-4.411293 -52.532764 -2.7628152
-0.72523147 -8.4594574 -2.2750194
-0.86524814 -10.051455 -2.329143
-1.0443724 -12.107585 -2.3622153
-1.3593229 -15.694875 -2.4951301
-1.9115227 -21.981344 -2.7091558
-3.2961802 -37.827621 -3.3220282
-4.6103139 -52.696117 -2.7722359
-0.75011855 -8.4049206 -2.2610431
-0.89911067 -10.034787 -2.3259938
-1.0918962 -12.162529 -2.3736639
-1.4165828 -15.717578 -2.49951
-1.9640896 -21.707642 -2.6762509
-3.4415152 -37.962715 -3.3349271
-4.7992935 -52.735397 -2.7751665
-0.77267206 -8.3291559 -2.2413731
-0.92925614 -9.9791975 -2.3138466
-1.12869 -12.098045 -2.3618338
-1.4683081 -15.679103 -2.4941914
-2.0413356 -21.716463 -2.678201
-3.5840981 -38.05759 -3.3443401
-4.8987718 -51.823544 -2.7280643
-0.80414879 -8.3514071 -2.2481024
-0.94721264 -9.801321 -2.2733555
-1.1786705 -12.17415 -2.3774803
-1.519207 -15.634559 -2.4879339
-2.1125069 -21.661789 -2.6723511
-3.7161438 -38.036919 -3.343643
-5.0956163 -51.96912 -2.7366474
-0.83406341 -8.3562374 -2.2501729
-1.0016195 -9.9996147 -2.3201451
-1.2156709 -12.115265 -2.3667948
-1.5710024 -15.601645 -2.4835539
-2.1438007 -21.215824 -2.6182413
-3.8336458 -37.873058 -3.3303952
-5.2794085 -51.974865 -2.7379036
-0.86044711 -8.3263721 -2.2429259
-1.031695 -9.9495373 -2.3093476
-1.2577512 -12.108995 -2.3664134
-1.6272959 -15.613749 -2.4863696
-2.2195032 -21.259933 -2.6245785
-3.9666555 -37.867374 -3.3310924
-5.4507895 -51.860775 -2.7328792
-0.89625102 -8.4003105 -2.2636313
-1.064891 -9.947999 -2.3097975
-1.2912005 -12.042292 -2.3542016
-1.6803323 -15.62005 -2.4882469
-2.2929697 -21.280087 -2.6279907
-4.0990605 -37.9174 -3.3366702
-5.5925817 -51.56443 -2.7182252
-0.92156696 -8.3742485 -2.2574198
-1.0978731 -9.9444132 -2.3097975
-1.3438582 -12.153073 -2.3767169
-1.7377825 -15.66544 -2.4963815
-2.3801827 -21.422312 -2.6465149
-4.2278681 -37.93132 -3.3391106
-5.7684298 -51.589268 -2.7205279
-0.94737315 -8.3538723 -2.2527611
-1.1319456 -9.9503984 -2.312047
-1.3850415 -12.156354 -2.3782434
-1.7807499 -15.581087 -2.4838667
-2.4435337 -21.347244 -2.6382277
-4.349081 -37.877502 -3.3356247
-5.9234796 -51.430965 -2.713201
-0.98315394 -8.394474 -2.2646666
-1.167725 -9.9403772 -2.3106971
-1.4305052 -12.158994 -2.3797698
-1.8417792 -15.607805 -2.4891856
-2.5198834 -21.290392 -2.6323779
-4.504353 -37.943626 -3.3429456
-6.0831723 -51.166946 -2.7004309
-1.0176219 -8.4215012 -2.272949
-1.2019495 -9.9323702 -2.3097975
-1.4797901 -12.192649 -2.3874023
-1.8968245 -15.583302 -2.4863696
-2.5776119 -21.145502 -2.6155601
-4.6522479 -38.054237 -3.3541014
-6.2463622 -50.946064 -2.6899638
-1.0458201 -8.4083118 -2.2703607
-1.2385855 -9.9298315 -2.3102474
-1.5174748 -12.148447 -2.3797698
-1.9313233 -15.41782 -2.4610271
-2.6365378 -20.98819 -2.5972795
-4.7835622 -38.025906 -3.3530555
-6.4136562 -50.840729 -2.6855676
-1.0739387 -8.3950281 -2.2677724
-1.2764633 -9.9505768 -2.3160961
-1.5578707 -12.127497 -2.3767169
-1.9720052 -15.309108 -2.4447582
-2.7179251 -21.041861 -2.6050794
-4.9070644 -37.937843 -3.3467805
-6.5700264 -50.655613 -2.6769843
-1.1027319 -8.3873987 -2.2667372
-1.3099149 -9.9363995 -2.3138466
-1.6040487 -12.151181 -2.3824413
-2.0067697 -15.161134 -2.4222317
-2.74069 -20.650484 -2.5577941
-5.0310645 -37.857285 -3.3412025
-6.7388887 -50.572979 -2.6738443
-1.1332955 -8.3930702 -2.2693255
-1.3433808 -9.9358644 -2.3147464
-1.6453998 -12.137726 -2.3809147
-2.0554392 -15.142651 -2.4203544
-2.7989826 -20.566538 -2.5485318
-5.1551003 -37.780266 -3.335973
-6.8838477 -50.384125 -2.6650517
-1.1584734 -8.3701296 -2.264149
-1.3810029 -9.9523468 -2.3196952
-1.6802363 -12.093312 -2.3732824
-2.098748 -15.066906 -2.4094038
-2.9141343 -20.867273 -2.5870426
-5.2781496 -37.747177 -3.3345788
-6.9942384 -49.893002 -2.6403491
-1.1868683 -8.3602972 -2.2625961
-1.4238706 -10.017169 -2.3358917
-1.7177315 -12.054331 -2.3667948
-2.1517682 -15.081376 -2.4128454
-2.9658906 -20.735657 -2.5719306
-5.4019585 -37.673302 -3.3296981
-7.1829329 -50.031647 -2.6489325
-1.209862 -8.3238153 -2.2537963
-1.440565 -9.8867922 -2.3066483
-1.7580965 -12.036606 -2.3645051
-2.2018268 -15.056182 -2.4100296
-2.984123 -20.355928 -2.526108
-5.5322766 -37.646332 -3.3290007
-7.3557763 -49.933853 -2.6451643
-1.2400774 -8.3174143 -2.2532787
-1.4911945 -9.9778128 -2.329143
-1.7841661 -11.909703 -2.3408449
-2.2640281 -15.094894 -2.4175384
-3.097666 -20.603975 -2.5582814
-5.6708097 -37.629742 -3.3293493
-7.4677453 -49.436539 -2.6202521
-1.2562521 -8.2192402 -2.2279146
-1.5357219 -10.02429 -2.3412907
-1.8361471 -11.971322 -2.3542016
-2.3139341 -15.051352 -2.411907
-3.1535668 -20.489052 -2.5453634
-5.8033438 -37.617592 -3.3300464
-7.6848273 -49.698345 -2.6355343
-1.2966225 -8.2990103 -2.2506905
-1.5574989 -9.945982 -2.3241944
-1.874922 -11.959349 -2.3530567
-2.363529 -15.041643 -2.4115939
-3.1958878 -20.31572 -2.5251331
-5.90944 -37.480057 -3.3195877
-7.8021998 -49.372726 -2.6196241
-1.3210909 -8.275589 -2.2455142
-1.5873929 -9.9215202 -2.3196952
-1.9176759 -11.972451 -2.3568728
-2.4127667 -15.029822 -2.4109683
-3.2888567 -20.441631 -2.5421946
-6.0191231 -37.369774 -3.3115697
-7.9391494 -49.180958 -2.6108317
-1.3546373 -8.2995262 -2.2532787
-1.6097484 -9.8409138 -2.3021491
-1.9569167 -11.950185 -2.3538198
-2.4437842 -14.890706 -2.3900061
-3.3073568 -20.108789 -2.5022216
-6.1307535 -37.234512 -3.3014593
-8.1114254 -49.156887 -2.6110411
-1.3826464 -8.2890301 -2.2517259
-1.6556556 -9.9044304 -2.3183455
-2.0089893 -12.005242 -2.3660316
-2.5084879 -14.958063 -2.4022079
-3.3436427 -19.895483 -2.4771163
-6.2334328 -37.011391 -3.2836797
-8.2796469 -49.108574 -2.6099944
-1.4097698 -8.264864 -2.2465494
-9.5273428 -55.854641 0.98902786
-1.6885775 -9.8889856 -2.3160961
-2.0417178 -11.932006 -2.3530567
-2.4921854 -14.534065 -2.3355668
-3.4023221 -19.821085 -2.469317
-6.3139486 -36.70665 -3.2585788
-8.4622984 -49.093647 -2.6108317
-1.4379473 -8.2560863 -2.2455142
-9.7244406 -55.776005 0.98825997
-1.7161012 -9.8328171 -2.3043985
-2.0941684 -11.986692 -2.3652685
-2.5766275 -14.71791 -2.3665409
-3.4742615 -19.804569 -2.4688294
-6.4165411 -36.539173 -3.2456799
-8.596921 -48.855309 -2.5997367
-1.467096 -8.2529182 -2.2460318
-9.9114437 -55.755268 0.98846942
-1.752112 -9.8462591 -2.3088977
-2.1215229 -11.898132 -2.3492403
-2.6382613 -14.781238 -2.3781171
-3.5601873 -19.906277 -2.4829662
-6.5342078 -36.461643 -3.2407992
-8.700345 -48.500191 -2.582361
-16.509474 -91.847816 -1.6289029
-1.4799902 -8.16817 -2.2242911
-10.10672 -55.724262 0.98853922
-1.7920421 -9.8707609 -2.3160961
-2.151839 -11.84081 -2.3393183
-2.6859508 -14.75056 -2.3746755
-3.6018581 -19.741405 -2.4639544
-6.6564279 -36.411175 -3.2383587
-8.8631134 -48.434162 -2.580477
-1.5236224 -8.2367764 -2.2444789
-10.308448 -55.72797 0.98923731
-1.8268405 -9.8663607 -2.316546
-2.183764 -11.771073 -2.3271067
-2.7309697 -14.692063 -2.3668537
-3.6584036 -19.662357 -2.4556675
-6.7177625 -36.03516 -3.2069826
-9.0002365 -48.185387 -2.5689631
-1.5491427 -8.2143211 -2.23982
-10.528948 -55.776279 0.99077314
-1.8593724 -9.8404503 -2.312047
-2.2241099 -11.759521 -2.3263433
-2.7667916 -14.600926 -2.3537133
-3.732193 -19.676773 -2.45908
-6.783989 -35.698315 -3.1790929
-9.1071224 -47.831909 -2.5517969
-1.5883956 -8.2717476 -2.2569022
-1.8956761 -9.8533669 -2.316546
-2.2575254 -11.723163 -2.3206191
-2.8151956 -14.591671 -2.3537133
-3.7929072 -19.6409 -2.4561551
-6.8258843 -35.280487 -3.143882
-9.2322445 -47.628895 -2.5425856
-1.6176704 -8.2759142 -2.2594905
-1.9272164 -9.8412895 -2.3151963
-2.3216891 -11.844695 -2.3461876
-2.8730843 -14.630713 -2.3615351
-3.8411708 -19.542511 -2.4454305
-6.7488317 -34.272415 -3.0560291
-9.3986378 -47.641129 -2.5448885
-1.6556584 -8.3235559 -2.2739842
-1.9476539 -9.7736874 -2.3007994
-2.3563468 -11.813827 -2.341608
-2.9390025 -14.708275 -2.3756142
-3.8650777 -19.325275 -2.419838
-6.5665264 -32.772953 -2.9242494
-9.5597162 -47.625366 -2.5457258
-1.6842355 -8.3079653 -2.2713959
-1.984238 -9.7703028 -2.3016992
-2.394938 -11.782022 -2.3370285
-2.9692402 -14.581266 -2.356842
-3.9206045 -19.218878 -2.4083822
-6.6467466 -32.553452 -2.9068182
-9.662159 -47.237793 -2.5268848
-1.6991693 -8.2339249 -2.2527611
-2.0147812 -9.7461405 -2.2976501
-2.4384363 -11.785127 -2.3393183
-3.040168 -14.667525 -2.3724854
-3.9941247 -19.236174 -2.412282
-6.7408776 -32.436417 -2.8984513
-9.7919846 -47.035618 -2.5178831
-1.7144017 -8.163662 -2.2351615
-2.0580156 -9.7829094 -2.3079977
-2.469044 -11.726594 -2.3293962
-3.0783021 -14.594973 -2.3624737
-4.0645304 -19.237652 -2.414232
-6.8425159 -32.358112 -2.8935704
-9.8915453 -46.696346 -2.5015545
-1.7622622 -8.2483101 -2.2600081
-2.0892961 -9.7623272 -2.3048484
-2.5025599 -11.68335 -2.3225272
-3.1250873 -14.564823 -2.359345
-4.1654429 -19.380547 -2.4339747
-6.9571061 -32.34182 -2.8942678
-10.073833 -46.751347 -2.5063694
-1.7988369 -8.277977 -2.2698431
-2.1333091 -9.8006744 -2.3156462
-2.5429096 -11.672625 -2.3221457
-3.1464269 -14.418729 -2.3374441
-4.2080588 -19.251471 -2.419594
-6.9809923 -31.884027 -2.8555706
-10.138642 -46.267174 -2.4822948
-1.8145664 -8.205308 -2.2517259
-2.1481345 -9.7056446 -2.2949507
-2.584825 -11.659392 -2.3213823
-3.1864066 -14.349249 -2.328058
-4.2653284 -19.192095 -2.4139881
-6.9831491 -31.369383 -2.8116443
-10.11516 -45.364174 -2.4358203
-1.8334509 -8.1555738 -2.23982
-2.1978202 -9.7604437 -2.3097975
-2.6069477 -11.567945 -2.3049729
-3.2395205 -14.351525 -2.3302481
-4.3544669 -19.259592 -2.424469
-7.0539112 -31.173803 -2.7963047
-10.326421 -45.562332 -2.4483809
-1.8524415 -8.1076908 -2.2284322
-2.235388 -9.775898 -2.3151963
-2.6832523 -11.715697 -2.3362653
-3.267674 -14.255984 -2.3164818
-4.3983226 -19.157982 -2.4135008
-7.126967 -30.993656 -2.7823598
-10.419226 -45.274807 -2.4347737
-1.9024546 -8.2012434 -2.255867
-2.2597952 -9.7262754 -2.3052983
-2.7194207 -11.695262 -2.3339758
-3.3272743 -14.286817 -2.323365
-4.4051929 -18.885395 -2.3810833
-7.1708255 -30.717621 -2.7596993
-10.468973 -44.775299 -2.4098616
-1.9168903 -8.1343813 -2.2393024
-2.2777226 -9.6580334 -2.2909014
-2.77106 -11.731554 -2.3431346
-3.3896282 -14.339145 -2.3336897
-4.429379 -18.708422 -2.3606093
-7.0260873 -29.630035 -2.6641767
-10.617398 -44.740334 -2.4098616
-1.9456524 -8.1354961 -2.2413731
-2.3032522 -9.6159115 -2.2828033
-2.7953024 -11.661207 -2.3309228
-3.4622588 -14.421344 -2.3490202
-4.5085793 -18.750748 -2.3679214
-7.1434674 -29.663441 -2.6694062
-10.769764 -44.687469 -2.4090242
-1.9923376 -8.1977673 -2.2605255
-2.346014 -9.6456842 -2.2918015
-2.8593976 -11.738627 -2.3484771
-3.4280114 -14.051607 -2.2908266
-4.6036668 -18.85639 -2.3832772
-7.2460227 -29.634451 -2.6690574
-10.811859 -44.15107 -2.3822284
-2.0047443 -8.1251163 -2.2424083
-2.3794816 -9.6294527 -2.2900016
-2.8626525 -11.576107 -2.3179479
-3.5169277 -14.20062 -2.3171074
-4.7248373 -19.0494 -2.4098444
-7.3417397 -29.578039 -2.6662683
-10.865695 -43.7099 -2.3604565
-2.0363781 -8.1311865 -2.2460318
-2.4076114 -9.6063871 -2.2864025
-2.959919 -11.792643 -2.3633604
-3.5211704 -14.018368 -2.2892623
-4.6485105 -18.479197 -2.339648
-7.1587486 -28.416203 -2.5637734
-10.883634 -43.170097 -2.3332417
-2.0581007 -8.1037931 -2.2403376
-2.4622638 -9.6810236 -2.3061984
-2.9830284 -11.719976 -2.3507669
-3.627167 -14.22995 -2.3258679
-4.7232976 -18.503248 -2.3447664
-7.4492035 -29.160606 -2.6331494
-10.96298 -42.853214 -2.3181691
-2.0844474 -8.089076 -2.2382672
-2.4833829 -9.6233101 -2.2945008
-24.582399 -95.19017 5.1523709
-3.0047748 -11.635358 -2.3358839
-3.6703889 -14.192339 -2.3218007
-4.9078007 -18.949774 -2.4035072
-7.4349833 -28.686974 -2.5927091
-11.017159 -42.447372 -2.2982814
-2.1341681 -8.1639881 -2.2610431
-2.5085685 -9.5825338 -2.2868524
-24.939329 -95.198448 5.1574998
-3.0533321 -11.655185 -2.3419898
-3.7093794 -14.139317 -2.3152304
-4.79284 -18.243269 -2.3160052
-7.328382 -27.874668 -2.52159
-11.020851 -41.860126 -2.2685544
-2.1423545 -8.0799284 -2.23982
-2.5510035 -9.6076221 -2.2949507
-25.293024 -95.191887 5.1618958
-3.072319 -11.562866 -2.3255801
-3.7475362 -14.084285 -2.3083472
-4.8503571 -18.203411 -2.3130803
-7.4184523 -27.821966 -2.5191495
-11.171023 -41.836845 -2.269392
-2.1735547 -8.0835943 -2.2429259
-2.5748992 -9.5629053 -2.2864025
-25.645927 -95.180161 5.1660829
-3.1162369 -11.565342 -2.3282516
-3.7735221 -13.985294 -2.2942681
-4.9029937 -18.146126 -2.3079619
-7.5540066 -27.938227 -2.5320487
-11.268972 -41.620232 -2.259762
-2.1997261 -8.0685024 -2.2408552
-2.6298196 -9.6328173 -2.3052983
-3.1586585 -11.56197 -2.329778
-3.8358681 -14.021577 -2.3024027
-4.9684062 -18.136559 -2.3089368
-7.5830045 -27.661894 -2.5093882
-11.33488 -41.291737 -2.2440615
-2.2340531 -8.0831203 -2.247067
-2.6582308 -9.6047974 -2.3007994
-3.1848502 -11.499787 -2.3194742
-3.8768711 -13.979549 -2.2977097
-5.0869112 -18.330391 -2.335748
-7.6677847 -27.593021 -2.5055532
-11.360079 -40.82476 -2.2208242
-2.2598038 -8.0719461 -2.2460318
-2.6963782 -9.6184464 -2.3061984
-3.211302 -11.447577 -2.3110785
-3.9109199 -13.922875 -2.2905138
-5.1449833 -18.303865 -2.3345292
-7.7214584 -27.433191 -2.4933515
-11.453137 -40.636921 -2.2126598
-2.2739108 -8.0198011 -2.2336085
-2.7447591 -9.6675653 -2.3201451
-3.2438812 -11.417979 -2.3072627
-3.9819324 -13.99723 -2.3049057
-5.1442385 -18.070959 -2.3069868
-7.7905393 -27.330795 -2.4863789
-11.414611 -39.991821 -2.1795835
-2.2962282 -7.9973626 -2.2294674
-2.7940338 -9.7183428 -2.334542
-3.3077798 -11.497723 -2.3255801
-4.0130167 -13.930799 -2.2961452
-5.2250271 -18.126284 -2.3162489
-7.870079 -27.266523 -2.4828928
-11.458435 -39.646748 -2.1628358
-2.3514409 -8.0779257 -2.2543139
-2.8230906 -9.685586 -2.329143
-3.3433011 -11.462906 -2.3210008
-4.0629411 -13.912204 -2.2955196
-5.3040605 -18.138477 -2.3203926
-7.9218402 -27.073048 -2.4679019
-11.534037 -39.366817 -2.1498566
-2.3605006 -8.0048151 -2.2361965
-2.8585374 -9.6812801 -2.330493
-28.092598 -95.082718 5.1960192
-3.3871896 -11.464344 -2.3236721
-4.1058755 -13.878993 -2.2923908
-5.3250589 -17.9771 -2.3021121
-8.077445 -27.251535 -2.4867277
-12.202134 -41.114658 -2.2476203
-2.3917449 -8.0076332 -2.2393024
-2.8945475 -9.67871 -2.3322923
-28.440929 -95.100021 5.2020898
-3.4142401 -11.409192 -2.3148949
-4.1752763 -13.93459 -2.303967
-5.4391189 -18.129526 -2.3240488
-8.080864 -26.917852 -2.4588377
-12.276585 -40.842289 -2.2350595
-2.4096134 -7.9659519 -2.229985
-2.9063041 -9.6019125 -2.3160961
-28.795877 -95.076622 5.2062769
-3.4899197 -11.515573 -2.3389368
-4.2208877 -13.918778 -2.3036542
-5.4940176 -18.094294 -2.3218548
-8.1562281 -26.828482 -2.4532597
-12.380569 -40.69817 -2.2294073
-2.4399743 -7.9708476 -2.2336085
-2.9529378 -9.6345625 -2.3264439
-29.163307 -95.09201 5.2126617
-3.5309644 -11.513321 -2.3408449
-4.2769861 -13.928509 -2.3077216
-5.5343924 -18.001007 -2.3123491
-8.2427969 -26.776995 -2.4511681
-12.516672 -40.635616 -2.2283607
-2.4623063 -7.9397092 -2.2273967
-2.9773099 -9.5944166 -2.3192453
-29.51461 -95.052582 5.216116
-3.5521679 -11.432809 -2.3271067
-4.3274217 -13.910852 -2.3074086
-5.5659246 -17.881121 -2.2994308
-8.2947159 -26.61491 -2.4389663
-2.483063 -7.9089484 -2.2211852
-3.0112855 -9.5797224 -2.3183455
-29.885145 -95.072815 5.2229195
-3.5879321 -11.407228 -2.3244352
-4.3593378 -13.842906 -2.2986481
-5.6314254 -17.8606 -2.2994308
-8.3036432 -26.319784 -2.4145625
-12.173064 -38.537663 -2.1180363
-2.5141654 -7.9112802 -2.2242911
-3.0359504 -9.5473986 -2.3129468
-30.238028 -95.034538 5.226583
-3.6247504 -11.385283 -2.3225272
-4.3974242 -13.803905 -2.2945809
-5.6785574 -17.804007 -2.2945561
-8.3142538 -26.03631 -2.3912048
-12.298362 -38.489471 -2.1176176
-2.5409777 -7.9047375 -2.2248087
-3.0549302 -9.4922218 -2.3021491
-3.6721144 -11.403099 -2.3286331
-4.4383092 -13.765911 -2.2908266
-5.7040825 -17.670729 -2.2799318
-8.38095 -25.947927 -2.385627
-12.457224 -38.522327 -2.1218047
-2.5882757 -7.9564443 -2.2418907
-3.0844247 -9.4703817 -2.2994497
-3.7033789 -11.364079 -2.3232903
-4.4973631 -13.784137 -2.2964582
-5.6708064 -17.360115 -2.2423961
-8.5049 -26.020781 -2.3950398
-2.6069736 -7.9198351 -2.2341261
-3.1217327 -9.4725142 -2.302599
-3.7417965 -11.347354 -2.3225272
-4.5182023 -13.685821 -2.282692
-5.8354073 -17.65498 -2.2831006
-8.4955835 -25.688272 -2.3671501
-2.6315503 -7.9015231 -2.2315381
-3.1486156 -9.4430733 -2.2981
-3.8031285 -11.399405 -2.3358839
-4.5772138 -13.70369 -2.2883236
-5.8963699 -17.632618 -2.2828567
-8.6054316 -25.718922 -2.3727279
-2.6640499 -7.9069357 -2.2356789
-3.168479 -9.3932476 -2.2886522
-3.8303394 -11.348857 -2.3282516
-4.6250191 -13.687629 -2.2883236
-5.9756927 -17.664579 -2.2896814
-8.6248856 -25.481134 -2.3535538
-12.168247 -35.908257 -1.9869872
-2.673562 -7.8445597 -2.2206676
-3.2071576 -9.4048223 -2.2940509
-3.8153818 -11.175632 -2.2954323
-4.6742153 -13.683433 -2.2902007
-6.0753493 -17.764879 -2.3052807
-8.7008724 -25.413174 -2.3500674
-2.7228429 -7.9032302 -2.23982
-3.2234466 -9.3456726 -2.2823534
-3.8940513 -11.283549 -2.3202376
-4.718081 -13.65583 -2.2883236
-6.1139612 -17.676027 -2.2965062
-8.5948267 -24.834396 -2.2991683
-2.7554989 -7.9082713 -2.2439611
-3.2759466 -9.3914032 -2.2963004
-3.9107702 -11.205011 -2.3068807
-4.7637644 -13.633684 -2.287385
-6.1041837 -17.450336 -2.2699387
-8.722271 -24.920837 -2.3099759
-2.7696047 -7.8603425 -2.2330909
-10.968517 -31.112125 0.57582474
-3.3074124 -9.376235 -2.2954006
-3.9577007 -11.213508 -2.3114603
-10.95396 -31.019032 2.878057
-4.8277783 -13.663535 -2.2952068
-6.1835933 -17.481323 -2.2767632
-8.8065462 -24.882729 -2.3092785
-10.957254 -30.92519 -1.7194456
-10.979427 -30.953432 -0.5732767
-2.7950816 -7.8451672 -2.2315381
-11.015274 -30.900356 0.57261348
-3.382021 -9.4821033 -2.3241944
-11.015985 -30.868269 1.7176661
-4.0113363 -11.240303 -2.3198559
-11.024645 -30.875526 2.8682952
-4.8707919 -13.633578 -2.2930167
-11.041782 -30.88946 4.0277824
-6.2653017 -17.517576 -2.2843192
-8.8570995 -24.750536 -2.2998657
-11.067838 -30.894276 -1.7198645
-11.095506 -30.937506 -0.57369554
-2.8486369 -7.9080644 -2.2522435
-11.185453 -31.034794 0.57582474
-3.4223697 -9.490406 -2.329143
-11.144001 -30.88599 1.7208064
-4.0418849 -11.202226 -2.3148949
-11.136418 -30.848099 2.8693411
-4.9136553 -13.603488 -2.2908266
-11.134693 -30.809656 4.0224199
-6.3210115 -17.480665 -2.2823691
-8.8837919 -24.554598 -2.2845263
-2.8715966 -7.885366 -2.24862
-3.4488022 -9.4600925 -2.3246443
-4.1240211 -11.306088 -2.3393183
-4.9407821 -13.530587 -2.2814405
-6.3342819 -17.327984 -2.2653077
-9.014616 -24.646935 -2.296031
-2.8837547 -7.8335967 -2.2367141
-3.4804559 -9.4443398 -2.3237445
-4.139689 -11.227154 -2.3259618
-4.9920874 -13.524377 -2.2833178
-6.3919797 -17.298319 -2.2643328
-9.1461992 -24.738655 -2.3075354
-12.240668 -33.073086 -1.8481922
-2.9353342 -7.8886638 -2.2553494
-3.5168028 -9.4412632 -2.3259938
-4.1603413 -11.162966 -2.3156581
-5.0220037 -13.4606 -2.275496
-6.4842701 -17.361444 -2.2755446
-9.1976233 -24.61326 -2.2988198
-2.9594541 -7.869328 -2.2527611
-3.5373781 -9.3961039 -2.3178957
-4.2075882 -11.170422 -2.3202376
-5.0564127 -13.409718 -2.2698643
-6.5294108 -17.297844 -2.2701821
-9.2848921 -24.584734 -2.2991683
-2.9656281 -7.8029695 -2.2367141
-3.572927 -9.3909826 -2.3196952
-4.2339811 -11.12264 -2.3133683
-5.0180807 -13.168633 -2.2320073
-6.6760693 -17.501226 -2.2999187
-9.3223438 -24.425598 -2.2873154
-2.9748724 -7.7498078 -2.2242911
-3.6061461 -9.3845406 -2.3210452
-4.2955008 -11.172674 -2.326725
-5.055335 -13.135327 -2.2291915
-6.6320157 -17.2141 -2.2650638
-9.3932552 -24.368521 -2.2848749
-11.770144 -30.50304 -1.7134794
-2.9921246 -7.7141595 -2.2170439
-3.6332395 -9.3573618 -2.3174458
-4.3451376 -11.185064 -2.3324494
-5.1484084 -13.239112 -2.2498407
-6.7230272 -17.27039 -2.2755446
-9.4305372 -24.213053 -2.2733703
-3.0317221 -7.7360444 -2.2263615
-3.6858072 -9.3954191 -2.3300431
-4.4329324 -11.294099 -2.3583994
-5.1823096 -13.189803 -2.2445219
-6.7810926 -17.241276 -2.2748132
-9.4289112 -23.961214 -2.2528017
-3.0800426 -7.7793002 -2.2418907
-3.7214532 -9.3897419 -2.3318427
-4.4824595 -11.304106 -2.3637419
-5.2414365 -13.204682 -2.2501535
-6.7767301 -17.055159 -2.2533646
-9.4550848 -23.783741 -2.2392054
-3.0813506 -7.7039289 -2.2232556
-3.755656 -9.3803139 -2.3327425
-4.520431 -11.284746 -2.3629787
-5.2713237 -13.14597 -2.2432706
-6.8391781 -17.038767 -2.2543392
-9.416276 -23.447376 -2.2106183
-12.182217 -30.304228 -1.7117
-3.0749352 -7.6107311 -2.1994443
-3.7876458 -9.3653393 -2.3322923
-4.5671592 -11.287097 -2.3667948
-5.3119888 -13.114673 -2.2410803
-6.871017 -16.946726 -2.245321
-9.6014204 -23.669151 -2.2346733
-3.12484 -7.6571879 -2.2160087
-3.819577 -9.350256 -2.3318427
-4.6139574 -11.28926 -2.3706112
-5.3427758 -13.059484 -2.234823
-6.9474325 -16.96489 -2.250927
-9.6552782 -23.565432 -2.2280493
-3.1537585 -7.6515927 -2.2175617
-3.862597 -9.3620872 -2.3381412
-4.6308651 -11.218643 -2.3591626
-5.456974 -13.206892 -2.263294
-7.0104032 -16.949707 -2.2521458
-9.7755671 -23.623636 -2.2367649
-3.178221 -7.6351857 -2.2160087
-3.8922553 -9.3413525 -2.3363416
-4.6352468 -11.119054 -2.341608
-5.4764166 -13.123956 -2.2523437
-7.060451 -16.911711 -2.2501957
-9.8856287 -23.655548 -2.2430403
-3.2214825 -7.6673498 -2.2284322
-3.9247222 -9.3319855 -2.3372414
-4.6797085 -11.121717 -2.3454244
-5.5107064 -13.083878 -2.2485893
-7.135766 -16.933937 -2.256289
-9.8958769 -23.461088 -2.2277007
-3.2182298 -7.5890393 -2.2087619
-3.9571698 -9.3225079 -2.3381412
-4.7050514 -11.079033 -2.3397002
-5.5625653 -13.085528 -2.2520308
-7.1886134 -16.894312 -2.2543392
-9.997035 -23.483137 -2.2329299
-3.2340555 -7.5528975 -2.201515
-3.9835451 -9.2943087 -2.334542
-4.7661338 -11.114867 -2.3507669
-5.5918455 -13.027913 -2.2454607
-7.2350068 -16.839935 -2.2504396
-10.036457 -23.349255 -2.2235172
-3.2443018 -7.5043254 -2.1906445
-4.0190592 -9.2875013 -2.3363416
-4.7986631 -11.08375 -2.3477139
-5.6176529 -12.963001 -2.237639
-7.2534552 -16.721699 -2.2380087
-10.13218 -23.346975 -2.2266548
-12.070969 -27.787857 -1.5877684
-3.2789767 -7.5124307 -2.1963384
-4.055356 -9.2823439 -2.3385913
-4.8365374 -11.065132 -2.3473325
-13.723372 -31.381706 2.9965885
-5.6747437 -12.97046 -2.242332
-7.2536502 -16.563536 -2.2202158
-10.256789 -23.410015 -2.2360678
-3.2810326 -7.4461365 -2.1802919
-4.0916638 -9.2770462 -2.3408406
-4.8806806 -11.060755 -2.3500037
-13.848929 -31.370064 3.0000749
-5.7032232 -12.912626 -2.2357616
-7.2961731 -16.503618 -2.2155848
-10.355369 -23.412333 -2.2397282
-3.3274181 -7.4805307 -2.1937504
-4.1303644 -9.2769489 -2.34444
-4.9104719 -11.023924 -2.3458059
-13.935637 -31.270576 2.9951942
-5.7796354 -12.963001 -2.2479637
-7.3343196 -16.434544 -2.2097349
-10.389105 -23.268703 -2.229444
-3.3432231 -7.4459596 -2.187021
-4.1563301 -9.2482548 -2.3408406
-4.9448977 -10.997764 -2.3438978
-14.047979 -31.229008 2.9958913
-5.8151202 -12.921133 -2.2442091
-7.4242582 -16.481241 -2.2194848
-10.415353 -23.099697 -2.2168934
-3.3537383 -7.3967061 -2.1761506
-4.1837564 -9.2230425 -2.3381412
-4.9867964 -10.98314 -2.344661
-14.259575 -31.391361 3.0164602
-5.8379202 -12.84578 -2.234823
-7.523644 -16.547384 -2.2319155
-10.461264 -22.987034 -2.2095723
-3.4004376 -7.4306278 -2.1896091
-4.2199683 -9.2129612 -2.3394909
-5.0365553 -10.990653 -2.3500037
-5.910727 -12.886371 -2.2454607
