# .PCD v0.7 - Point Cloud Data file format
VERSION 0.7
FIELDS x y z
SIZE 4 4 4
TYPE F F F
COUNT 1 1 1
WIDTH 1509
HEIGHT 1
VIEWPOINT 0 0 0 1 0 0 0
POINTS 1509
DATA ascii
9.5624399 -4.1320944 -2.0248652
21.303701 -9.2101059 2.0305543
10.774944 -4.6605024 -1.8593802
20.457304 -8.8526659 2.7369418
11.378276 -4.926178 -1.5223919
20.908772 -9.0566998 3.6089437
11.340625 -4.9122272 -1.0812541
20.656395 -8.9516649 4.3760138
11.315314 -4.9059553 -0.64634913
11.312727 -4.9095254 -0.21525799
6.8558736 -2.9867113 -2.0037773
11.273838 -4.9137068 0.21466459
8.0186882 -3.4966142 -2.0196106
20.605595 -8.9895182 1.1781871
9.5245647 -4.1552424 -2.0199041
21.172815 -9.2413759 2.0211415
10.783956 -4.7091532 -1.8637605
20.3426 -8.8874636 2.7257299
11.361012 -4.9658651 -1.5223919
21.061638 -9.2103586 3.640856
11.327061 -4.9533801 -1.0816028
20.545881 -8.9890881 4.3592224
11.279824 -4.9374146 -0.64530241
11.288194 -4.945775 -0.21511836
6.834796 -3.0059583 -2.0006714
11.240144 -4.9457822 0.21435046
8.0010824 -3.5222273 -2.0182607
20.570436 -9.0597801 1.1779778
9.4614925 -4.1670985 -2.0096004
21.206066 -9.3441477 2.0274169
10.745761 -4.737205 -1.860006
20.209742 -8.913558 2.7120807
11.329079 -4.9990811 -1.5204421
20.483614 -9.0428925 3.5463698
11.284184 -4.9816236 -1.0791624
20.596989 -9.0972404 4.3767772
11.247906 -4.9703002 -0.64446503
11.270862 -4.9851475 -0.21511836
6.8154325 -3.0258782 -1.9980831
11.204537 -4.9768696 0.21400142
7.9905195 -3.5509262 -2.0187106
20.593435 -9.1558714 1.181118
9.3589859 -4.1610184 -1.9909012
21.271622 -9.4618397 2.0368297
10.732769 -4.7762928 -1.8606318
20.22928 -9.0066566 2.7189052
11.2898 -5.028904 -1.5175172
20.423052 -9.1014709 3.5413637
11.241248 -5.0096278 -1.076722
20.647591 -9.2058563 4.3943315
11.204951 -4.9981413 -0.64299959
11.224176 -5.0114155 -0.21455988
6.8118811 -3.0528102 -2.0001535
11.146953 -4.9979515 0.2132335
7.9745202 -3.5772018 -2.0178108
20.707123 -9.2931213 1.1894917
9.425005 -4.229835 -2.0080738
21.300262 -9.5637817 2.0427563
10.65837 -4.7878256 -1.85062
20.101753 -9.0340862 2.705987
11.24321 -5.0552568 -1.5136174
20.329908 -9.145154 3.5307264
11.21279 -5.0439329 -1.0756762
20.511492 -9.231142 4.3721976
11.161939 -5.025744 -0.64153421
11.235785 -5.0637107 -0.21511836
6.7976632 -3.0749776 -1.9991184
11.147657 -5.0450764 0.21358256
7.9424567 -3.5961745 -2.012862
20.670919 -9.363698 1.1892824
9.4566784 -4.2837706 -2.0179961
21.313932 -9.6594582 2.0472884
10.634397 -4.8217382 -1.8493685
20.773327 -9.4231997 2.8008015
11.182111 -5.0747838 -1.5077677
20.287067 -9.2111626 3.5288491
11.173346 -5.0731578 -1.0735844
20.484507 -9.3051205 4.3733425
11.129782 -5.0580645 -0.64069682
11.163433 -5.0780602 -0.21407123
6.79216 -3.1010938 -2.0006714
11.162719 -5.0989132 0.21421084
7.9192219 -3.6190176 -2.0101628
20.627213 -9.4308138 1.1886544
9.4202414 -4.3069587 -2.0134165
21.348934 -9.7652922 2.0539122
10.66061 -4.8785582 -1.8568773
20.657284 -9.4576435 2.7895896
11.117405 -5.0922923 -1.5014304
20.861771 -9.5600739 3.6345987
11.137455 -5.1038284 -1.0718412
20.501873 -9.399477 4.384028
11.097535 -5.0902228 -0.6398595
11.109294 -5.1003108 -0.21337312
6.769012 -3.1191249 -1.9970479
11.115796 -5.1244521 0.21365236
7.9047699 -3.6458218 -2.0097127
20.235092 -9.3370705 1.1679294
9.4051504 -4.3398147 -2.0134165
21.046993 -9.7161617 2.0281141
10.659656 -4.9231949 -1.8596932
21.053024 -9.7278624 2.8475993
11.135598 -5.1477275 -1.5063052
20.738628 -9.5913773 3.6189554
11.097872 -5.132638 -1.0697495
20.390539 -9.4347105 4.3672366
11.10145 -5.138998 -0.64111555
11.095051 -5.140739 -0.21344294
6.7615857 -3.1443629 -1.9980831
11.0507 -5.1412902 0.21274483
7.8919954 -3.6733923 -2.0097127
20.195133 -9.404274 1.1675106
9.3472309 -4.3527284 -2.0042579
20.83235 -9.7054319 2.0106831
10.581531 -4.9320002 -1.8490556
20.392851 -9.5093431 2.7627783
11.08518 -5.1714597 -1.5019178
22.258749 -10.388885 3.8905256
11.040169 -5.1528077 -1.0659148
20.412626 -9.531579 4.3790665
11.065349 -5.1692643 -0.64006883
11.04081 -5.162497 -0.21274483
6.7558155 -3.1704087 -1.9996361
11.010965 -5.1696353 0.21232598
7.8685427 -3.6959476 -2.0070133
20.234488 -9.5086899 1.1716975
9.2555761 -4.3494253 -1.9878482
20.704584 -9.7340107 2.0016189
10.541013 -4.9579768 -1.8449883
20.334387 -9.568635 2.7593658
11.077838 -5.2151966 -1.5033803
20.871317 -9.8301954 3.6539967
11.029325 -5.1947093 -1.066612
20.468029 -9.6446161 4.3981476
11.007492 -5.1891217 -0.63776606
11.022721 -5.201005 -0.21274483
6.7481999 -3.1956251 -2.0006714
10.992852 -5.2080393 0.21232598
7.8661585 -3.728399 -2.0097127
20.222828 -9.5895309 1.1729535
9.3308067 -4.4246068 -2.0073106
20.843287 -9.8882055 2.0183527
10.523642 -4.9947414 -1.8449883
21.262018 -10.095949 2.8900099
11.012946 -5.2316866 -1.4970431
22.621006 -10.750922 3.9668658
10.996728 -5.2263355 -1.0652174
20.483883 -9.7396097 4.408833
10.974883 -5.2206502 -0.63692868
10.979223 -5.2274151 -0.21225616
6.7300315 -3.2158294 -1.9986008
10.974607 -5.2463794 0.21232598
7.8460641 -3.7524712 -2.0079131
20.827015 -9.9652281 1.2100074
9.3135347 -4.4563031 -2.0069292
20.920067 -10.014238 2.02916
10.477636 -5.0177937 -1.8399823
21.162201 -10.139227 2.8812351
10.991037 -5.2683811 -1.4965557
21.69276 -10.40274 3.8104312
10.982012 -5.2664123 -1.0655661
21.033886 -10.091295 4.5347667
10.981801 -5.2710271 -0.63839406
10.946489 -5.2587805 -0.21197693
6.7205057 -3.2401414 -1.9991184
10.934612 -5.274231 0.21190712
7.8065925 -3.767133 -2.0011647
19.137369 -9.239006 1.1137092
9.2890825 -4.4845185 -2.0050211
22.747246 -10.986653 2.2100954
10.417371 -5.033711 -1.8324735
20.411793 -9.8674459 2.7837398
10.929689 -5.2859716 -1.490706
21.389589 -10.349344 3.7635007
10.956388 -5.3012438 -1.0648688
20.968493 -10.150114 4.5282793
10.905812 -5.2814717 -0.63504457
10.906473 -5.2864923 -0.21155807
6.7091546 -3.2635803 -1.9991184
10.890963 -5.3001175 0.21141845
7.7933955 -3.7943599 -2.0011647
19.060112 -9.2838869 1.1110924
9.2910223 -4.5255141 -2.0088372
20.602478 -10.039598 2.005105
10.351795 -5.0466714 -1.8240261
20.327269 -9.9142714 2.7769151
10.914741 -5.3258333 -1.4911934
21.246826 -10.37195 3.7447288
10.898426 -5.3202271 -1.061034
21.033489 -10.272355 4.5500317
10.88372 -5.3177538 -0.63483518
10.862803 -5.312232 -0.21106941
6.704658 -3.2903843 -2.001189
10.847265 -5.3257632 0.21092978
7.767858 -3.8155265 -1.9980152
19.151272 -9.4111423 1.1183149
9.2469759 -4.5440636 -2.0027313
20.653131 -10.153647 2.0134718
10.394383 -5.1124167 -1.8346636
20.438591 -10.057033 2.7969017
10.881835 -5.3568854 -1.4892435
21.139606 -10.411143 3.732214
10.908386 -5.3723221 -1.063823
21.170092 -10.430749 4.58743
10.861509 -5.3539467 -0.63462585
10.8693 -5.3625045 -0.21155807
6.7000566 -3.3171964 -2.0032594
10.785603 -5.3422933 0.21009207
7.761477 -3.8460789 -1.9998149
21.600328 -10.703706 1.2633901
9.2486486 -4.5850344 -2.0065475
20.556877 -10.195579 2.0075452
10.38886 -5.1548152 -1.8368537
20.662958 -10.257181 2.8324873
10.87468 -5.3982377 -1.490706
20.917429 -10.388053 3.6990499
10.832469 -5.3819981 -1.0582449
22.336061 -11.102298 4.8484569
10.78195 -5.3615918 -0.63106704
10.855039 -5.4003 -0.21162789
6.6700072 -3.3299043 -1.9975655
10.821497 -5.4048352 0.21113922
7.7504234 -3.8726666 -2.0002646
20.682116 -10.334267 1.2116822
9.2966108 -4.6472807 -2.0202856
23.213728 -11.60937 2.2707555
10.375243 -5.1910057 -1.8374794
20.398064 -10.210136 2.8008015
10.796365 -5.4040599 -1.4824188
20.476618 -10.253925 3.62709
10.768248 -5.3946867 -1.0537128
21.091581 -10.571087 4.5859036
10.760541 -5.3955264 -0.63085771
10.794173 -5.4147477 -0.21079017
6.6641054 -3.3546107 -1.9991184
10.764223 -5.4209037 0.21037132
7.7270966 -3.893086 -1.9975653
20.121565 -10.142103 1.1809087
9.2347546 -4.6567211 -2.0103636
21.367634 -10.774852 2.0936551
10.352681 -5.222713 -1.8365408
20.505867 -10.349276 2.8203006
10.766803 -5.4363446 -1.4809563
20.282013 -10.245181 3.5989316
10.735126 -5.4250536 -1.0523185
21.037033 -10.635788 4.5820875
10.74877 -5.4366603 -0.63127637
10.735951 -5.4325304 -0.21002226
6.6500421 -3.3781385 -1.9986008
10.744282 -5.46032 0.21037132
7.7093015 -3.9196148 -1.9966656
20.052214 -10.199485 1.1790246
9.1861296 -4.67451 -2.0034947
20.713604 -10.540451 2.0333436
10.352833 -5.2704806 -1.8399823
20.333363 -10.355896 2.8017764
10.746805 -5.475771 -1.4809563
20.842697 -10.624468 3.7053072
10.693871 -5.4535012 -1.0502267
21.088848 -10.759217 4.6019316
10.700309 -5.4614921 -0.6296016
10.69816 -5.46275 -0.20967323
6.6444931 -3.4060142 -2.0006714
10.702844 -5.4887133 0.20995246
7.6792793 -3.9398386 -1.9926165
20.039572 -10.285681 1.18049
9.2850332 -4.7657151 -2.0286815
20.267185 -10.406977 1.9932518
10.315875 -5.2993636 -1.8368537
20.277615 -10.421278 2.7993391
10.701948 -5.5024152 -1.4775441
20.353924 -10.469479 3.6252129
10.685399 -5.4962649 -1.0512725
22.042707 -11.343007 4.8186908
10.670525 -5.4933248 -0.6289736
10.66029 -5.4927645 -0.20932417
6.6325631 -3.4291873 -2.0006714
10.68362 -5.5260391 0.20995246
7.6741328 -3.9710979 -1.9948659
20.113512 -10.412498 1.1869795
9.2160368 -4.7710195 -2.0172329
20.152889 -10.437342 1.9855821
10.276267 -5.3244352 -1.8330992
20.107172 -10.422567 2.7808149
10.672102 -5.534255 -1.4760816
20.159443 -10.458592 3.5970545
10.637853 -5.5188508 -1.0484836
21.954189 -11.394559 4.8080053
10.644195 -5.5268569 -0.62855488
10.637503 -5.5280976 -0.20925435
6.6239786 -3.4541047 -2.0017066
10.66072 -5.5614491 0.20988265
7.6515875 -3.9933538 -1.9926165
19.917704 -10.399448 1.1775591
9.197587 -4.8022523 -2.0168512
20.172844 -10.537144 1.99116
10.236609 -5.3492956 -1.8293447
20.060112 -10.487173 2.7793527
10.670309 -5.5806742 -1.4785191
20.087809 -10.510582 3.5907969
10.650299 -5.572576 -1.0516212
21.949066 -11.489331 4.8156376
10.64253 -5.5732446 -0.6296016
10.593346 -5.5521998 -0.20876569
6.5964928 -3.4691129 -1.9970479
10.616465 -5.5855923 0.20939396
7.6444983 -4.0236692 -1.994416
19.739901 -10.394464 1.1691853
9.1686077 -4.8279247 -2.0141799
20.174723 -10.627925 1.9949949
10.142732 -5.3453932 -1.8158915
19.949633 -10.518248 2.7691157
10.615648 -5.5993643 -1.4736443
21.396233 -11.2905 3.8317063
10.574395 -5.5799642 -1.0460433
10.608883 -5.6028981 -0.62876427
10.552685 -5.57793 -0.20834683
6.5962901 -3.4984539 -2.0006714
10.575706 -5.6113696 0.20897512
7.6304069 -4.0503287 -1.994416
19.731724 -10.478293 1.1708602
9.0840759 -4.8239889 -1.9992968
20.074158 -10.664633 1.9887197
10.029818 -5.3307033 -1.7989967
20.463152 -10.880451 2.8456492
10.582017 -5.6289272 -1.4716942
21.339252 -11.355838 3.8285775
10.551333 -5.6149688 -1.0456946
10.550478 -5.6192398 -0.62646145
10.547267 -5.6222568 -0.20862606
6.5806308 -3.5196357 -1.9996361
10.513739 -5.6256099 0.20813741
7.60076 -4.0686622 -1.9903669
19.959127 -10.68854 1.1865609
9.1346788 -4.8918157 -2.0141799
20.117596 -10.777921 1.9967381
10.068604 -5.3964758 -1.8093213
20.414553 -10.946186 2.844187
10.562304 -5.6658311 -1.4716942
21.372587 -11.469487 3.841718
10.545715 -5.6593032 -1.0470891
10.516723 -5.6484733 -0.62562406
10.527577 -5.659039 -0.20862606
6.5734057 -3.545336 -2.001189
10.483478 -5.6565771 0.20792797
7.6002302 -4.1025743 -1.9939661
22.438271 -12.117148 1.3364511
9.1140919 -4.9218054 -2.0134165
19.851971 -10.724966 1.9740776
10.159187 -5.4907603 -1.8290319
19.674252 -10.637828 2.7462039
10.531985 -5.6969991 -1.4702318
21.321997 -11.538382 3.8398409
10.490851 -5.6771154 -1.0436028
10.486405 -5.6794424 -0.62499607
10.500727 -5.6919408 -0.20848644
6.5592933 -3.5673368 -2.0006714
10.463669 -5.6931372 0.20792797
7.5584774 -4.1141729 -1.9867678
19.596357 -10.670974 1.1693947
8.9813356 -4.8906846 -1.9878482
19.765425 -10.76751 1.9691969
10.159038 -5.5365877 -1.8324735
19.558569 -10.663677 2.7352357
10.473695 -5.7128158 -1.4648696
21.697756 -11.839827 3.9149294
10.474468 -5.7156091 -1.0439515
10.459505 -5.712183 -0.6245774
10.438683 -5.705543 -0.20764874
6.5620461 -3.5985713 -2.0053301
10.429707 -5.7219334 0.20764874
7.5782371 -4.1592841 -1.9957658
19.558989 -10.739313 1.1693947
9.0657425 -4.9777551 -2.0103636
19.691044 -10.816294 1.9655364
10.099833 -5.5501342 -1.8252774
19.58559 -10.767268 2.7442541
10.45369 -5.749341 -1.4648696
21.175158 -11.650769 3.8279519
10.423032 -5.734849 -1.0408138
10.411509 -5.7332439 -0.62290263
10.425708 -5.7458067 -0.20778835
6.5376096 -3.6149118 -2.0017066
10.381672 -5.7428169 0.20709024
7.5568519 -4.1819372 -1.9939661
19.542353 -10.819129 1.1706508
9.0208311 -4.9941549 -2.0042579
19.560793 -10.833801 1.9562978
10.092492 -5.5920572 -1.8274676
20.846565 -11.555439 2.9265707
10.381477 -5.7569156 -1.4575576
21.286371 -11.808943 3.8554845
10.37159 -5.7537994 -1.0376762
10.370479 -5.7579184 -0.62164652
10.377621 -5.7666235 -0.20722988
6.5384507 -3.6452358 -2.0058477
10.365057 -5.7809701 0.20716007
7.4724355 -4.1693592 -1.9755201
19.563761 -10.920377 1.1742096
8.9999142 -5.0236998 -2.0034947
19.321072 -10.789332 1.9360776
10.022901 -5.5993137 -1.8183944
22.826584 -12.757345 3.2107699
10.364783 -5.7950563 -1.458045
21.217432 -11.867744 3.8504782
10.35492 -5.791914 -1.0380249
10.343346 -5.7901807 -0.62122786
10.350449 -5.7989035 -0.20709024
6.579576 -3.6983283 -2.0224121
10.320412 -5.8033934 0.2066714
7.507091 -4.2231259 -1.9885672
20.228704 -11.384338 1.2164971
8.8625593 -4.9876833 -1.9767814
19.359682 -10.899719 1.9437474
10.032554 -5.6507463 -1.8237133
19.997513 -11.268019 2.8183508
10.323741 -5.8195028 -1.4551201
21.189644 -11.949498 3.8529813
10.313813 -5.8162799 -1.0359331
10.312634 -5.8203597 -0.62059987
10.302286 -5.819262 -0.20653178
6.59688 -3.7384167 -2.0317297
10.300091 -5.8393831 0.2066714
7.4939985 -4.2502661 -1.9890171
20.20274 -11.462766 1.2173344
8.9065657 -5.0534673 -1.9905195
19.473995 -11.053779 1.9590867
9.9200077 -5.633059 -1.8068182
19.895924 -11.302457 2.809576
10.317171 -5.8633504 -1.45707
21.137503 -12.017533 3.8511043
10.293448 -5.8522458 -1.0359331
10.288782 -5.8543463 -0.62039047
10.285386 -5.8571682 -0.20660159
6.5787578 -3.7585466 -2.0301766
10.303951 -5.8891931 0.20716007
7.4757333 -4.2744646 -1.9881173
19.760393 -11.303147 1.1930506
8.9246597 -5.1049972 -1.9985336
19.331535 -11.062315 1.9486281
9.9825735 -5.7147603 -1.821836
20.462702 -11.719099 2.8953722
10.296641 -5.8993282 -1.45707
21.088566 -12.087313 3.8498526
10.262586 -5.8821959 -1.0348873
10.25096 -5.8802881 -0.61934376
10.251004 -5.8850694 -0.20632236
6.5823379 -3.7911291 -2.0353529
10.241747 -5.9011645 0.20632236
7.4708972 -4.3063731 -1.9908168
19.743567 -11.380583 1.1943066
8.8676682 -5.1135616 -1.9897563
19.275545 -11.119771 1.946885
9.9403219 -5.7367353 -1.8177687
19.974693 -11.532394 2.832
10.255358 -5.9233203 -1.4541451
20.928629 -12.088021 3.8279519
10.24199 -5.9179835 -1.0348873
10.23383 -5.9180341 -0.61955309
10.210662 -5.9070144 -0.20590349
6.5724063 -3.8160231 -2.0363884
10.194453 -5.9190297 0.20576388
7.4447799 -4.3242722 -1.9876676
19.617376 -11.39926 1.1890731
8.9244471 -5.1878982 -2.0065475
20.779812 -12.084429 2.1030681
9.9246597 -5.7716517 -1.8183944
19.714998 -11.469796 2.8005579
10.232227 -5.9552984 -1.4536576
20.985317 -12.21865 3.8460982
10.214384 -5.9496875 -1.0341899
10.183087 -5.9338388 -0.61766905
10.18307 -5.938591 -0.20576388
6.5930638 -3.8573081 -2.046741
10.166826 -5.9505391 0.20562425
7.427959 -4.3492484 -1.9872177
19.542999 -11.447476 1.1869795
8.7547312 -5.1281576 -1.9722018
20.598669 -12.070673 2.0887744
9.87889 -5.791276 -1.8137014
19.743334 -11.578712 2.8103073
10.160012 -5.960844 -1.4463456
10.172936 -5.9732003 -1.0320983
10.158868 -5.9673243 -0.61745965
10.162279 -5.9741001 -0.20576388
6.5905294 -3.8883181 -2.0503645
10.152883 -5.9900556 0.20576388
7.3808451 -4.3563299 -1.9786695
19.303419 -11.397828 1.1748377
8.7324963 -5.1582146 -1.9714386
20.5783 -12.160279 2.0912149
9.8422928 -5.818397 -1.8108855
19.969374 -11.80515 2.8483305
10.135726 -5.9942513 -1.445858
20.98451 -12.415149 3.8617415
10.158882 -6.0127325 -1.0327955
10.126617 -5.9984112 -0.6168316
10.106957 -5.9891481 -0.20506579
6.5569911 -3.8994505 -2.044153
10.075866 -5.9945107 0.20464693
7.3564563 -4.3783698 -1.9764199
19.311573 -11.493742 1.1777685
8.8780651 -5.2860904 -2.0084558
21.288895 -12.680656 2.1679118
9.8473778 -5.8678856 -1.8155787
20.282339 -12.090701 2.899272
10.113688 -6.0313611 -1.445858
21.008909 -12.528794 3.8742564
10.079657 -6.0134506 -1.0268689
10.074751 -6.0152941 -0.61494756
10.082555 -6.0223403 -0.20499596
6.5632234 -3.9342337 -2.0503645
10.03878 -6.0176082 0.20429787
7.3201699 -4.3897119 -1.9705712
19.285034 -11.569302 1.1786058
8.8797588 -5.3291717 -2.0130351
21.264997 -12.7672 2.1700037
9.7550402 -5.8567863 -1.8021252
20.276169 -12.178336 2.9041467
10.083423 -6.0587316 -1.4443955
10.062019 -6.050652 -1.0272175
10.071862 -6.0589652 -0.61599427
10.068325 -6.0616241 -0.20513558
6.5501409 -3.9559762 -2.0503645
10.000598 -6.0422726 0.20394883
7.3314872 -4.4313664 -1.9777697
8.8519583 -5.3524933 -2.0107453
21.236183 -12.845897 2.1713982
9.7987585 -5.9296646 -1.8140143
20.250517 -12.259318 2.906584
10.048629 -6.0856657 -1.4424456
20.866867 -12.642402 3.8642447
10.028267 -6.0757265 -1.0258231
9.982338 -6.0526638 -0.61180741
10.030008 -6.0863585 -0.20478654
6.547843 -3.9858482 -2.053988
9.958951 -6.0646639 0.20352997
7.2960033 -4.4447646 -1.9723709
8.7376633 -5.3251224 -1.9889932
9.7948647 -5.9741187 -1.817143
20.360111 -12.422987 2.9285204
9.9934359 -6.1000195 -1.4375709
9.9967947 -6.1044655 -1.0247772
9.9475145 -6.0791407 -0.61097002
10.005291 -6.119246 -0.20471673
6.5223637 -4.0016079 -2.0503645
9.927495 -6.0931139 0.20332053
7.3136573 -4.4905987 -1.9813689
8.4965296 -5.2189264 -1.938238
9.8580933 -6.0599971 -1.8327864
20.397787 -12.543896 2.9402201
9.9619379 -6.1286254 -1.4361085
9.9573889 -6.1306186 -1.0230341
9.9568443 -6.1326804 -0.61285412
9.9191828 -6.1142607 -0.20339034
6.5224395 -4.0346336 -2.0550234
9.9129677 -6.1319375 0.20346016
7.2598233 -4.4925151 -1.9710211
8.7143555 -5.3968148 -1.9924276
9.8693972 -6.1169009 -1.8390437
9.9236135 -6.1529007 -1.4336711
9.9054546 -6.1464305 -1.0198965
9.9003658 -6.1480594 -0.61076069
9.9113684 -6.1572895 -0.20366959
6.5066762 -4.0563545 -2.0545056
9.8870325 -6.1661129 0.20339034
7.2234693 -4.5067158 -1.9656224
8.8103828 -5.4989257 -2.0187593
9.8245296 -6.1366634 -1.8346636
9.8976288 -6.1871271 -1.4331836
9.8940754 -6.1873078 -1.0209423
9.8720722 -6.1783428 -0.61034197
9.8626966 -6.174871 -0.20311111
6.5055642 -4.0872641 -2.0586467
9.8563709 -6.1924825 0.20318091
7.2431326 -4.5524211 -1.9750704
8.6731434 -5.45543 -1.9916644
9.7673435 -6.1460638 -1.8277806
9.8736973 -6.2177997 -1.4326961
9.8488188 -6.206934 -1.018502
9.8312559 -6.1982632 -0.60908592
9.8376999 -6.2071261 -0.2030413
6.4887099 -4.1067486 -2.0576115
9.8178005 -6.2161531 0.20283188
7.194272 -4.5568218 -1.9660723
8.46595 -5.3643689 -1.9481598
9.6524086 -6.1208797 -1.8102598
9.8318205 -6.2394619 -1.4297712
9.8180895 -6.2331529 -1.0174562
9.7960739 -6.2239747 -0.60824853
9.8058481 -6.2349906 -0.20283188
6.4759636 -4.1304121 -2.0581291
9.8128996 -6.2611418 0.20318091
7.1733928 -4.5787606 -1.9647225
8.5530739 -5.4615088 -1.9725834
9.7158747 -6.2087836 -1.8262162
9.8066368 -6.271605 -1.4292837
9.7929153 -6.2652397 -1.0171075
9.7641964 -6.2516708 -0.60762054
9.7638197 -6.2562346 -0.20241301
6.4485049 -4.1446366 -2.053988
9.767436 -6.2802162 0.20269224
7.1557279 -4.6027184 -1.9642726
8.6165075 -5.5444503 -1.9916644
9.6958046 -6.2437296 -1.826529
9.7913589 -6.3100996 -1.4302588
9.7475424 -6.2842703 -1.0146672
9.7423143 -6.2857151 -0.60762054
9.748642 -6.2946186 -0.20255263
6.4356198 -4.1681709 -2.0545056
9.7387428 -6.3099236 0.20255263
7.0791125 -4.5884519 -1.9476261
8.6662855 -5.6193538 -2.0076923
9.6640072 -6.2710848 -1.8246518
9.7526236 -6.3334284 -1.4278214
9.7121811 -6.3095737 -1.0132726
9.7069187 -6.3109751 -0.60678315
9.7132006 -6.3198838 -0.20227338
6.4339738 -4.1990566 -2.0586467
9.6831684 -6.3220153 0.20185454
7.0124745 -4.5800996 -1.9336793
8.6268959 -5.6366849 -2.0031128
9.6189127 -6.2896461 -1.8202716
9.7204905 -6.3609104 -1.4263589
9.6867628 -6.3412547 -1.0129241
9.6681223 -6.3338747 -0.60573643
9.6609802 -6.3340158 -0.20164511
6.4095926 -4.2151208 -2.055541
9.6643829 -6.3579755 0.20192434
7.0062122 -4.6109776 -1.9363787
8.6071672 -5.6667638 -2.0031128
9.6166935 -6.336226 -1.8240261
9.6816559 -6.3838758 -1.4239216
9.6645689 -6.3750296 -1.0129241
9.6426201 -6.3653827 -0.6055271
9.6388111 -6.3677006 -0.20164511
6.3980608 -4.2396035 -2.0565763
9.6154623 -6.3739939 0.20136586
7.0582848 -4.6806397 -1.9552746
8.5906076 -5.6989446 -2.0038762
9.5484371 -6.3391623 -1.8152657
9.6526985 -6.4132371 -1.4229466
9.6256638 -6.3976979 -1.0111809
9.6070385 -6.3901548 -0.60468972
9.6165247 -6.4013076 -0.20164511
6.3623366 -4.2479653 -2.0498469
9.6131086 -6.4208469 0.20178472
6.9949145 -4.6738524 -1.9422275
8.505374 -5.6852565 -1.9886116
9.5623732 -6.3966179 -1.8221489
9.6170568 -6.4380589 -1.4209967
9.5900288 -6.4223886 -1.0097864
9.5747194 -6.4169788 -0.60406166
9.5775137 -6.4236965 -0.20129606
6.3314404 -4.2593651 -2.0446706
9.5707293 -6.4409661 0.20136586
6.9834065 -4.7015057 -1.9435771
8.5489836 -5.7576818 -2.0034947
9.4892063 -6.3957319 -1.8124499
9.5813599 -6.4627085 -1.4190468
9.5609465 -6.4513674 -1.0090892
9.5489511 -6.4481263 -0.60385227
9.5285225 -6.4391751 -0.20073758
6.3421192 -4.2987828 -2.0529528
9.5150862 -6.45189 0.20066777
6.9508257 -4.7149138 -1.9390782
8.5320826 -5.7896934 -2.0042579
9.4700918 -6.4310365 -1.8130757
9.5423241 -6.4849567 -1.4166094
9.5317774 -6.4802217 -1.008392
9.4966621 -6.4611964 -0.60196823
9.5324345 -6.4904037 -0.20129606
6.3222895 -4.317626 -2.0513999
9.4892054 -6.4828081 0.20059796
6.942369 -4.7446456 -1.9413276
8.4842682 -5.8006039 -1.9977702
9.4296532 -6.4517846 -1.8096341
9.4999743 -6.5047674 -1.4136845
9.4893751 -6.4999437 -1.0063002
9.4575768 -6.4830136 -0.60092151
9.4866352 -6.5078025 -0.20080739
6.2960391 -4.3320026 -2.0477762
9.4500465 -6.5045547 0.20024893
6.9402108 -4.7787976 -1.9453768
8.4461842 -5.8179336 -1.9935726
9.410327 -6.4869022 -1.8102598
9.4543343 -6.5221081 -1.4102721
9.456789 -6.526238 -1.0052543
9.4447489 -6.5227976 -0.60154951
9.437541 -6.5226851 -0.20024893
6.2713537 -4.3473506 -2.0446706
9.4470015 -6.5511756 0.20066777
6.976326 -4.8396497 -1.9602236
8.4371147 -5.855216 -1.9962438
9.3681564 -6.5061893 -1.8065054
9.4445505 -6.5641327 -1.412222
9.4110489 -6.5432854 -1.0028139
9.4153662 -6.5511632 -0.6011309
9.4015856 -6.5464468 -0.19996966
6.2640586 -4.3747458 -2.0472586
9.4044056 -6.5703697 0.20024893
6.9737649 -4.8740191 -1.9642726
8.3957081 -5.8700075 -1.9912828
9.2676992 -6.4844928 -1.7914877
9.4150753 -6.5925069 -1.4112471
9.3783598 -6.5692377 -1.0017681
9.3760862 -6.5725245 -0.60008413
9.3754034 -6.5769281 -0.19989987
6.2503295 -4.3976965 -2.0477762
9.3814144 -6.6031566 0.20024893
6.9630833 -4.9028201 -1.9660723
8.3880072 -5.9083223 -1.9943358
9.3112049 -6.5634661 -1.8043153
9.3692961 -6.6093121 -1.4078349
9.3521156 -6.5996361 -1.0014194
9.32372 -6.5844741 -0.59820002
9.3458557 -6.6049976 -0.19976024
6.2317891 -4.417253 -2.046741
9.3387327 -6.621984 0.19983006
7.0317574 -4.9879799 -1.9903669
8.3721342 -5.9409742 -1.9954805
9.1722755 -6.5135794 -1.7817887
9.3526421 -6.646575 -1.4088097
9.322526 -6.6276236 -1.0007222
9.3136978 -6.6262431 -0.59903741
9.290164 -6.6143851 -0.19906214
6.2131877 -4.4367337 -2.0457058
9.328577 -6.6638408 0.20010929
6.9714947 -4.9819036 -1.9782196
8.3337784 -5.957603 -1.9912828
9.2362375 -6.6076212 -1.7986836
9.3100138 -6.6653147 -1.4058849
9.286376 -6.6508446 -0.99932772
9.2937593 -6.6610408 -0.59924674
9.2572699 -6.6397805 -0.19885273
6.1819801 -4.4471135 -2.0405295
9.3052597 -6.696362 0.20010929
6.963551 -5.0130396 -1.980919
8.247613 -5.9396176 -1.9756364
9.1986942 -6.629427 -1.7958679
9.2770309 -6.6908054 -1.4044224
9.2631044 -6.6832194 -0.99932772
9.2477808 -6.677073 -0.59778136
9.2340355 -6.6720543 -0.19885273
6.1632905 -4.4663987 -2.0394943
9.2462101 -6.7029824 0.1993414
7.0106897 -5.0842233 -1.999365
8.2713251 -6.0006514 -1.9863218
9.1691027 -6.6568537 -1.7946163
9.2504072 -6.7208138 -1.403935
9.213933 -6.6967707 -0.99653876
9.2405691 -6.7210608 -0.59882808
9.2106895 -6.7042465 -0.19885273
6.1648259 -4.5004148 -2.0451882
9.2227564 -6.7352166 0.1993414
6.9535608 -5.0799241 -1.9881173
8.2186279 -6.006319 -1.9786894
9.1521883 -6.6934848 -1.7958679
9.2268906 -6.7530632 -1.403935
9.2001448 -6.7359538 -0.99758458
9.1880512 -6.7320275 -0.59694397
9.1840048 -6.7339916 -0.19878291
6.1366286 -4.5127501 -2.0410471
9.1637516 -6.7412992 0.19857347
6.9122438 -5.0868402 -1.9813689
8.2118397 -6.0454459 -1.982124
9.1176348 -6.7171893 -1.7936778
9.193676 -6.778161 -1.4024725
9.1733694 -6.7656631 -0.99723595
9.1516418 -6.754571 -0.59610659
9.1475763 -6.7565045 -0.19850367
6.1286006 -4.5398936 -2.0436354
9.1369505 -6.7708654 0.19850367
6.8725281 -5.0946898 -1.9750704
8.1891108 -6.0729036 -1.9817424
9.0957193 -6.7501516 -1.7939906
9.1572094 -6.8007436 -1.4005226
9.1305046 -6.7833848 -0.99514425
9.1215963 -6.7817087 -0.59568793
9.107892 -6.7764573 -0.19815461
6.1080709 -4.5577927 -2.0420823
9.1132612 -6.8027172 0.19850367
6.8609471 -5.1233125 -1.9768698
8.1631432 -6.0979276 -1.9805974
9.0768471 -6.7854085 -1.7949294
9.1238775 -6.8255324 -1.3990601
9.1067715 -6.8152137 -0.99514425
9.0914736 -6.8087187 -0.5952692
9.0905828 -6.813005 -0.19829424
6.0983009 -4.5837288 -2.044153
9.0638876 -6.8152595 0.19794521
6.81499 -5.1261454 -1.9687717
8.11514 -6.106318 -1.97411
9.015234 -6.7885332 -1.7874204
9.0968266 -6.8549495 -1.3985727
9.0733805 -6.8397655 -0.99409837
9.0612726 -6.8356004 -0.59485054
9.0475931 -6.8302374 -0.19787538
6.0945854 -4.6143169 -2.0482941
9.0400419 -6.8468566 0.19794521
6.7318182 -5.1004739 -1.9498757
8.0890818 -6.1310506 -1.972965
8.9363976 -6.7781801 -1.7764701
9.0665169 -6.8818612 -1.3975978
9.0431032 -6.8665767 -0.99340117
9.0119133 -6.8478541 -0.59317577
9.0173302 -6.8569374 -0.19773577
6.0738325 -4.6320486 -2.046741
9.0001888 -6.866241 0.19759615
6.6736956 -5.0932031 -1.9381782
8.061389 -6.1544847 -1.9714386
8.9064035 -6.8045354 -1.7752185
9.0140543 -6.8917642 -1.3932104
9.015914 -6.8956809 -0.99305254
8.9942999 -6.8841267 -0.59359449
8.9996891 -6.8932352 -0.19787538
6.0499668 -4.6473374 -2.044153
8.9634809 -6.8878689 0.19731691
6.5909863 -5.0665855 -1.9192824
8.0149555 -6.1634374 -1.9653327
51.315647 -39.475582 5.6642518
8.9186039 -6.8632908 -1.7824146
8.9742155 -6.9110761 -1.3907731
8.9665346 -6.9076548 -0.99026352
8.9480696 -6.8984075 -0.59212905
8.9597406 -6.9123926 -0.19752634
6.013845 -4.6530595 -2.0374236
8.9330578 -6.9142189 0.19717729
6.7181001 -5.2017088 -1.9615731
7.9964967 -6.1937814 -1.966096
8.9351845 -6.9258456 -1.790549
8.9437618 -6.9374928 -1.389798
8.9455156 -6.9413538 -0.99061215
8.9334002 -6.9369497 -0.59275711
8.9292412 -6.9387178 -0.19738671
6.0006137 -4.6763983 -2.0384588
8.8930979 -6.933064 0.19682825
6.6722412 -5.2035556 -1.9534749
7.9608965 -6.2107882 -1.9626614
8.9000549 -6.948483 -1.7883589
8.9320049 -6.9784474 -1.391748
8.8961153 -6.9529076 -0.98782319
8.8839607 -6.9484043 -0.59108233
8.8892193 -6.95752 -0.19703768
5.9781752 -4.6925445 -2.0363884
8.8656969 -6.9615941 0.19675842
6.6862192 -5.2520938 -1.9629229
7.9484301 -6.2458172 -1.9649512
8.8540077 -6.9624133 -1.7839788
8.8795118 -6.9874873 -1.3873608
8.8655281 -6.9789886 -0.98712587
8.8533754 -6.9744287 -0.59066367
8.8711596 -6.9934587 -0.19717729
5.9526663 -4.7061944 -2.0332825
8.8319311 -6.9850564 0.196549
6.4706984 -5.1194243 -1.9048855
7.9819999 -6.3173876 -1.9786894
8.8451366 -7.0055423 -1.7871076
8.8457327 -7.0110407 -1.3858984
8.8442364 -7.0123687 -0.98747456
8.8227186 -7.0003257 -0.59024501
8.8541861 -7.0278106 -0.19731691
5.9422469 -4.7317586 -2.0353529
8.8337488 -7.034236 0.19710748
6.4643555 -5.1493535 -1.9080348
7.9430127 -6.3317494 -1.9744916
8.8033228 -7.0200562 -1.7833531
8.8286409 -7.0452886 -1.3868732
8.8072491 -7.0332513 -0.98607999
8.7994556 -7.0295439 -0.59024501
8.7796173 -7.0187178 -0.19619995
5.8993931 -4.7296863 -2.0260355
8.7841816 -7.045011 0.196549
6.5421033 -5.2487154 -1.9363787
7.9005365 -6.3408508 -1.969149
8.7633629 -7.038373 -1.7802243
8.7792377 -7.0561662 -1.3829734
8.7671204 -7.0514646 -0.98433697
8.7593031 -7.0476966 -0.58919823
8.7675247 -7.0593538 -0.19647919
5.8940401 -4.7609887 -2.0301766
8.7346468 -7.0555263 0.19599053
6.5616341 -5.3021388 -1.9476261
7.9062486 -6.3932199 -1.9763998
8.7313652 -7.0654745 -1.778973
8.7792406 -7.1067519 -1.3868732
8.7300663 -7.071991 -0.98294246
8.7396202 -7.084784 -0.58961695
8.7304039 -7.0798402 -0.19619995
5.8848786 -4.7876291 -2.0327649
8.7149324 -7.0925412 0.19613016
6.6131859 -5.3839798 -1.9687717
7.8854055 -6.4220176 -1.9767814
8.7097101 -7.0984054 -1.7795987
8.7346745 -7.1238265 -1.3839484
8.7145901 -7.1099792 -0.98398834
8.6900816 -7.0950375 -0.58794218
8.6982021 -7.1067295 -0.19606033
5.8576703 -4.7995715 -2.0291414
8.6653767 -7.1026368 0.19557166
6.5431156 -5.3650193 -1.9534749
7.829546 -6.4221125 -1.9683858
8.6879339 -7.1312714 -1.7802243
8.703619 -7.1492324 -1.3829734
8.6835604 -7.1352959 -0.98329109
8.6529217 -7.11518 -0.5871048
8.6486359 -7.1167192 -0.19550186
5.8408809 -4.8199892 -2.0291414
8.6343632 -7.1277494 0.19543205
6.5829501 -5.4362206 -1.9710211
7.7934585 -6.4381499 -1.9649512
8.6568985 -7.1565194 -1.778973
8.6694326 -7.1719785 -1.381511
8.6586008 -7.1655636 -0.98329109
8.6188021 -7.1376967 -0.58647674
8.6299009 -7.1519685 -0.19564149
5.822535 -4.8391137 -2.0286238
8.6278811 -7.1731853 0.19585089
6.568429 -5.4629049 -1.9723709
7.7347174 -6.4351802 -1.9557924
33.085632 -27.536572 3.7659996
8.610611 -7.1689992 -1.7745929
8.6321449 -7.1920319 -1.3795611
35.721794 -29.772835 7.3652482
8.6121101 -7.1778851 -0.9808507
8.6030378 -7.175415 -0.5871048
8.5864611 -7.1666727 -0.19522263
5.7996821 -4.8544493 -2.0265532
8.5813246 -7.185286 0.19536224
6.543344 -5.4807944 -1.9705712
34.111187 -28.582123 2.3322999
7.7799234 -6.5188804 -1.972965
33.254993 -27.874592 3.7963297
8.5764523 -7.1913977 -1.7727156
8.6130686 -7.2272224 -1.380536
35.581333 -29.866865 7.3577394
8.5717411 -7.1950936 -0.97910756
8.5871143 -7.21311 -0.58773285
8.5644531 -7.1991749 -0.19529243
5.776794 -4.8696837 -2.0244827
8.5623064 -7.2203536 0.19550186
6.5226831 -5.5023446 -1.9701214
34.157738 -28.824675 2.3423481
7.7586217 -6.5472641 -1.9733468
33.413258 -28.206419 3.825614
8.5392237 -7.2110958 -1.7702127
8.5665617 -7.239306 -1.3771237
8.5404873 -7.2198262 -0.97841036
8.5283375 -7.2146616 -0.58543009
8.5484285 -7.2367792 -0.19550186
5.7685962 -4.8973203 -2.0275886
8.5248575 -7.2398424 0.19522263
6.5420504 -5.5578842 -1.9818188
33.344669 -28.338421 2.2933619
7.7267442 -6.5666785 -1.9710571
8.529048 -7.2536554 -1.7733413
8.5291462 -7.258872 -1.3751738
34.788364 -29.617695 7.2363467
8.5182667 -7.2521777 -0.97875899
8.4939795 -7.2366152 -0.58480203
8.5078974 -7.2536011 -0.1951528
5.7544026 -4.9199371 -2.0286238
8.4873753 -7.2591567 0.19494337
6.4722652 -5.537612 -1.9665221
34.298599 -29.355946 2.3660042
7.690351 -6.5821204 -1.9676224
8.509676 -7.2885237 -1.7745929
8.4977274 -7.2834325 -1.3741989
34.501816 -29.582081 7.1981764
8.4959249 -7.284461 -0.97910756
8.4777622 -7.2740245 -0.58543009
8.4825268 -7.2832537 -0.1951528
5.7240186 -4.9286494 -2.0239649
8.4347134 -7.2652488 0.19431511
6.4396086 -5.5487223 -1.9624729
33.13694 -28.562693 2.2927339
7.6896348 -6.6281519 -1.9733468
32.729778 -28.221693 3.7809906
8.4692259 -7.3052816 -1.7714641
8.4722519 -7.3130507 -1.3741989
34.491039 -29.782375 7.2175741
8.4523506 -7.2984481 -0.97701591
8.4372072 -7.2905135 -0.58438331
8.4267988 -7.2866602 -0.19445471
5.6951027 -4.9384751 -2.019824
8.4093008 -7.2946477 0.19431511
6.3892922 -5.5443454 -1.953025
7.6575556 -6.6472311 -1.9710571
32.610004 -28.31748 3.7785501
8.44069 -7.3322096 -1.7708384
34.50655 -29.985512 5.6130586
8.4406805 -7.3373709 -1.3732239
34.512085 -30.011475 7.2438555
8.411788 -7.3148332 -0.97527272
8.4147196 -7.3225431 -0.58459264
8.4043283 -7.3186584 -0.19452453
5.6807404 -4.9608655 -2.0208592
8.3687267 -7.3108001 0.19396605
6.4051175 -5.5973907 -1.9638227
34.440414 -30.107861 2.3974056
7.6313486 -6.6713362 -1.9702938
32.57695 -28.488844 3.7862196
8.4120712 -7.3590269 -1.7702127
34.816959 -30.469212 5.6808181
8.4299517 -7.3798656 -1.3756613
35.170959 -30.80069 7.4046702
8.3892012 -7.3467765 -0.97562134
8.3770914 -7.3413405 -0.58375531
8.3757238 -7.3453126 -0.19445471
5.676445 -4.992147 -2.0255179
8.3491621 -7.3452516 0.19410567
6.3358011 -5.5759411 -1.9485261
33.105858 -29.145691 2.3115747
7.6315928 -6.7186913 -1.9763998
32.423481 -28.554985 3.7799447
8.3655815 -7.3700633 -1.7658324
34.823574 -30.69031 5.6993423
8.3654251 -7.3751135 -1.369324
35.116566 -30.970308 7.4159331
8.3605156 -7.3733797 -0.97527272
8.3394346 -7.3599648 -0.58291793
8.3350439 -7.3612676 -0.19410567
5.6474152 -5.0016842 -2.0213768
8.3174829 -7.3690467 0.19396605
6.3498421 -5.6277514 -1.9588737
32.630302 -28.929823 2.2854068
7.5728374 -6.7140303 -1.9672408
32.266964 -28.617754 3.7733207
8.3427601 -7.4018426 -1.7664583
35.244778 -31.280777 5.7861128
8.3247852 -7.3910904 -1.3668866
34.585835 -30.717537 7.3264527
8.312583 -7.3854465 -0.97283238
8.3047361 -7.3810682 -0.58228987
8.2883787 -7.3717113 -0.193617
5.6131887 -5.0082021 -2.0156829
8.2857428 -7.3927097 0.19382644
6.4842691 -5.7874312 -2.0065634
37.695877 -33.656677 2.6484091
7.4705729 -6.6724281 -1.947015
8.3096828 -7.4271045 -1.7652067
34.540386 -30.871824 5.6881304
8.2930164 -7.4148121 -1.3659117
34.348831 -30.722187 7.2989202
8.271904 -7.4011326 -0.97108924
8.2686987 -7.4034638 -0.58166188
8.271534 -7.4086041 -0.19382644
5.6014204 -5.0329299 -2.0177534
8.2466927 -7.4123344 0.19354719
6.3470855 -5.706923 -1.9705712
7.5143814 -6.7588573 -1.9645696
32.333878 -29.093124 3.8053939
8.2690248 -7.4428501 -1.762078
34.397499 -30.971647 5.6832557
8.2598839 -7.4398432 -1.3649368
8.240099 -7.4246278 -0.97039205
8.2517052 -7.4403076 -0.58228987
8.2443256 -7.4388704 -0.19382644
5.5881152 -5.0563407 -2.0193064
8.2207689 -7.4410758 0.19354719
6.3141251 -5.7172709 -1.9665221
7.5198445 -6.8114071 -1.9722018
32.548088 -29.492105 3.8426969
8.2400665 -7.4690161 -1.7614522
36.003857 -32.646301 5.9674549
8.2309227 -7.4659629 -1.3644493
8.2200336 -7.4587007 -0.97108924
8.2168121 -7.461009 -0.58166188
8.2242279 -7.4729819 -0.19396605
5.5847111 -5.0888276 -2.0244827
8.2124786 -7.4858909 0.19396605
6.2466102 -5.6959472 -1.9516754
31.433056 -28.672155 2.2297213
7.5134277 -6.8534913 -1.9767814
8.2110271 -7.4950705 -1.7608266
36.03627 -32.905636 5.9918289
8.1842928 -7.4759059 -1.3610369
33.276093 -30.406555 7.1393566
8.199831 -7.4927249 -0.9717865
8.1641874 -7.4653854 -0.57977778
8.1715364 -7.4773459 -0.19333775
5.5626431 -5.104372 -2.0229297
8.195137 -7.5226264 0.19417547
6.3257303 -5.8086615 -1.9827186
31.335716 -28.784405 2.2299306
7.4345169 -6.8292084 -1.9622798
32.992775 -30.317162 3.9200907
8.1906319 -7.5290341 -1.762078
34.363525 -31.598881 5.7320027
8.1669121 -7.5124927 -1.3624994
33.251152 -30.597429 7.156878
8.1677618 -7.5159049 -0.97108924
8.1586485 -7.5127802 -0.58124322
8.151269 -7.5112443 -0.19347738
5.541954 -5.1211357 -2.0218945
8.1453333 -7.529469 0.193617
6.2582006 -5.7870469 -1.9678718
7.3774858 -6.8244548 -1.9535027
32.892597 -30.437559 3.9207883
8.0918179 -7.4904838 -1.7464346
8.1493769 -7.5490479 -1.3639618
33.225288 -30.788502 7.1743984
8.1268635 -7.5308285 -0.96934617
8.1382313 -7.5466452 -0.58166188
8.1455202 -7.5586948 -0.19396605
5.4830313 -5.1022844 -2.0068829
8.1336374 -7.5714808 0.19396605
6.2336836 -5.8048725 -1.9665221
31.727341 -29.555178 2.2724276
7.4469934 -6.9371467 -1.9783077
35.278671 -32.874878 4.2188606
8.052619 -7.5065618 -1.7436188
8.1229763 -7.5774488 -1.3639618
33.068504 -30.858467 7.1637607
8.1063519 -7.5645876 -0.97004336
8.1089201 -7.5722809 -0.58145255
8.1132431 -7.5816212 -0.19382644
5.4999185 -5.1521368 -2.0193064
8.1026497 -7.5929422 0.19382644
6.25563 -5.8641629 -1.9795692
31.602932 -29.635637 2.2705433
7.3981709 -6.9376321 -1.9714386
35.210148 -33.029854 4.2237415
8.1083469 -7.6089206 -1.7611394
8.0978041 -7.6043444 -1.3639618
32.931438 -30.935497 7.1562519
8.0886087 -7.6010237 -0.97108924
8.0663023 -7.5827131 -0.58019644
8.1026211 -7.6221852 -0.19417547
5.4852128 -5.1762381 -2.0208592
8.0731859 -7.618434 0.19375661
6.2266192 -5.8779364 -1.9768698
31.518169 -29.763597 2.2719042
7.3512855 -6.9444776 -1.9657143
8.0961952 -7.6535153 -1.764581
33.301403 -31.480564 5.626708
8.0596724 -7.6216526 -1.3620119
32.874916 -31.099133 7.1675148
8.0475559 -7.6155176 -0.96934617
8.0471573 -7.6204667 -0.58082449
8.0527382 -7.6284184 -0.193617
5.4853158 -5.2126536 -2.0275886
8.0249186 -7.628684 0.19326794
6.1626701 -5.8604321 -1.9633728
31.460962 -29.928473 2.2756722
7.3312678 -6.9741559 -1.9668592
32.089157 -30.536737 3.8754673
8.0579844 -7.6708341 -1.762078
32.610779 -31.054821 5.5292125
8.040307 -7.6593571 -1.3634744
8.0382328 -7.6600566 -0.97143793
8.0407429 -7.6678071 -0.58228987
8.0189381 -7.6523604 -0.19347738
5.4698782 -5.2344398 -2.0286238
8.0271301 -7.6843057 0.19396605
6.0999513 -5.8414726 -1.9498757
31.50918 -30.184563 2.2867675
7.3082967 -7.0010629 -1.9672408
31.884546 -30.554823 3.8636141
8.0340109 -7.7016487 -1.7627038
32.525101 -31.190447 5.533112
8.0106583 -7.684628 -1.3629869
7.9884434 -7.6659966 -0.96864891
7.987998 -7.6709266 -0.58040577
8.0123625 -7.6997027 -0.19396605
5.4515734 -5.2535014 -2.0286238
7.9858618 -7.6984005 0.193617
6.1566753 -5.9371309 -1.9746205
31.66482 -30.535666 2.3053992
7.2852263 -7.0278935 -1.9676224
31.691677 -30.582924 3.8531554
8.0013943 -7.7241564 -1.7614522
8.0037718 -7.731853 -1.3663993
7.9530396 -7.6855273 -0.96760303
7.9726591 -7.7098713 -0.58124322
7.9781623 -7.7178879 -0.19375661
5.4373612 -5.276535 -2.0301766
7.9660292 -7.7304101 0.19375661
6.0712342 -5.8937173 -1.9534749
7.2620587 -7.0546479 -1.968004
31.627592 -30.735016 3.8583846
7.9757347 -7.750648 -1.7614522
31.497875 -30.61965 5.3936939
7.9638562 -7.7445126 -1.3639618
7.9661446 -7.7521486 -0.97248381
7.921288 -7.7111902 -0.57935911
7.974092 -7.7680163 -0.19431511
5.4184518 -5.2931871 -2.029659
7.9332757 -7.7525797 0.193617
5.9084868 -5.7759256 -1.9075849
33.704193 -32.959522 2.4705713
7.2554679 -7.0951633 -1.9725834
31.65938 -30.970697 3.8747702
7.9627509 -7.7922583 -1.764581
30.874451 -30.223942 5.3049731
7.9197555 -7.7555966 -1.3610369
7.9333439 -7.7743301 -0.9717865
7.9171424 -7.7611637 -0.58103383
7.9269428 -7.7761993 -0.19382644
5.4017692 -5.3157215 -2.0306942
7.8919134 -7.7661991 0.19326794
6.0285525 -5.9345918 -1.953025
7.2336106 -7.1258421 -1.9737284
31.613768 -31.153652 3.8831367
7.9285097 -7.8158431 -1.7633295
30.542572 -30.108553 5.265975
7.9124231 -7.8027086 -1.3644493
7.9089932 -7.8047743 -0.97213513
7.8659058 -7.7676754 -0.57935911
7.8855243 -7.7897677 -0.19347738
5.384553 -5.3359046 -2.0312121
7.8577156 -7.7894411 0.19312833
5.7881312 -5.7398424 -1.8819405
30.68833 -30.442936 2.2654145
7.2184486 -7.1607275 -1.9763998
32.46368 -32.215328 4.0013204
7.9067869 -7.8490381 -1.764581
30.403843 -30.192318 5.2610998
7.8781381 -7.8260608 -1.3634744
33.201046 -32.993088 7.4134302
7.8788757 -7.8295255 -0.9717865
7.8585696 -7.8148017 -0.58082449
7.854085 -7.8157964 -0.19340758
5.3727312 -5.3614902 -2.0338001
7.8644419 -7.850728 0.19396605
5.9542155 -5.9459081 -1.9426774
30.607315 -30.575275 2.2672985
7.1809092 -7.1733923 -1.972965
33.165619 -33.142471 4.1020722
7.8709583 -7.8682108 -1.7627038
30.826046 -30.826046 5.3527455
7.8563862 -7.859128 -1.3644493
7.8402305 -7.8457065 -0.97039205
7.8481798 -7.8591442 -0.58208054
7.8493557 -7.8658113 -0.19396605
5.3703356 -5.3966446 -2.0400119
7.8228874 -7.863955 0.193617
5.8015099 -5.8340015 -1.8994867
30.520111 -30.701761 2.268764
7.1405997 -7.1830993 -1.9687674
7.8239546 -7.8760176 -1.7583237
30.505644 -30.71936 5.3156977
7.826108 -7.8836865 -1.3639618
7.8184094 -7.8786821 -0.97108924
7.7897577 -7.8552914 -0.57977778
7.8218513 -7.8931637 -0.19396605
5.3446755 -5.4084873 -2.0374236
7.8094425 -7.9054403 0.19396605
5.8468347 -5.920774 -1.9210819
30.945944 -31.348227 2.3085392
7.1651354 -7.2582784 -1.9825056
7.8130622 -7.9201555 -1.762078
30.470711 -30.899157 5.328372
7.795753 -7.9081302 -1.3634744
7.7964544 -7.911602 -0.9717865
7.7735019 -7.8938203 -0.58061516
7.7858357 -7.9118667 -0.19375661
5.3189988 -5.4202161 -2.0348353
7.7593942 -7.9098125 0.19340758
5.8329544 -5.9481039 -1.9233315
30.791588 -31.410419 2.3051896
7.106771 -7.249599 -1.9733468
7.7715435 -7.933269 -1.7589493
7.7708783 -7.9381309 -1.3639618
32.250828 -32.956467 7.3032999
7.7604289 -7.9302249 -0.97074062
7.7291431 -7.9037719 -0.57935911
7.7581701 -7.9389963 -0.19375661
5.3013945 -5.4401336 -2.0353529
7.7401085 -7.9454441 0.193617
5.8475051 -6.0047278 -1.9350289
7.0485559 -7.2405992 -1.964188
7.7520695 -7.9688439 -1.7608266
7.7541919 -7.9765949 -1.3659117
32.168633 -33.10284 7.3108091
7.7021527 -7.9258313 -0.96690583
7.7321167 -7.962225 -0.58166188
7.7248406 -7.960289 -0.193617
5.2917762 -5.4683237 -2.0389764
7.7039843 -7.9637904 0.19340758
5.8468294 -6.0461159 -1.9417773
27.292086 -28.222324 2.0575361
7.0205097 -7.2623363 -1.9634248
30.51643 -31.578621 3.8419993
7.7324409 -8.0043793 -1.7627038
30.302668 -31.37933 5.3561578
7.715271 -7.992188 -1.3639618
32.116306 -33.269028 7.3239493
7.7076435 -7.9870763 -0.97108924
7.6931858 -7.9776645 -0.58082449
7.7122788 -8.0002584 -0.19396605
5.2820263 -5.4965124 -2.0425999
7.6595206 -7.9705491 0.19295381
5.8213482 -6.0598502 -1.9399779
27.362177 -28.493166 2.0703061
7.0440612 -7.3377843 -1.977163
31.219931 -32.533104 3.9448431
7.7003822 -8.0242758 -1.7614522
7.6749859 -8.0034008 -1.3615245
32.508503 -33.9114 7.4403372
7.6742039 -8.0081778 -0.97039205
7.6722159 -8.0089016 -0.58124322
7.6787753 -8.0213537 -0.19382644
5.295785 -5.5475349 -2.0550234
7.6440768 -8.0102577 0.19326794
5.8674145 -6.1506352 -1.9624729
27.163307 -28.484438 2.0627697
7.0251093 -7.366787 -1.9786894
31.103632 -32.627804 3.9437973
7.6832285 -8.0625467 -1.7639554
7.6497402 -8.0330181 -1.3620119
7.6736722 -8.0637836 -0.97387826
7.6359525 -8.0269518 -0.58061516
7.6617503 -8.0597029 -0.19410567
5.2621288 -5.5528851 -2.0498469
7.6243224 -8.0455999 0.19347738
5.8378692 -6.1625919 -1.9597737
26.636618 -28.128069 2.0302167
6.9845648 -7.3782277 -1.9748732
32.254684 -34.08453 4.1055584
7.6427655 -8.0791731 -1.7614522
7.6380205 -8.0769796 -1.3649368
7.6372671 -8.0818319 -0.97283238
7.6037383 -8.05198 -0.58040577
7.6116071 -8.0631313 -0.19354719
5.2162352 -5.5430822 -2.0394943
7.5893011 -8.0676651 0.19333775
5.7805328 -6.1470361 -1.9480762
26.207762 -27.879164 2.0053048
6.9547338 -7.3982725 -1.9737284
32.040005 -34.09528 4.0933566
7.6253381 -8.1173201 -1.7639554
7.605648 -8.102025 -1.3644493
7.6062827 -8.1055365 -0.97248381
7.5947132 -8.0988712 -0.58187127
7.5655951 -8.0734663 -0.19312833
5.2087255 -5.5739598 -2.044153
7.5638237 -8.0970297 0.19340758
5.7789903 -6.1885409 -1.9548247
26.175707 -28.040558 2.010329
6.9516406 -7.4469004 -1.9802158
32.673855 -35.013905 4.1899252
7.5969567 -8.1438875 -1.7639554
31.840721 -34.144993 5.7324905
7.5854416 -8.1372375 -1.3659117
30.848843 -33.104492 7.1668897
7.5616431 -8.1145468 -0.97039205
7.5555067 -8.1136379 -0.58103383
7.5564389 -8.1203203 -0.193617
5.2181468 -5.6232615 -2.055541
7.5300746 -8.1175194 0.19326794
5.7851791 -6.2386827 -1.9642726
26.186289 -28.248934 2.0187027
6.9376163 -7.4840794 -1.9836504
31.424723 -33.911861 4.044898
7.5604281 -8.1616621 -1.762078
32.97298 -35.607582 5.9586802
7.5489001 -8.1549244 -1.3644493
30.829699 -33.316364 7.1894164
7.5495105 -8.1584396 -0.97248381
7.5081549 -8.1194324 -0.57956845
7.5416188 -8.1613331 -0.19396605
5.1840858 -5.6258149 -2.0498469
7.507112 -8.1496382 0.19340758
5.6445618 -6.1298203 -1.9237814
26.547428 -28.83979 2.0542912
6.8888454 -7.483695 -1.977163
30.923008 -33.604965 3.9953935
7.5479398 -8.2054482 -1.7658324
31.698317 -34.471657 5.7500401
7.5230751 -8.1841488 -1.3649368
30.69985 -33.409233 7.1862874
7.512898 -8.1759415 -0.97143793
7.4878726 -8.154418 -0.58019644
7.5076771 -8.1817169 -0.19382644
5.1552868 -5.6338997 -2.0462234
7.5002141 -8.1993999 0.19396605
5.669157 -6.1998205 -1.9395281
26.654116 -29.159306 2.0704105
6.8494349 -7.4932055 -1.9733468
35.34819 -38.684078 4.5845661
7.5139236 -8.2259121 -1.764581
31.650074 -34.661251 5.7632017
7.4891076 -8.2044954 -1.3639618
7.5031137 -8.2227211 -0.97387826
7.4755116 -8.1982155 -0.58145255
7.4790711 -8.2078733 -0.19382644
5.1264958 -5.6418524 -2.0425999
7.4392786 -8.1900072 0.19312833
5.6592717 -6.2325573 -1.9435771
6.8047633 -7.496717 -1.968004
7.4931273 -8.260869 -1.7664583
31.611563 -34.862698 5.7783136
7.4604235 -8.230587 -1.3639618
7.455637 -8.2281914 -0.97143793
7.4280806 -8.2035341 -0.57998711
7.4503751 -8.2339306 -0.19382644
5.0757108 -5.6252899 -2.0301766
7.4160023 -8.2218647 0.19326794
5.6296511 -6.2435899 -1.9408777
25.72781 -28.543554 2.0138879
6.8101006 -7.5554228 -1.977163
7.4563131 -8.2781677 -1.764581
31.316999 -34.781055 5.7466278
7.4449291 -8.2713337 -1.3663993
7.4321995 -8.2600899 -0.97213513
7.4127545 -8.2442636 -0.58103383
7.440299 -8.2807102 -0.19431511
5.0573325 -5.644412 -2.0306942
7.3925943 -8.2536592 0.19340758
5.629921 -6.2878842 -1.9485261
25.69462 -28.707602 2.0191214
6.773211 -7.5674458 -1.97411
26.366949 -29.469122 3.4595599
7.4221034 -8.2982559 -1.7633295
31.579109 -35.319313 5.8173118
7.4424677 -8.3268719 -1.371274
7.4112859 -8.2948971 -0.97318101
7.391912 -8.279027 -0.58166188
7.4060225 -8.300663 -0.19417547
5.0453038 -5.6706905 -2.0338001
7.3850012 -8.3033199 0.19396605
5.5859256 -6.2827396 -1.9408777
25.800991 -29.019527 2.0350316
6.7441459 -7.5881076 -1.9733468
26.287745 -29.587791 3.4626977
7.3957157 -8.3270664 -1.7639554
30.875731 -34.776173 5.7100668
7.3870029 -8.3231068 -1.3663993
7.3769979 -8.3147554 -0.97248381
7.3391175 -8.2778797 -0.57977778
7.3784552 -8.3251772 -0.19417547
5.0178051 -5.6795807 -2.0306942
7.3494825 -8.3187723 0.19375661
5.6489105 -6.3961701 -1.9701214
25.747126 -29.163309 2.0387998
6.7098227 -7.6027713 -1.9710571
26.208031 -29.706263 3.4658353
7.3759027 -8.3604326 -1.7658324
7.3514848 -8.3386221 -1.3649368
7.3584652 -8.3524151 -0.97387826
7.3248277 -8.3171606 -0.58082449
7.3493509 -8.3508806 -0.19417547
4.9925714 -5.6889291 -2.0281062
7.3203993 -8.3443766 0.19375661
5.6265492 -6.4158502 -1.9701214
26.669498 -30.421446 2.1202345
6.7337527 -7.6810775 -1.9855584
26.214432 -29.912884 3.4797802
7.349278 -8.389102 -1.7664583
7.3275628 -8.3702078 -1.3659117
7.3149824 -8.358779 -0.9717865
7.2957497 -8.3426781 -0.58082449
7.3201566 -8.3764849 -0.19417547
4.9637985 -5.6961274 -2.0244827
7.2780929 -8.3548012 0.19340758
5.5862031 -6.4148769 -1.9638227
6.6746745 -7.6675167 -1.9760182
26.041843 -29.926048 3.470716
7.3069844 -8.3998003 -1.7633295
7.3035102 -8.4017267 -1.3668866
7.2936006 -8.3932858 -0.97283238
7.2639656 -8.365078 -0.58061516
7.2987351 -8.4110479 -0.1943849
4.9489417 -5.7192621 -2.0265532
7.2776647 -8.4134283 0.19417547
5.5064187 -6.3680034 -1.9435771
25.826927 -29.878588 2.0697825
6.6440172 -7.6863132 -1.9748732
26.031015 -30.125317 3.4832666
7.2956972 -8.4461842 -1.7677096
7.2871084 -8.4421968 -1.369324
7.2784057 -8.4380655 -0.97492415
7.2321134 -8.3873577 -0.58040577
7.2667203 -8.433445 -0.19431511
4.9216528 -5.7300353 -2.0239649
7.227406 -8.4145098 0.193617
5.5171628 -6.4256272 -1.9552746
26.450937 -30.817272 2.1283989
6.6055746 -7.6986933 -1.9718202
25.972309 -30.281012 3.4902387
7.2621198 -8.4698677 -1.7670839
7.2472615 -8.4555244 -1.3673741
7.2411299 -8.4543419 -0.97387826
7.2117133 -8.4259481 -0.58124322
7.2320375 -8.4526806 -0.19417547
4.9103966 -5.7574692 -2.0275886
7.2172742 -8.4652901 0.19417547
5.575738 -6.5422106 -1.9845182
25.651321 -30.108244 2.0729227
6.5761137 -7.7187152 -1.9710571
25.845783 -30.347221 3.4874499
7.2325096 -8.4951658 -1.7670839
7.2239394 -8.4911013 -1.3688365
7.2115746 -8.4795656 -0.97387826
7.1951914 -8.4662876 -0.58228987
7.2165418 -8.4974213 -0.19459434
4.8777847 -5.7598329 -2.0224121
7.1670079 -8.466012 0.193617
5.3955092 -6.3756886 -1.9282805
25.613144 -30.276894 2.0783658
6.5516663 -7.7446208 -1.9718202
25.497822 -30.151243 3.4546793
7.2053633 -8.5233774 -1.7677096
7.1814466 -8.5011024 -1.3663993
7.1767888 -8.4985991 -0.97318101
7.1784754 -8.5066175 -0.58333665
7.1636324 -8.4950428 -0.19396605
4.8576493 -5.776824 -2.0224121
