# .PCD v0.7 - Point Cloud Data file format
VERSION 0.7
FIELDS x y z
SIZE 4 4 4
TYPE F F F
COUNT 1 1 1
WIDTH 1454
HEIGHT 1
VIEWPOINT 0 0 0 1 0 0 0
POINTS 1454
DATA ascii
-3.694567 -8.5091038 -0.81159425
-3.6834877 -8.4754868 -0.484317
-3.7196591 -8.5505514 -0.16276114
-2.7375674 -6.2690287 -1.8329566
-3.7258816 -8.5282059 0.16244701
-2.9799027 -6.8174844 -1.7177262
-3.7787297 -8.6409512 0.49426082
-3.3061414 -7.5602674 -1.6039405
-3.6927872 -8.4363976 -1.4585952
-3.718688 -8.487504 -1.1377723
-3.7274458 -8.5034542 -0.8122915
-3.729099 -8.499157 -0.48641044
-3.7494845 -8.5375147 -0.16276114
-2.7360566 -6.2064033 -1.8174274
-3.7846775 -8.5810156 0.16370356
-3.0036824 -6.8070412 -1.7177262
-3.8073649 -8.6283722 0.49426082
-3.3451989 -7.5774169 -1.6100464
-3.7381821 -8.4595928 -1.4648525
-3.7579288 -8.4962578 -1.1406971
-3.7619433 -8.5013237 -0.81333739
-3.7603614 -8.4897404 -0.48661977
-3.7712929 -8.5104084 -0.1624819
-2.7859797 -6.2603545 -1.8360624
-3.845634 -8.6414957 0.16509975
-3.0230687 -6.7899218 -1.7159266
-3.8374596 -8.6150303 0.49426082
-3.371628 -7.5656939 -1.6100464
-3.7774761 -8.4724083 -1.4692327
-3.7974076 -8.5091276 -1.1441095
-3.7915959 -8.4881401 -0.81333739
-3.7933829 -8.4881649 -0.48724779
-3.8140416 -8.5263987 -0.16304037
-2.799603 -6.2352195 -1.8314036
-3.8364432 -8.5404625 0.16342433
-3.0579343 -6.804213 -1.7222252
-3.8675084 -8.6015825 0.49426082
-3.4087751 -7.5813298 -1.6157707
-3.7859488 -8.4123363 -1.4610981
-3.8336108 -8.5102997 -1.1460594
-3.8310285 -8.4966488 -0.81542915
-3.8180625 -8.4639473 -0.48661977
-3.8553026 -8.5385494 -0.16352905
-2.8503587 -6.2864976 -1.849521
-3.8794453 -8.556159 0.16398282
-3.0728109 -6.7739758 -1.7172763
-3.8975103 -8.5880299 0.49426082
-3.4349158 -7.5652099 -1.6150075
-3.8984139 -8.5820599 0.82466763
-3.811852 -8.3876123 -1.4592208
-3.8698661 -8.511323 -1.1480093
-3.8738697 -8.5122385 -0.81821811
-3.8772082 -8.511694 -0.49017861
-3.8801088 -8.514122 -0.16331963
-2.8755002 -6.283536 -1.8515915
-3.9207683 -8.5636997 0.16440167
-3.1106033 -6.7910151 -1.7244748
-3.9274645 -8.5743723 0.49426082
-3.4523058 -7.5335412 -1.6108096
-3.8444018 -8.3814373 -1.4604723
-3.9026926 -8.5006905 -1.1484969
-3.9102113 -8.5131493 -0.81961256
-3.9052269 -8.4944792 -0.48996928
-3.9131463 -8.5077925 -0.16345924
-2.8949873 -6.2681985 -1.8500385
-3.9524989 -8.5579119 0.16454129
-3.1175745 -6.7470522 -1.7159266
-3.957371 -8.5606108 0.49426082
-3.4357283 -7.4287853 -1.5909655
-3.9615798 -8.5618677 0.82536483
-3.8705161 -8.3650579 -1.4598466
-3.9341972 -8.4949064 -1.1494718
-3.9449317 -8.510294 -0.82065845
-3.9484999 -8.5140963 -0.49185339
-3.9512401 -8.5122194 -0.16380829
-2.9051504 -6.2357998 -1.8433093
-3.9958622 -8.5730639 0.16509975
-3.1411088 -6.7361279 -1.7159266
-3.9872272 -8.5467453 0.49426082
-3.5010138 -7.5045314 -1.6096648
-3.9164073 -8.3872938 -1.466104
-3.9755931 -8.5062981 -1.152884
-3.9646926 -8.4791174 -0.81891537
-3.9714224 -8.4857893 -0.49101597
-4.0046806 -8.5490789 -0.16478562
-2.9301877 -6.2326136 -1.8453798
-4.0223598 -8.5518265 0.16496015
-3.154645 -6.7039642 -1.7105279
-4.0289488 -8.5580721 0.4957262
-3.5305347 -7.4993687 -1.6111913
-4.0265584 -8.5491228 0.82675934
-3.9675512 -8.4200325 -1.4742386
-4.020504 -8.5246868 -1.1572714
-4.0095677 -8.4976597 -0.8220529
-4.0112548 -8.4935465 -0.49227205
-4.0242434 -8.5133524 -0.16436677
-2.9419897 -6.2014027 -1.8391682
-4.0487571 -8.5305071 0.16482052
-3.1822064 -6.7017126 -1.7127774
-4.0776501 -8.5836477 0.49802902
-3.5482652 -7.4692669 -1.6073751
-3.8620501 -8.1224775 -1.4244925
-4.0451164 -8.4998474 -1.1558089
-4.0458293 -8.4936991 -0.82309878
-4.0511875 -8.5011311 -0.4935281
-4.0487709 -8.4884243 -0.16415733
-2.9738777 -6.209744 -1.8448622
-4.0923295 -8.5451794 0.16537902
-3.2299991 -6.7415299 -1.7258245
-3.5951426 -7.4969263 -1.6161523
-4.1065898 -8.5596113 0.83059424
-4.0165901 -8.3682747 -1.4701713
-4.0696058 -8.4749374 -1.1543465
-4.0840845 -8.4974823 -0.82484198
-4.0927081 -8.507823 -0.49478418
-4.0887828 -8.495862 -0.16457619
-2.9997385 -6.2080226 -1.8474505
-4.1358061 -8.5553274 0.16586767
-3.2682619 -6.7577152 -1.7330229
-3.6247106 -7.4914007 -1.6176788
-4.0251122 -8.3115339 -1.4626625
-4.1075702 -8.4742556 -1.1562965
-4.117197 -8.490346 -0.82553917
-4.1223831 -8.4934835 -0.49478418
-4.1341348 -8.5139179 -0.16520448
-3.0163112 -6.1870947 -1.8443446
-4.171165 -8.5559444 0.1661469
-3.2795479 -6.7240701 -1.7271742
-4.1918368 -8.5907345 0.50095981
-3.625001 -7.4257741 -1.6062301
-4.1872311 -8.5737 0.83477765
-4.1461082 -8.4819889 -1.1592213
-4.1468091 -8.4759226 -0.82553917
-4.1505241 -8.4797678 -0.49478418
-4.1691074 -8.51021 -0.16541392
-3.0615292 -6.2273345 -1.8593562
-4.2010055 -8.5413332 0.1661469
-3.317626 -6.7423062 -1.7348225
-4.2520471 -8.6413002 0.50472802
-3.6773531 -7.470077 -1.6184419
-13.609941 -27.634699 2.6950297
-4.0946898 -8.3105221 -1.4673554
-4.1756907 -8.4674644 -1.1592213
-4.1907611 -8.4942865 -0.82867676
-4.188942 -8.4831352 -0.49583086
-4.2150197 -8.5321951 -0.16611201
-3.0883982 -6.226994 -1.862462
-4.2293067 -8.5273542 0.1661469
-3.3408325 -6.7330132 -1.7352724
-4.2502136 -8.5620031 0.50095981
-3.7217441 -7.4941196 -1.6264559
-4.257905 -8.5699806 0.83721811
-4.1433215 -8.3393555 -1.4748644
-4.2249608 -8.4962301 -1.165071
-4.2292638 -8.4974432 -0.83041996
-4.2099285 -8.454895 -0.49499351
-4.2590485 -8.5460653 -0.16667047
-3.0973639 -6.1879926 -1.8541797
-4.2745533 -8.5360842 0.16663557
-3.372771 -6.7323318 -1.7384217
-3.7412679 -7.4646335 -1.6230214
-13.344746 -26.614023 2.6047366
-4.1753116 -8.3233852 -1.4748644
-4.2611156 -8.4870415 -1.166046
-4.2603803 -8.481885 -0.83041996
-4.2459507 -8.4458055 -0.49541223
-4.2864385 -8.5189314 -0.16646105
-3.114593 -6.1685195 -1.8515915
-4.3241572 -8.56038 0.16740347
-3.4067967 -6.7413898 -1.7438205
-4.3453045 -8.5947838 0.50472802
-3.7717328 -7.4602885 -1.6249295
-4.3496938 -8.5997429 0.84314466
-4.2186103 -8.3369608 -1.4798702
-4.2925091 -8.4756565 -1.1665335
-4.3025684 -8.4918432 -0.83286029
-4.2970862 -8.4736843 -0.49792436
-4.3197694 -8.5110502 -0.16660067
-3.1212006 -6.1283464 -1.8427917
-4.3776188 -8.5915575 0.168311
-3.442698 -6.7537632 -1.7501192
-4.375278 -8.5795641 0.50472802
-3.7531536 -7.3596292 -1.6058486
-13.122766 -25.721569 2.5262964
-4.2503805 -8.3274632 -1.4808089
-4.3292933 -8.4747639 -1.1684834
-4.337625 -8.4874172 -0.83390617
-4.3302765 -8.465745 -0.49834302
-4.3640327 -8.5243988 -0.16715914
-3.1708214 -6.1724019 -1.8593562
-4.3838148 -8.5299826 0.16740347
-3.4528863 -6.7157087 -1.7433707
-4.3796196 -8.5145092 0.5017972
-3.8102512 -7.407588 -1.6192051
-13.002788 -25.268143 2.4862046
-4.2975049 -8.347703 -1.4870663
-4.3788509 -8.4984236 -1.1738456
-4.3763523 -8.4899349 -0.83564925
-4.3909364 -8.5109272 -0.50190187
-4.395597 -8.5126677 -0.16722897
-3.1932366 -6.1630111 -1.8598738
-4.4264474 -8.539485 0.16789216
-3.4960439 -6.7416735 -1.7532685
-4.4350681 -8.54881 0.50472802
-3.8342776 -7.3907571 -1.6184419
-12.90184 -24.858315 2.4502966
-4.3229766 -8.3256378 -1.4858147
-4.4286275 -8.5218372 -1.1792079
-4.4206662 -8.5028906 -0.83843827
-4.4169312 -8.4884615 -0.5014832
-4.4215884 -8.4901772 -0.16708934
-3.2057831 -6.1347055 -1.8546973
-4.4636407 -8.5381575 0.16817139
-3.5321999 -6.7536044 -1.7595671
-4.4296966 -8.4660301 0.50075048
-3.8973699 -7.448648 -1.6340883
-12.78156 -24.417725 2.4112506
-4.3171892 -8.2439995 -1.4739258
-4.449132 -8.4887438 -1.1767704
-4.454021 -8.4944649 -0.83913547
-4.4428201 -8.4659176 -0.50106448
-4.4586387 -8.4888535 -0.16736858
-3.2388868 -6.1456957 -1.8614267
-4.5064745 -8.5472889 0.16866006
-3.545752 -6.7222733 -1.7546182
-4.4946418 -8.5176392 0.50472802
-3.9270122 -7.4419441 -1.6356149
-12.697431 -24.052286 2.3795261
-4.3505521 -8.2376127 -1.47549
-4.4954348 -8.5047522 -1.1811578
-4.4892335 -8.4894342 -0.84018135
-4.4816875 -8.4680109 -0.50211126
-4.4882417 -8.4732389 -0.16736858
-3.1896007 -6.0012932 -1.8210509
-4.5541201 -8.5650539 0.16932325
-3.5673654 -6.7064147 -1.7537185
-4.5487418 -8.547739 0.50744945
-3.9538877 -7.4299235 -1.6359965
-12.595926 -23.659597 2.3450124
-4.4006381 -8.2624769 -1.482686
-4.5362997 -8.5100288 -1.1840826
-4.5207148 -8.4772272 -0.84052992
-4.5168624 -8.4628878 -0.50273925
-4.5272136 -8.4751587 -0.16771764
-3.2835369 -6.1263404 -1.862462
-4.5745401 -8.5314808 0.16897419
-3.6027291 -6.7162457 -1.7595671
-3.9695857 -7.3970485 -1.6317985
-12.499375 -23.281958 2.3118932
-4.5659781 -8.4941425 -1.1840826
-4.5597148 -8.4789438 -0.84227312
-4.557734 -8.4681721 -0.5039953
-4.5681505 -8.4804316 -0.16813649
-3.2902067 -6.0876479 -1.8541797
-4.6138024 -8.5330524 0.16932325
-3.6085336 -6.6710629 -1.751019
-4.0028596 -7.3969598 -1.6348516
-12.421213 -22.943829 2.2826087
-4.4817309 -8.2749786 -1.4905078
-4.6164117 -8.5165462 -1.1894449
-4.5949836 -8.473484 -0.84331894
-4.5872664 -8.4522114 -0.5039953
-4.6244502 -8.5136347 -0.16911381
-3.3308489 -6.1117487 -1.8650501
-4.6665335 -8.5590305 0.17016095
-3.6373987 -6.6686897 -1.7537185
-4.6575603 -8.5390215 0.50975227
-4.0502825 -7.4225807 -1.6436287
-12.338936 -22.603037 2.2529759
-4.43958 -8.1292562 -1.4670426
-4.6327834 -8.4759932 -1.1860325
-4.6340923 -8.4748735 -0.84506202
-4.624413 -8.4501648 -0.50483268
-4.6603398 -8.5122843 -0.16939306
-3.338207 -6.0746889 -1.8572855
-4.6987438 -8.5505199 0.17030059
-3.6651244 -6.6668382 -1.7564179
-4.7354612 -8.6102142 0.51498586
-4.0742769 -7.4049559 -1.6428655
-12.233291 -22.224709 2.2195082
-4.4960408 -8.1681376 -1.4767416
-4.6704445 -8.477972 -1.18847
-4.6674933 -8.4656267 -0.84575933
-4.6581974 -8.4452744 -0.50546068
-4.7132168 -8.537982 -0.17023078
-3.3676934 -6.0804853 -1.862462
-4.7208085 -8.520072 0.17002134
-3.7025452 -6.6795692 -1.7631663
-4.763988 -8.5944633 0.51498586
-4.118803 -7.4274611 -1.6508795
-12.144546 -21.891319 2.1902237
-4.5609522 -8.2180271 -1.4886307
-4.7115741 -8.4824419 -1.1913948
-4.7052188 -8.4675179 -0.84750247
-4.7012372 -8.4534025 -0.50692612
-4.7415042 -8.5223055 -0.17023078
-3.4049098 -6.0973663 -1.8712618
-4.7704859 -8.5427809 0.17078924
-3.7256258 -6.6689558 -1.7636162
-4.7939591 -8.5777817 0.51498586
-4.1121297 -7.3547759 -1.6379045
-12.082776 -21.601877 2.1654716
-4.5013914 -8.0476952 -1.4604723
-4.7532535 -8.4910221 -1.1948072
-4.7522755 -8.4823284 -0.85064
-4.7311969 -8.4412498 -0.50713545
-4.7555728 -8.4777966 -0.1696723
-3.4251108 -6.0860415 -1.8712618
-4.7983146 -8.5225916 0.17071944
-3.7574894 -6.6711917 -1.7676654
-4.8238726 -8.5609951 0.51498586
-4.1422787 -7.3513613 -1.6401943
-11.991935 -21.273575 2.1365359
-4.6119337 -8.1781883 -1.4870663
-4.7809119 -8.4709196 -1.1943196
-4.784297 -8.4734621 -0.85133731
-4.7704592 -8.442071 -0.50818217
-4.796948 -8.4820328 -0.17009115
-3.4568212 -6.0925307 -1.8769557
-4.8438268 -8.5336161 0.17127791
-3.7769043 -6.6512566 -1.7658658
-4.8537269 -8.5441046 0.51498586
-4.1911883 -7.3778257 -1.649353
-11.906643 -20.950968 2.1082973
-4.5701571 -8.0383978 -1.4645396
-4.8241963 -8.4783344 -1.197732
-4.8315873 -8.4878778 -0.8544749
-4.825604 -8.4704876 -0.51090366
-4.8681264 -8.5381985 -0.17155716
-3.4675148 -6.0619822 -1.8712618
-4.8735876 -8.516655 0.17127791
-3.8204305 -6.6735477 -1.7753137
-4.883522 -8.5271091 0.51498586
-4.2061839 -7.3444104 -1.6451553
-11.846981 -20.677626 2.0849397
-4.7533941 -8.2931795 -1.5139729
-11.943098 -20.828531 2.9480195
-4.8577127 -8.4683304 -1.198707
-4.8745685 -8.4908457 -0.85656661
-4.8591213 -8.4605198 -0.51132232
-4.8839493 -8.4968805 -0.17106849
-3.4800563 -6.0324984 -1.8660854
-4.903285 -8.4995918 0.17127791
-3.8281174 -6.6331663 -1.7681153
-4.9132576 -8.5100107 0.51498586
-4.256639 -7.3697476 -1.654314
-11.771177 -20.371849 2.0584443
-4.7758498 -8.2620211 -1.51147
-11.842873 -20.487675 2.9056091
-4.8951936 -8.4650698 -1.2006569
-4.9001856 -8.4668818 -0.85586941
-4.9061146 -8.4703054 -0.51299709
-4.915585 -8.483242 -0.1711383
-3.5224597 -6.0570526 -1.8774734
-4.9444604 -8.4988489 0.17162697
-3.8710265 -6.6510916 -1.7766634
-4.9444156 -8.4919453 0.51498586
-4.2517166 -7.3022475 -1.6424839
-11.687778 -20.065508 2.0316002
-4.8046589 -8.2453003 -1.51147
-11.691944 -20.056547 2.8505242
-4.9441872 -8.4779377 -1.2050442
-4.9457746 -8.4772587 -0.85865831
-4.9396801 -8.4600267 -0.51341575
-4.9567337 -8.4824333 -0.17148735
-3.5220864 -6.0080562 -1.8660854
-4.9842129 -8.498786 0.17197601
-3.8725252 -6.6005611 -1.7667656
-4.9740257 -8.4746351 0.51498586
-4.2950664 -7.3178396 -1.649353
-11.624586 -19.797798 2.0085912
-4.8314118 -8.22507 -1.5108442
-11.687455 -19.888966 2.8324873
-4.9858232 -8.481163 -1.2079691
-4.9793758 -8.4668131 -0.85935563
-4.9691815 -8.4427328 -0.51341575
-5.0066113 -8.4995394 -0.17218544
-3.5548303 -6.0156827 -1.872297
-5.0362372 -8.519207 0.17274393
-3.9024858 -6.5987453 -1.769915
-5.0021019 -8.4580946 0.51498586
-4.3055902 -7.2774572 -1.6436287
-11.573875 -19.554779 1.9880224
-4.8852525 -8.2506504 -1.5186659
-11.576735 -19.544031 2.7891021
-5.0139208 -8.4645824 -1.2079691
-5.0109305 -8.4528093 -0.8597042
-5.0128894 -8.4493837 -0.51488119
-5.0551796 -8.5172834 -0.17288354
-3.5846429 -6.0204601 -1.8774734
-5.0808334 -8.5299473 0.1733024
-3.9373152 -6.6075301 -1.7757636
-4.3568416 -7.30867 -1.6539325
-11.614167 -19.47522 1.983839
-4.9156222 -8.2394943 -1.5196046
-11.616044 -19.462923 2.7830086
-5.0541697 -8.4683657 -1.210894
-5.0532379 -8.4600935 -0.86214459
-5.0367808 -8.4258585 -0.51446253
-5.0710816 -8.4798784 -0.17246468
-3.5906749 -5.9853477 -1.8702265
-5.1276155 -8.5439148 0.17393069
-3.9642203 -6.6027904 -1.7780131
-5.1608953 -8.5959682 0.52545309
-4.3982391 -7.322794 -1.6604201
-11.687921 -19.451967 1.9854077
-4.9480076 -8.2316132 -1.5211689
-11.682567 -19.427696 2.7834959
-5.0965457 -8.4753752 -1.2143062
-5.0874286 -8.4535322 -0.86319047
-5.0770588 -8.4296389 -0.51571852
-5.0991735 -8.4630146 -0.17246468
-3.6264911 -5.9998612 -1.8785087
-5.1662664 -8.5439749 0.17427972
-3.9891202 -6.5946102 -1.7793628
-5.1893725 -8.5788069 0.52545309
-4.424531 -7.3115277 -1.6611832
-11.759585 -19.425035 1.9866279
-4.9732308 -8.2117805 -1.5205431
-11.770587 -19.427898 2.7891021
-5.1266809 -8.4618235 -1.2147937
-5.1257644 -8.4536514 -0.86493361
-5.1174188 -8.4332466 -0.51697463
-5.1500397 -8.4836645 -0.17323259
-3.65256 -5.9885535 -1.879544
-5.1859407 -8.4992695 0.17379107
-4.0033751 -6.5585847 -1.7739639
-5.2252617 -8.5569944 0.52545309
-4.4661236 -7.3138142 -1.6657627
-11.858241 -19.411678 1.9901142
-5.0246964 -8.2220898 -1.5261748
-11.852623 -19.387266 2.790077
-5.1807237 -8.4707565 -1.2191811
-5.1762953 -8.4601994 -0.86772257
-5.1700039 -8.4432955 -0.51885873
-5.1897097 -8.4688387 -0.17337219
-3.6876044 -5.9988084 -1.886791
-5.2616682 -8.5560646 0.17532688
-4.0344152 -6.5578475 -1.7775632
-5.2550998 -8.538703 0.52545309
-4.5039744 -7.3182435 -1.6703421
-11.938464 -19.390526 1.992206
-5.0595822 -8.214592 -1.5280521
-11.935846 -19.371126 2.7937331
-5.214427 -8.4593801 -1.220156
-5.2246199 -8.4726048 -0.87086016
-5.1973481 -8.4217987 -0.5186494
-5.2402563 -8.4846983 -0.17407031
-3.68207 -5.9432011 -1.8733324
-5.2746477 -8.5104504 0.1747684
-4.0706306 -6.5652571 -1.783412
-5.2833848 -8.5212307 0.52545309
-4.5274234 -7.2991405 -1.6695787
-12.018683 -19.369049 1.9942977
-4.9309096 -7.9434566 -1.4808089
-12.019098 -19.354635 2.797389
-5.2481141 -8.4478722 -1.221131
-5.2625761 -8.4678535 -0.87225467
-5.2478104 -8.4375238 -0.52074283
-5.2577991 -8.4502954 -0.17372125
-3.7396255 -5.9893045 -1.8919673
-5.3240204 -8.5268383 0.17546651
-4.10993 -6.5798197 -1.7910603
-5.3130989 -8.5027342 0.52545309
-4.5570354 -7.2899523 -1.6711053
-12.092555 -19.337114 1.9953436
-5.0326357 -8.0476503 -1.5033354
-12.103219 -19.346649 2.8020201
-5.2845249 -8.4438829 -1.2230808
-5.2878723 -8.4426775 -0.87155735
-5.3033333 -8.4640789 -0.52346432
-5.3191352 -8.4827166 -0.1747684
-3.7574091 -5.9735994 -1.890932
-5.3601427 -8.5183563 0.17567593
-4.1370254 -6.5720301 -1.7928599
-4.5853701 -7.281446 -1.6726319
-12.173604 -19.323879 1.9981325
-5.0859733 -8.0701418 -1.5108442
-12.179145 -19.31772 2.8039701
-5.3351455 -8.4589672 -1.2279556
-5.3307252 -8.4486866 -0.87399781
-5.3477759 -8.4691582 -0.5249297
-5.3472362 -8.4650307 -0.1747684
-3.6696384 -5.7891231 -1.83658
-5.377655 -8.4836445 0.17532688
-4.130619 -6.5138402 -1.7807125
-5.3708506 -8.4663734 0.52545309
-4.6307468 -7.2968903 -1.6798825
-12.258069 -19.30818 2.0009215
-5.1307063 -8.081583 -1.516163
-12.251652 -19.29063 2.8059199
-5.3823309 -8.4713869 -1.232343
-5.3730102 -8.4502029 -0.87608945
-5.3608241 -8.4277849 -0.52346432
-5.4003744 -8.483427 -0.1755363
-3.7054508 -5.8029737 -1.8448622
-5.4115424 -8.4715624 0.17546651
-4.1543808 -6.5010233 -1.7811624
-5.4003711 -8.4475746 0.52545309
-4.6390562 -7.2566814 -1.6741582
-12.334911 -19.287565 2.0030131
-5.1439815 -8.040329 -1.5117829
-12.336037 -19.274498 2.8098199
-5.4161491 -8.4592361 -1.2333179
-5.4031525 -8.4356947 -0.87643814
-5.4096088 -8.4392881 -0.52534837
-5.4537101 -8.5015516 -0.17630421
-3.7863157 -5.8842297 -1.8748853
-5.4735508 -8.5030632 0.17651364
-4.2002602 -6.5225272 -1.7910603
-4.6601062 -7.2338424 -1.6726319
-12.421592 -19.27454 2.006151
-5.0981603 -7.9077654 -1.4901948
-12.424761 -19.264685 2.8146946
-5.4585586 -8.4602938 -1.2362427
-5.4541755 -8.450263 -0.87992436
-5.4390349 -8.4203529 -0.52534837
-5.4724956 -8.4656706 -0.17595516
-3.7763526 -5.8239703 -1.8598738
-5.5314913 -8.5275259 0.17742117
-4.2633128 -6.5699449 -1.8081565
-4.6949496 -7.2323513 -1.6760663
-12.497478 -19.244429 2.0075452
-5.2774711 -8.1234884 -1.5343094
-12.510321 -19.249493 2.8188381
-5.4967136 -8.4545031 -1.2381927
-5.4901571 -8.4411936 -0.88097024
-5.4901848 -8.4347935 -0.5274418
-5.5260248 -8.4833784 -0.17672306
-3.8790793 -5.9368987 -1.9002496
-5.5612264 -8.5081635 0.17742117
-4.3043509 -6.5827508 -1.815805
-5.5978675 -8.5577021 0.53592026
-4.7513318 -7.263566 -1.6871332
-12.578761 -19.222361 2.0098114
-5.3057957 -8.1050177 -1.5343094
-12.587226 -19.220652 2.8210318
-5.5370708 -8.451869 -1.24063
-5.5305099 -8.4386415 -0.88271332
-5.5415025 -8.4489803 -0.52953523
-5.5753551 -8.4941282 -0.17735136
-3.8264806 -5.811986 -1.8645325
-5.5908899 -8.4887009 0.17742117
-4.2887025 -6.5091043 -1.7996083
-4.7961078 -7.2764416 -1.6940023
-12.663327 -19.20495 2.0126004
-5.3460202 -8.1045856 -1.5377511
-12.656429 -19.179911 2.8215191
-5.5709143 -8.4391165 -1.241605
-5.5731082 -8.4392357 -0.88480508
-5.5511408 -8.3995934 -0.52765119
-5.6049719 -8.4746141 -0.17735136
-3.8179092 -5.7551298 -1.8505563
-5.6470256 -8.5091209 0.17825888
-4.3372664 -6.5330591 -1.8104061
-5.6574755 -8.5184126 0.53592026
-4.8247352 -7.2645631 -1.6951473
-12.747933 -19.18718 2.0153892
-5.3611565 -8.0661335 -1.5339966
-12.748578 -19.173637 2.8271253
-5.6047363 -8.4262304 -1.2425799
-5.6224008 -8.4495878 -0.88794273
-5.6114225 -8.4267111 -0.53058195
-5.6389551 -8.4616537 -0.17749096
-3.877697 -5.8011928 -1.8697089
-5.6922545 -8.5126295 0.17874755
-4.3286228 -6.4709063 -1.7973589
-5.6871781 -8.4986115 0.53592026
-4.8456979 -7.2411494 -1.6936207
-12.82702 -19.160778 2.0173068
-5.3497076 -7.9882836 -1.5227332
-12.830904 -19.152105 2.8305378
-5.6606374 -8.4461918 -1.2484297
-5.6762676 -8.4663181 -0.89177752
-5.6563826 -8.4302921 -0.53204739
-5.6796055 -8.4585209 -0.17784002
-3.880657 -5.7619843 -1.8614267
-5.7197003 -8.4893904 0.17867775
-4.3381143 -6.4363656 -1.7919601
-5.7168074 -8.4787083 0.53592026
-4.9027724 -7.2713971 -1.7046876
-12.910537 -19.140661 2.0199213
-5.4040771 -8.0088606 -1.5302421
-12.913222 -19.130238 2.83395
-5.7123041 -8.4592829 -1.2533045
-5.7035575 -8.4431496 -0.89142895
-5.7059097 -8.44028 -0.53393149
-5.7158179 -8.4485826 -0.17804946
-3.9191871 -5.7755785 -1.8702265
-5.7515454 -8.472682 0.17874755
-4.3835459 -6.4550385 -1.8014081
-4.9468794 -7.281847 -1.7111752
-12.986232 -19.108664 2.0213161
-5.3564796 -7.8788629 -1.508967
-12.998899 -19.112949 2.8380935
-5.7551975 -8.4589872 -1.2562293
-5.7486882 -8.44625 -0.89386928
-5.7375841 -8.4236126 -0.53414083
-5.7663236 -8.4626312 -0.17874755
-3.9469564 -5.7730255 -1.87385
-5.7931547 -8.4733725 0.17916641
-4.4060278 -6.4420748 -1.8018579
-4.9678326 -7.2580538 -1.7096486
-13.075368 -19.096094 2.0248022
-5.4763227 -7.9979687 -1.5352479
-13.084646 -19.102491 2.8429682
-5.8011699 -8.4660559 -1.2601291
-5.7803893 -8.4294176 -0.89421791
-5.7722659 -8.414422 -0.53476888
-5.8229918 -8.4820185 -0.17958528
-4.009903 -5.8235507 -1.8945554
-5.8226972 -8.4530993 0.17916641
-4.4517088 -6.4603534 -1.8113058
-5.8038125 -8.4193907 0.53592026
-4.9863024 -7.2334576 -1.7077407
-13.158981 -19.082153 2.0279398
-5.5098166 -7.9869342 -1.5368123
-13.161394 -19.071405 2.8451619
-5.8351989 -8.4522896 -1.2611041
-5.8188381 -8.4223022 -0.89561236
-5.8265848 -8.4303675 -0.53707159
-5.8753147 -8.4945326 -0.18028337
-4.0003791 -5.7643766 -1.8800616
-5.8932099 -8.4918652 0.18042298
-4.4664536 -6.433569 -1.8081565
-5.0206232 -7.2264199 -1.710412
-13.247025 -19.059973 2.0307288
-5.559351 -7.9958797 -1.542444
-13.24715 -19.053055 2.8493054
-5.8714681 -8.4416466 -1.2625666
-5.868691 -8.4313745 -0.89875001
-5.8620114 -8.4155111 -0.53749031
-5.891211 -8.4542847 -0.17986451
-4.009408 -5.7345438 -1.8748853
-5.9403405 -8.4931498 0.18091165
-4.5067606 -6.4411077 -1.8149052
-5.0435653 -7.2056336 -1.7096486
-13.324904 -19.029934 2.0324719
-5.6019597 -7.9974599 -1.5465113
-13.335122 -19.030386 2.8532052
-5.902369 -8.4200697 -1.2625666
-5.8980865 -8.4108372 -0.89875001
-5.9234757 -8.440773 -0.54042113
-5.9321761 -8.4500351 -0.18021354
-4.0216122 -5.7094588 -1.8712618
-5.9500475 -8.4472466 0.18035316
-4.5572801 -6.467545 -1.8266027
-5.0686851 -7.1879854 -1.7096486
-13.414216 -19.015869 2.0359581
-5.6751347 -8.0450191 -1.5593389
-13.417614 -19.013632 2.8573489
-5.9531536 -8.4328861 -1.2674413
-5.9366064 -8.4032154 -0.90014446
-5.9537396 -8.4243469 -0.54063052
-5.9778018 -8.4521332 -0.18070221
-4.0304642 -5.6819096 -1.866603
-6.0257878 -8.4916582 0.18174936
-4.5719318 -6.4404736 -1.8234532
-5.0788536 -7.1519289 -1.7050693
-13.497977 -19.000517 2.0390959
-5.6745753 -7.9849057 -1.5515171
-13.4954 -18.982862 2.8597863
-5.9963617 -8.4314651 -1.2703662
-5.9713702 -8.3932228 -0.90119034
-5.9900603 -8.4132748 -0.54125851
-6.0258331 -8.4572735 -0.18126069
-4.1064339 -5.7463946 -1.8924849
-6.0553932 -8.4705725 0.18174936
-4.6000533 -6.4324007 -1.8257027
-5.1300607 -7.1708813 -1.7138464
-13.587405 -18.985691 2.042582
-5.7334614 -8.0084162 -1.5599647
-13.581235 -18.96307 2.86393
-6.0396285 -8.4298477 -1.2732911
-6.0238438 -8.4047174 -0.90467656
-6.0403428 -8.4215279 -0.54314262
-6.0459924 -8.4231911 -0.18098146
-4.0948644 -5.6881256 -1.8779911
-6.096611 -8.4656105 0.18209842
-4.5780535 -6.3546391 -1.8081565
-5.1688352 -7.1720428 -1.7184259
-13.664082 -18.95269 2.0441506
-5.8284006 -8.0812788 -1.5781111
-6.071341 -8.4119329 -1.2737786
-6.0694737 -8.4062548 -0.90711701
-6.0767212 -8.4101057 -0.54377061
-6.0800424 -8.4085178 -0.18112107
-4.0375729 -5.5674524 -1.8427917
-6.1261244 -8.4442778 0.18209842
-4.6608725 -6.4222097 -1.8320013
-6.1251235 -8.4367018 0.54638743
-5.216907 -7.1857309 -1.7260582
-13.743035 -18.922611 2.0460682
-5.8159361 -8.0049505 -1.5671607
-6.1123409 -8.406745 -1.2762158
-6.1011243 -8.3882389 -0.90746558
-6.1130939 -8.398531 -0.54439867
-6.0975857 -8.3710785 -0.18077204
-4.1561265 -5.6890388 -1.8878261
-6.1555634 -8.422842 0.18209842
-4.7028141 -6.4326448 -1.8396497
-5.258184 -7.1896625 -1.7314008
-13.838416 -18.914722 2.050426
-5.7843432 -7.9033041 -1.5512043
-6.1369572 -8.3789511 -1.2752409
-6.1444983 -8.3861771 -0.90955734
-6.1423736 -8.377141 -0.54439867
-6.1513295 -8.3862867 -0.18153994
-4.119854 -5.5982552 -1.862462
-6.195313 -8.4184885 0.18244746
-4.6894598 -6.3699341 -1.8261526
-5.28092 -7.1681023 -1.7306377
-13.925632 -18.89517 2.0535636
-5.849194 -7.9365535 -1.561529
-13.928569 -18.89225 2.8819664
-6.1717787 -8.3681393 -1.2767034
-6.1690021 -8.3582649 -0.90886009
-6.191473 -8.3856478 -0.54628277
-6.1829424 -8.36798 -0.18160973
-4.1383958 -5.5845623 -1.862462
-6.2389503 -8.41609 0.18286632
-4.7255964 -6.3723097 -1.8315514
-5.3163581 -7.166317 -1.7344538
-14.007209 -18.874491 2.0563526
-5.8215208 -7.8415422 -1.5468242
-6.2033195 -8.3497314 -1.2771908
-6.206193 -8.3505545 -0.91025454
-6.2230906 -8.3671894 -0.5464921
-6.2574844 -8.4073038 -0.18293612
-4.2248883 -5.6598735 -1.8924849
-6.3257213 -8.4711666 0.18454175
-4.7559733 -6.3667049 -1.8347007
-6.3006411 -8.4314442 0.55162108
-5.3237114 -7.1241274 -1.7287296
-5.9541464 -7.9619675 -1.5746696
-6.2657304 -8.3725271 -1.2840155
-6.2520199 -8.3511686 -0.91269487
-6.2738156 -8.3741875 -0.5483762
-6.3059869 -8.4110098 -0.18349461
-4.1784425 -5.5570798 -1.8629795
-6.3191905 -8.4010944 0.18349461
-4.7922287 -6.3687501 -1.8400996
-6.3886094 -8.4902992 0.55685461
-5.356812 -7.1164813 -1.7314008
-5.9783354 -7.9364033 -1.5737309
-6.3044758 -8.3632879 -1.2859653
-6.3267188 -8.3897438 -0.91931874
-6.3487267 -8.412818 -0.55235374
-6.343483 -8.4028187 -0.18377385
-4.2071462 -5.55478 -1.8671206
-6.3663321 -8.4055977 0.18405308
-4.8380361 -6.3854413 -1.8495475
-6.4182081 -8.467948 0.55685461
-5.4029713 -7.1258984 -1.73827
-6.0273023 -7.9464378 -1.5796754
-6.3777819 -8.40242 -1.2952274
-6.3872981 -8.4088602 -0.92385083
-6.3838387 -8.4012613 -0.55298179
-6.4090881 -8.4283772 -0.18482098
-4.2501445 -5.5730567 -1.8779911
-6.436873 -8.4373789 0.18523984
-4.8957644 -6.4149895 -1.8630446
-6.4477277 -8.4454918 0.55685461
-5.4218068 -7.1016994 -1.7367436
-6.0945797 -7.97715 -1.5900002
-6.433599 -8.4148006 -1.3005898
-6.4214549 -8.3928432 -0.92454815
-6.451972 -8.4296761 -0.55633128
-6.4457636 -8.4154806 -0.18503042
-4.2728963 -5.5605049 -1.8790263
-6.467505 -8.4164438 0.18527475
-4.8729959 -6.3391504 -1.8459483
-5.4681497 -7.1082339 -1.7432311
-6.0141211 -7.8123174 -1.561529
-6.4774675 -8.4111643 -1.3035146
-6.470171 -8.3956261 -0.92733705
-6.4681873 -8.3869963 -0.55507523
-6.497086 -8.4214287 -0.18565871
-4.3490376 -5.6188855 -1.903873
-6.5227938 -8.424305 0.18597284
-4.8985844 -6.3243284 -1.8468481
-5.4809036 -7.0735836 -1.7394148
-6.1708736 -7.9583101 -1.595006
-6.5301576 -8.415596 -1.3079019
-6.4994383 -8.3729897 -0.92733705
-6.5170279 -8.3896027 -0.55674994
-6.5229998 -8.3912439 -0.18551907
-4.3959427 -5.6387134 -1.9157786
-6.5792155 -8.4361753 0.18674076
-4.9517965 -6.3471384 -1.8585455
-5.5260949 -7.0807204 -1.7459024
-6.1524124 -7.877562 -1.583117
-6.5766077 -8.4146471 -1.3113142
-6.5408978 -8.3659477 -0.92908025
-6.5635033 -8.3888245 -0.55821538
-6.6163559 -8.4502964 -0.18733412
-4.4108281 -5.6172557 -1.9137081
-6.6086216 -8.4131603 0.18674076
-4.9606776 -6.3129597 -1.8535968
-5.5398593 -7.0474949 -1.7424678
-6.1395693 -7.8048029 -1.5727924
-6.6378632 -8.4321947 -1.3176514
-6.5996451 -8.3806314 -0.93326366
-6.6075792 -8.3846884 -0.55947143
-6.6755319 -8.4648333 -0.18817185
-4.3704886 -5.5260639 -1.8878261
-6.6776528 -8.4402237 0.18785772
-4.9476118 -6.2512918 -1.8405495
-5.6143899 -7.0912242 -1.7581142
-6.2023506 -7.8282251 -1.5818655
-6.6721926 -8.4151936 -1.3186264
-6.6412401 -8.3731537 -0.9350068
-6.6740599 -8.4085026 -0.56261158
-6.6876249 -8.4195595 -0.18768318
-4.492063 -5.6392131 -1.9318254
-6.7394776 -8.4575233 0.18876524
-4.9657574 -6.2294126 -1.8391999
-5.6452289 -7.0792575 -1.7600222
-6.3380637 -7.9424009 -1.6093979
-6.7287788 -8.4259777 -1.3239887
-6.7151933 -8.405961 -0.94128197
-6.7008758 -8.3820333 -0.56240225
-6.7444587 -8.4305153 -0.18845108
-4.5117202 -5.623498 -1.9318254
-6.7889833 -8.4588995 0.18932371
-5.0484724 -6.2880192 -1.8616948
-5.639174 -7.0212407 -1.7504818
-6.3707004 -7.9263873 -1.6106495
-6.7780542 -8.4271898 -1.3278885
-6.7694745 -8.4135151 -0.94476819
-6.7601562 -8.3959274 -0.56491435
-6.7763543 -8.4100351 -0.18852089
-4.560463 -5.6437778 -1.9442488
-6.8310409 -8.4507017 0.18967277
-5.0569134 -6.2536902 -1.8567461
-5.6685853 -7.0076199 -1.7520082
-6.3051143 -7.7889481 -1.5871843
-6.8274217 -8.4281578 -1.3317883
-6.8038216 -8.3960238 -0.94546551
-6.8498039 -8.4467421 -0.5699386
-6.796648 -8.3782005 -0.18831147
-4.5618443 -5.6053486 -1.9364842
-6.8893204 -8.4652252 0.19051047
-5.0714722 -6.2293305 -1.8544965
-5.6930118 -6.9877901 -1.7520082
-6.3421402 -7.7817779 -1.5900002
-6.860352 -8.411624 -1.3327633
-6.848206 -8.3907461 -0.94755721
-6.8449359 -8.3837557 -0.56721711
-6.9042954 -8.4504337 -0.19047557
-4.5620413 -5.5677748 -1.9287195
-6.9441805 -8.4720564 0.19120856
-5.1067762 -6.2281675 -1.8594455
-5.6962318 -6.9445858 -1.7459024
-6.346704 -7.7321095 -1.5843685
-6.9173923 -8.4213724 -1.3381255
-6.8785229 -8.371068 -0.94790584
-6.8995295 -8.3906651 -0.56931055
-6.9210424 -8.410841 -0.19012651
-4.5728421 -5.5413866 -1.9250962
-6.9635253 -8.4354296 0.19092932
-5.1346908 -6.2178144 -1.8616948
-5.7116861 -6.9140649 -1.7432311
-6.3975716 -7.7388339 -1.590313
-6.949275 -8.4002352 -1.3386129
-6.9432664 -8.389987 -0.95278651
-6.9568024 -8.4003716 -0.57161337
-6.9631205 -8.402029 -0.19047557
-4.6514258 -5.5967064 -1.9499428
-7.0415077 -8.4695034 0.19225572
-5.1663332 -6.2118397 -1.8652942
-7.0512099 -8.475153 0.57778901
-5.8186569 -6.9936943 -1.768418
-6.4270735 -7.7194905 -1.5909387
-7.0115948 -8.4155779 -1.3449502
-7.0056772 -8.4054909 -0.9573186
-7.0039935 -8.3975096 -0.57307881
-7.0052204 -8.3930244 -0.19082463
-4.6461349 -5.5508075 -1.93959
-7.0915718 -8.4694004 0.19281419
-5.2055025 -6.2146845 -1.8715929
-7.0807509 -8.4504881 0.57778901
-5.793859 -6.9146528 -1.7535348
-6.4349427 -7.6743045 -1.5862457
-7.0664482 -8.4214649 -1.3498249
-7.0452242 -8.3931952 -0.95871317
-7.0640936 -8.4097128 -0.57559091
-7.0370488 -8.3715811 -0.19089442
-4.662992 -5.5316014 -1.9385546
-7.1004648 -8.4201374 0.19225572
-5.1869555 -6.1488109 -1.857196
-5.7622509 -6.8283663 -1.7367436
-6.4782586 -7.6714168 -1.590313
-7.1086149 -8.4119081 -1.3522624
-7.0924845 -8.3898544 -0.96115357
-7.1011462 -8.3941526 -0.5762189
-7.1153264 -8.4049625 -0.19222081
-4.7010269 -5.5373816 -1.9463193
-7.1557021 -8.4257841 0.19295381
-5.2210035 -6.1455178 -1.8616948
-5.7631674 -6.7812829 -1.7298744
-6.5459499 -7.6969094 -1.6003247
-7.1559453 -8.4082098 -1.3556747
-7.1346445 -8.3802147 -0.96289659
-7.1304021 -8.3693151 -0.5762189
-7.1861372 -8.4287682 -0.19333775
-4.7341371 -5.5370893 -1.9520133
-7.2136645 -8.4341869 0.19372171
-5.2715645 -6.1613116 -1.8720427
-5.8965893 -6.8893981 -1.7626936
-6.5946245 -7.6995168 -1.6056436
-7.1930027 -8.3922224 -1.3571371
-7.1742287 -8.3673582 -0.9642911
-7.17518 -8.3625631 -0.57747501
-7.22333 -8.4127378 -0.19354719
-4.7483945 -5.5146747 -1.9499428
-7.3174481 -8.4953203 0.19571128
-5.3019428 -6.1532083 -1.875192
-5.9193201 -6.8672853 -1.7623119
-6.6201687 -7.6749549 -1.6053306
-7.2378206 -8.3850937 -1.360062
-7.2242255 -8.366395 -0.96708012
-7.2330575 -8.3707113 -0.57977778
-7.2526522 -8.3874722 -0.19354719
-4.7565322 -5.4872198 -1.9458016
-7.3455796 -8.4710073 0.19571128
-5.327426 -6.14148 -1.8769917
-5.9677944 -6.877274 -1.7699443
-6.674078 -7.6857734 -1.6122139
-7.286418 -8.3850212 -1.3639618
-7.2728434 -8.3664503 -0.96986908
-7.2974811 -8.3888731 -0.5827086
-7.3171902 -8.4056072 -0.19452453
-4.8188519 -5.5200653 -1.9634014
-7.3751049 -8.4453144 0.19571128
-5.3744736 -6.1521988 -1.8859898
-5.9943485 -6.8593578 -1.7707076
-6.7047663 -7.6668892 -1.6131524
-7.3574772 -8.4073391 -1.3717614
-7.3308764 -8.3739929 -0.97370398
-7.3082919 -8.3423185 -0.58124322
-7.370214 -8.4070787 -0.1951528
-4.8457446 -5.5119162 -1.9665072
-7.4388771 -8.458559 0.19661881
-5.3186841 -6.0456133 -1.8589954
-6.0454922 -6.8693428 -1.7787216
-6.7327933 -7.6449208 -1.6134652
-7.4156542 -8.4143686 -1.3771237
-7.4101305 -8.4051437 -0.98032773
-7.3849359 -8.3706741 -0.58501136
-7.4471607 -8.4352684 -0.19640939
-4.8457479 -5.4732699 -1.9587426
-7.481616 -8.4475098 0.19696786
-5.3785224 -6.0707703 -1.8724926
-6.0433917 -6.8188109 -1.7710892
-6.7974486 -7.6642332 -1.6225384
-7.4212627 -8.3617086 -1.3727365
-7.4394231 -8.3792276 -0.98032773
-7.4592128 -8.3956089 -0.58857024
-7.4685884 -8.4002542 -0.19619995
-4.8712525 -5.4635315 -1.9613309
-7.561636 -8.478055 0.19829424
-5.43471 -6.0912194 -1.8846399
-6.0566998 -6.7859573 -1.7680362
-6.8307424 -7.6478238 -1.6241028
-7.5033188 -8.3949566 -1.382486
-7.4845648 -8.3710289 -0.98241949
-7.4858088 -8.3665457 -0.58836091
-7.5245433 -8.4039288 -0.19689806
-4.8825483 -5.4378705 -1.958225
-7.5751486 -8.433754 0.19787538
-5.4416137 -6.0562644 -1.8796909
-6.069849 -6.7530937 -1.7649832
-6.8573966 -7.6239328 -1.6241028
-7.5405445 -8.3775663 -1.3839484
-7.521739 -8.3537359 -0.98346537
-7.5657735 -8.3967457 -0.59233844
-7.5752563 -8.4013748 -0.19745652
-4.939075 -5.4623489 -1.9732366
-7.6072259 -8.4102278 0.19794521
-5.4888697 -6.0661345 -1.8886892
-7.666563 -8.4698849 0.59872341
-6.1091943 -6.749331 -1.7695627
-6.8733559 -7.5882378 -1.6215998
-7.6017399 -8.3864908 -1.389798
-7.5695882 -8.3480949 -0.98590571
-7.5923529 -8.3673258 -0.59212905
-7.6260448 -8.3985691 -0.198015
-4.967217 -5.4550738 -1.9768599
-7.6850138 -8.436841 0.19920176
-5.546762 -6.0872698 -1.9012864
-6.1432977 -6.7395725 -1.7726158
-6.8518782 -7.5116601 -1.6103365
-7.6416726 -8.3716354 -1.391748
-7.6551085 -8.3834162 -0.99322683
-7.6295962 -8.3496218 -0.59275711
-7.6661129 -8.3837023 -0.19829424
-5.0397596 -5.4960794 -1.9980831
-7.7495627 -8.4482784 0.20010929
-5.5126395 -6.007565 -1.8823904
-6.1574922 -6.7079625 -1.7699443
-6.9408641 -7.5560708 -1.6250414
-7.7004042 -8.3770618 -1.3971103
-7.7112975 -8.3859749 -0.9967131
-7.7317262 -8.4023027 -0.59840941
-7.752223 -8.4186735 -0.19976024
-5.0929899 -5.5153556 -2.0115416
-7.7980022 -8.441741 0.20059796
-5.6195412 -6.0813174 -1.911634
-6.1848683 -6.6907525 -1.7710892
-6.9645152 -7.5288968 -1.6244158
-7.7619624 -8.3850927 -1.4029599
-7.7486458 -8.3677769 -0.99775898
-7.7610092 -8.3752632 -0.59840941
-7.7298918 -8.335845 -0.19843386
-5.1201043 -5.5060325 -2.0146475
-7.9091392 -8.5023193 0.20269224
-5.6261339 -6.0459704 -1.9066852
-6.2550049 -6.7194176 -1.7844458
-7.0567298 -7.5753641 -1.6397462
-7.802012 -8.369566 -1.40491
-7.8049831 -8.3698206 -1.0012451
-7.8283525 -8.3890047 -0.60134023
-7.8284497 -8.386178 -0.20024893
-5.1432528 -5.4923573 -2.0162005
-7.8552804 -8.3884678 0.20059796
-5.5262465 -5.8992834 -1.866194
-6.2757349 -6.6946797 -1.7836826
-7.1088362 -7.58074 -1.6460036
-7.8596082 -8.375493 -1.4102721
-7.8559752 -8.3657637 -1.0040342
-7.8479199 -8.3542671 -0.60071218
-7.8850679 -8.3879395 -0.20094702
-5.1627631 -5.4766769 -2.0167181
-7.9668293 -8.4482861 0.20269224
-5.6832032 -6.0245442 -1.9120839
-7.9778881 -8.4540997 0.60919058
-6.2696052 -6.6438465 -1.7756686
-7.0999923 -7.518538 -1.637869
-7.9160643 -8.3768625 -1.4151469
-7.9207191 -8.3759298 -1.0085663
-7.9456639 -8.3993664 -0.60594577
-7.9142995 -8.3603649 -0.20094702
-5.1894546 -5.4647212 -2.0193064
-7.9687333 -8.3914223 0.20199415
-5.7122502 -6.0131483 -1.9147834
-6.315558 -6.6435881 -1.7817745
-7.1424766 -7.5082102 -1.6413106
-7.9534707 -8.3578062 -1.4166094
-7.9499087 -8.3482294 -1.0085663
-7.9598613 -8.3528366 -0.60468972
-8.0013838 -8.3934803 -0.20241301
-5.2044921 -5.4423857 -2.0177534
-8.0270805 -8.3910608 0.20269224
-5.6049075 -5.8570104 -1.8715929
-6.3740072 -6.6583757 -1.7916965
-7.1754761 -7.4903617 -1.642875
-8.0444918 -8.3916531 -1.427334
-8.0093412 -8.3520632 -1.0124011
-8.0387516 -8.3768806 -0.60845786
-8.0210152 -8.3525562 -0.20213377
-5.227478 -5.42836 -2.0193064
-8.0923929 -8.4004335 0.20359977
-5.7402587 -5.9566836 -1.9098345
-6.3631458 -6.6007495 -1.7821561
-7.2235222 -7.4880161 -1.6478808
-7.9744682 -8.2606907 -1.4097847
-8.0412159 -8.3269215 -1.0127498
-8.0790491 -8.3602562 -0.60929525
-8.1085052 -8.3848829 -0.20359977
-5.2517738 -5.4156265 -2.0213768
-8.1411581 -8.392231 0.20408843
-5.7216597 -5.8960533 -1.8967873
-6.4203358 -6.6137147 -1.7916965
-7.2399793 -7.4528394 -1.6456908
-8.1526957 -8.3865261 -1.4361085
-8.1369047 -8.3673639 -1.0211166
-8.1443987 -8.3692198 -0.61201674
-8.1697426 -8.3923368 -0.20443749
-5.2854915 -5.4124656 -2.0270708
-8.1829147 -8.3794937 0.20443749
-5.7398181 -5.8756523 -1.8963374
-6.4269123 -6.5744176 -1.7871171
-7.2715602 -7.4358511 -1.6472552
-8.1943426 -8.3736372 -1.4385459
-8.1855783 -8.358839 -1.0235571
-8.1804943 -8.3507271 -0.61264473
-8.198988 -8.3637676 -0.20443749
-5.2885141 -5.3797545 -2.0213768
-8.2822218 -8.4221668 0.20618272
-5.7288618 -5.8236294 -1.8859898
-6.512023 -6.6174383 -1.8046715
-7.2849975 -7.3977551 -1.6444392
-8.209589 -8.3308392 -1.4361085
-8.2552147 -8.3742151 -1.0287864
-8.2488642 -8.3619337 -0.61557555
-8.2674685 -8.3749437 -0.20541482
-5.3358016 -5.3900924 -2.0322473
-5.808126 -5.8631282 -1.9053354
-6.5461373 -6.6058221 -1.8077245
-7.3330317 -7.3947234 -1.6494452
-8.2945509 -8.3584938 -1.445858
-8.2843962 -8.3453484 -1.0287864
-8.3230467 -8.3784304 -0.61892503
-8.31075 -8.3602161 -0.20576388
-5.3477664 -5.3645921 -2.029659
-5.7666245 -5.7807336 -1.8850898
-6.578866 -6.5926585 -1.810396
-7.3950896 -7.4054251 -1.6575798
-8.3629665 -8.3688068 -1.4526827
-8.3754511 -8.3783789 -1.036456
-8.3748426 -8.3719196 -0.62059987
-8.4275961 -8.4187756 -0.20792797
-5.3705659 -5.3499827 -2.0312121
-8.4238052 -8.3885956 0.20750912
-5.8226767 -5.7963152 -1.8967873
-6.5990553 -6.5668836 -1.8096325
-7.3648682 -7.3238487 -1.6450651
-8.4062071 -8.3535576 -1.4551201
-8.3876877 -8.3322411 -1.0343643
-8.4522066 -8.3904781 -0.62415868
-8.4569321 -8.3893061 -0.20792797
-5.3809667 -5.3230524 -2.0281062
-8.4501934 -8.356329 0.2074393
-5.8539624 -5.7869134 -1.9003865
-6.614954 -6.5369096 -1.8077245
-7.4480157 -7.3550029 -1.6578927
-8.4664001 -8.3548384 -1.4604822
-8.4450893 -8.3308954 -1.0378506
-8.4586878 -8.3384876 -0.62248397
-8.4975595 -8.3709641 -0.2082072
-5.4105396 -5.3150673 -2.0322473
-8.5706272 -8.4164495 0.20967323
-5.8643904 -5.7568889 -1.8972371
-6.6209173 -6.4972787 -1.8031452
-7.4553075 -7.3109818 -1.6538254
-8.4246244 -8.2557621 -1.4482955
-8.5139675 -8.3404074 -1.0427313
-8.5191422 -8.3396473 -0.62478673
-8.5381641 -8.352437 -0.20848644
-5.4580984 -5.3244786 -2.0431178
-8.5999517 -8.3864832 0.20967323
-5.8788695 -5.7309422 -1.8954376
-6.6280904 -6.4590554 -1.7989473
-7.4864435 -7.2904253 -1.6550769
-8.4989138 -8.2706079 -1.4560951
-8.5687351 -8.3356438 -1.0458689
-8.5481997 -8.3098602 -0.62478673
-8.5787449 -8.3337278 -0.20876569
-5.4863653 -5.3148012 -2.046741
-8.6521578 -8.3786697 0.21023169
-5.9100394 -5.7212296 -1.8990368
-6.699975 -6.483664 -1.8123039
-7.5217867 -7.2738609 -1.657267
-8.6105251 -8.320899 -1.4702318
-8.6149759 -8.3222933 -1.0479606
-8.6346321 -8.3354568 -0.6289736
-8.6595907 -8.353714 -0.21002226
-5.4923539 -5.2835641 -2.0420823
-8.6928825 -8.3595057 0.21051092
-5.9608798 -5.7302771 -1.9089346
-6.7069955 -6.4452739 -1.8081062
-7.5756269 -7.2749248 -1.6635244
-8.6595716 -8.3100357 -1.4736443
-8.6698542 -8.3169966 -1.0510982
-8.6867437 -8.3273792 -0.63064831
-8.7175798 -8.3511019 -0.21072036
-5.5317173 -5.2843771 -2.0498469
-8.7798557 -8.3843546 0.21190712
-5.965343 -5.6946321 -1.9039857
-6.7294531 -6.4218221 -1.8081062
-7.6309967 -7.2770648 -1.6700946
-8.7028942 -8.2934523 -1.4760816
-8.7421112 -8.3279104 -1.0563276
-8.7562647 -8.3355656 -0.63357919
-8.7756538 -8.3481865 -0.21141845
-5.5683489 -5.2823205 -2.0565763
-8.8613091 -8.4031897 0.2131637
-5.9908409 -5.6791368 -1.9057853
-6.7646523 -6.4104481 -1.8115407
-7.6721292 -7.2653246 -1.6735362
-8.7490959 -8.2793951 -1.4790065
-8.8116541 -8.335681 -1.0612082
-8.8201418 -8.3378782 -0.63609123
-8.8032904 -8.3190384 -0.21141845
-5.6219077 -5.2959671 -2.0695171
-8.8891239 -8.3737602 0.2131637
-6.0181537 -5.6672549 -1.9084847
-6.8298802 -6.4271593 -1.8229893
-7.7278337 -7.269619 -1.6804192
-8.8314648 -8.3020029 -1.4882686
-8.8755484 -8.3376141 -1.0653918
-8.8826857 -8.3413963 -0.63860339
-8.8497725 -8.3046818 -0.21183731
-5.6394391 -5.2772951 -2.0695171
-8.9183016 -8.3426781 0.2131637
-6.0549784 -5.6621866 -1.9138836
-6.8898792 -6.4406734 -1.833293
-7.7733703 -7.2614799 -1.6847994
-8.8284664 -8.2413235 -1.4829062
-8.8973207 -8.3026972 -1.0646945
-8.9234343 -8.3212357 -0.63944077
-8.9343014 -8.3255424 -0.2131637
-5.6634874 -5.2628379 -2.0715878
-8.9854593 -8.3468838 0.21407123
-6.0661383 -5.63306 -1.9111842
-6.9094419 -6.4139123 -1.8325297
-7.8232903 -7.2571397 -1.6901182
-8.9095879 -8.2590408 -1.4916809
-8.9671679 -8.3095074 -1.0695752
-8.9465628 -8.2846107 -0.63902211
-9.0748539 -8.3975239 -0.21581645
-5.6818237 -5.2430363 -2.0715878
-9.0498171 -8.3480082 0.21490893
-6.0728707 -5.5999608 -1.9071351
-6.9058051 -6.3658032 -1.8256606
-7.889256 -7.2672601 -1.6988785
-9.0274649 -8.3128195 -1.5067927
-9.0313063 -8.3105345 -1.0737587
-9.0371742 -8.3101101 -0.64341831
-9.0643749 -8.3321991 -0.21490893
-5.7020259 -5.2267771 -2.072623
-9.1511679 -8.3855 0.21665418
-6.0899711 -5.5784755 -1.9066852
-6.8689609 -6.289834 -1.810396
-7.9264278 -7.2530594 -1.7016943
-9.0784178 -8.3042755 -1.5106926
-9.0617571 -8.283227 -1.0741073
-9.0971251 -8.3097305 -0.64572108
-9.1362543 -8.3425484 -0.21595608
-5.7079 -5.1974354 -2.0684819
-6.1286159 -5.576611 -1.9129838
-6.923183 -6.2974057 -1.8191731
-7.9665155 -7.2413507 -1.7051359
-9.05445 -8.2244844 -1.5019178
-9.1319246 -8.2890377 -1.0789881
-9.154213 -8.3063593 -0.64781451
-9.1445827 -8.2917976 -0.21546741
-5.7140141 -5.1648192 -2.0638232
-9.2080336 -8.3230162 0.21665418
-6.2000961 -5.6022191 -1.9291801
-6.9680758 -6.2917228 -1.8248973
-7.9812708 -7.2015166 -1.7026329
-9.097846 -8.2061243 -1.5043553
-9.1252832 -8.2250986 -1.0748047
-9.1845942 -8.2727537 -0.64781451
-9.1883287 -8.2732086 -0.21581645
-5.732007 -5.1448431 -2.0638232
-6.2249413 -5.5833588 -1.9305301
-6.9666066 -6.2463927 -1.8187915
-7.9842911 -7.1538391 -1.6979399
-9.2165956 -8.2521734 -1.5189797
-9.2251987 -8.2569752 -1.0831715
-9.2491465 -8.2725964 -0.65032667
-9.2752466 -8.2901163 -0.21714284
-5.7470469 -5.1222324 -2.0627878
-6.205101 -5.5266027 -1.9183826
-6.998632 -6.2311749 -1.8214628
-8.0520115 -7.1640058 -1.7070131
-9.2216091 -8.1988468 -1.5150797
-9.3254452 -8.2882576 -1.0915384
-9.3615923 -8.3145332 -0.65618831
-9.3878822 -8.3320227 -0.21909751
-5.7750177 -5.1111026 -2.0664113
-9.4458885 -8.3570175 0.22014466
-6.2550092 -5.5320201 -1.9278306
-7.0291672 -6.2145071 -1.8237525
-8.1095371 -7.164628 -1.7138962
-9.2457714 -8.1655931 -1.5145923
-9.4319992 -8.3242102 -1.1006026
-9.4384918 -8.3240776 -0.65953779
-9.4394588 -8.3220062 -0.21965599
-5.7904844 -5.0906477 -2.0658937
-9.4735498 -8.3256474 0.22014466
-6.2557516 -5.4958124 -1.9224317
-7.0674376 -6.2067118 -1.8283319
-8.1258297 -7.1311817 -1.7123318
-9.2907047 -8.1505995 -1.5175172
-9.4775305 -8.3086472 -1.1026944
-9.4900818 -8.3137903 -0.66121256
-9.5151443 -8.3328161 -0.22077294
-5.8087893 -5.0726886 -2.0664113
-9.5011044 -8.2941885 0.22014466
-6.344419 -5.53654 -1.9440269
-7.1116514 -6.2038894 -1.8344377
-8.1613445 -7.1145811 -1.7148348
-9.2951517 -8.0972548 -1.5136174
-9.5140457 -8.2850227 -1.1037403
-9.550746 -8.3111181 -0.66351533
-9.5924606 -8.3415413 -0.2218899
-5.8220811 -5.0485854 -2.0648584
-9.6811037 -8.3919516 0.22363515
-6.3784337 -5.5271215 -1.9485261
-7.145134 -6.189312 -1.8374907
-8.1935968 -7.0925121 -1.7163991
-9.4014273 -8.1322918 -1.5262917
-9.6062059 -8.3064957 -1.1110613
-9.6552591 -8.3430233 -0.66874892
-9.621521 -8.3080025 -0.2218899
-5.8440619 -5.032012 -2.0664113
-9.7103386 -8.3581076 0.22363515
-6.3740516 -5.4844875 -1.9413276
-7.2053957 -6.197618 -1.8474127
-8.2512608 -7.0921979 -1.7232823
-9.5652857 -8.2158337 -1.5482283
-9.6683989 -8.3014669 -1.1148963
-9.6994801 -8.3222742 -0.66979563
-9.6808224 -8.3004017 -0.22258799
-5.8748069 -5.0228806 -2.0710702
-9.7394524 -8.3241625 0.22363515
-6.4168639 -5.4824586 -1.9485261
-7.2045927 -6.1533031 -1.8416885
-8.2594404 -7.0492439 -1.7198406
-9.5395336 -8.1360197 -1.5394537
-9.7276411 -8.29352 -1.1183825
-9.7649593 -8.3194523 -0.67230779
-9.7554169 -8.3054476 -0.22363515
-5.8967204 -5.0060949 -2.072623
-9.8080902 -8.3237562 0.22454266
-6.4701419 -5.4890203 -1.9588737
-7.1736226 -6.0836735 -1.8283319
-8.3201656 -7.0510211 -1.7273496
-9.6527061 -8.1745148 -1.553103
-9.7944746 -8.2887001 -1.122566
-9.8305368 -8.3162746 -0.67481989
-9.8607054 -8.3358936 -0.22538038
-5.9150295 -4.9844484 -2.072623
-9.9502449 -8.3848238 0.22712563
-6.4967146 -5.4726791 -1.9611233
-7.2559505 -6.1079125 -1.8435967
-8.3640909 -7.0357399 -1.731104
-9.6827021 -8.142046 -1.5533468
-9.8630047 -8.2877874 -1.127098
-9.9251919 -8.3341303 -0.67921609
-9.9081211 -8.3168526 -0.22579923
-5.9398022 -4.9699678 -2.0752113
-9.9809103 -8.3482981 0.22712563
-6.5376587 -5.4663329 -1.9674219
-7.268189 -6.0749927 -1.8413069
-8.3901167 -7.0077672 -1.7314169
-9.746006 -8.1344881 -1.558709
-9.9300375 -8.2822075 -1.1312815
-9.9664936 -8.3096685 -0.68005347
-9.9508295 -8.2907181 -0.22607847
-5.96838 -4.9568048 -2.0788348
-10.009991 -8.3134069 0.22712563
-6.5552025 -5.4422326 -1.966972
-7.3055129 -6.0608492 -1.8451231
-8.4248695 -6.9845333 -1.7332941
-9.752944 -8.0826855 -1.5552968
-10.007991 -8.2881622 -1.1368595
-10.018427 -8.2909079 -0.68151885
-10.025931 -8.2941751 -0.22712563
-5.9854131 -4.9392595 -2.0793524
-10.114632 -8.343791 0.22887085
-6.5762172 -5.4229465 -1.9678718
-7.3805704 -6.0840731 -1.8592429
-8.4589691 -6.9680758 -1.735797
-9.6969309 -7.982172 -1.5421348
-10.033981 -8.2566786 -1.1368595
-10.087618 -8.2949142 -0.68444973
-10.098284 -8.3007269 -0.22817276
-6.0056067 -4.9207854 -2.0803876
-10.219585 -8.3735723 0.23061611
-6.5881362 -5.3961682 -1.9660723
-7.3926468 -6.0508118 -1.8569533
-8.4728546 -6.9324832 -1.7339199
-9.8263149 -8.0341578 -1.5584654
-10.130628 -8.277071 -1.1445292
-10.192412 -8.3245859 -0.68968332
-10.189164 -8.3160057 -0.22956894
-6.0293832 -4.90694 -2.0829759
-10.248753 -8.3378487 0.23061611
-6.616003 -5.3805175 -1.9687717
-7.4381003 -6.0447803 -1.8630592
-8.5429983 -6.9402308 -1.7433058
-9.9174871 -8.0511055 -1.5684586
-10.208971 -8.2818241 -1.1501071
-10.201136 -8.2695656 -0.68821788
-10.202595 -8.2677984 -0.22921991
-6.0413151 -4.8799534 -2.0809052
-10.279243 -8.3002291 0.23061611
-6.6341629 -5.3550062 -1.9683217
-7.4968805 -6.04706 -1.8722179
-8.5791435 -6.9175534 -1.745496
-9.9793911 -8.0408573 -1.573577
-10.267191 -8.2668419 -1.1532447
-10.284284 -8.2746897 -0.69177675
-10.295158 -8.2804794 -0.23061611
-6.0727272 -4.8686523 -2.0855639
-10.465634 -8.3875561 0.23410659
-6.676559 -5.3489313 -1.9750704
-7.5669804 -6.0601254 -1.8844297
-8.6044397 -6.8860626 -1.745496
-9.9670954 -7.9737306 -1.5672399
-10.330222 -8.2583227 -1.1570797
-10.359918 -8.2761412 -0.6949169
-10.402129 -8.3068848 -0.23236135
-6.1084852 -4.8641315 -2.0922933
-10.493391 -8.3528051 0.23410659
-6.698833 -5.3304033 -1.9764199
-7.5440145 -6.0007787 -1.8737445
-8.6828966 -6.9017401 -1.7567593
-9.9950361 -7.9418693 -1.5674837
-10.432447 -8.2834883 -1.1654465
-10.465534 -8.3038101 -0.70015049
-10.486021 -8.3170795 -0.23361792
-6.1336737 -4.8510389 -2.0953991
-10.521032 -8.3179607 0.23410659
-6.7164726 -5.3081594 -1.9764199
-7.5654125 -5.9769454 -1.8741261
-8.8142662 -6.9585919 -1.7786602
-10.018022 -7.9032459 -1.5667524
-10.484888 -8.26859 -1.1682355
-10.493013 -8.2690592 -0.70015049
-10.514989 -8.2804251 -0.23361792
-6.1308165 -4.8140903 -2.0886698
-10.550004 -8.2811852 0.23410659
-6.731895 -5.2822762 -1.9755201
-7.5352526 -5.9105182 -1.8615327
-8.8307304 -6.9216871 -1.7770958
-10.064301 -7.8829169 -1.5696774
-10.554477 -8.2638731 -1.1727676
-10.559566 -8.261919 -0.70266259
-10.581636 -8.2732334 -0.23445563
-6.1521535 -4.7962232 -2.0902226
-10.692411 -8.3328104 0.23661973
-6.7672029 -5.2719193 -1.9804692
-7.5961113 -5.9155416 -1.8714547
-8.7659769 -6.821671 -1.7592622
-10.171675 -7.9098849 -1.5821079
-10.603571 -8.2398062 -1.1748594
-10.682981 -8.2985201 -0.70894295
-10.695751 -8.3024597 -0.23634049
-6.1727467 -4.7760062 -2.0912578
-10.765717 -8.3297005 0.23759706
-6.7578182 -5.2268047 -1.9723709
-7.6099744 -5.8816571 -1.8695467
-8.7784128 -6.7798362 -1.7567593
-10.13323 -7.82338 -1.5718709
-10.704833 -8.2587252 -1.1828777
-10.738632 -8.2788229 -0.71061772
-10.75001 -8.2846031 -0.23689896
-6.1909132 -4.7556071 -2.0917757
-10.827895 -8.3145437 0.23829515
-6.7908406 -5.2126813 -1.9764199
-7.6538224 -5.8729849 -1.8752708
-8.8459177 -6.7828078 -1.7655195
-10.146079 -7.7741132 -1.5694335
-10.787378 -8.2624969 -1.1888043
-10.815044 -8.2777042 -0.71375781
-10.888312 -8.3277569 -0.23927251
-6.2105484 -4.7363105 -2.0928109
-10.980893 -8.3712616 0.24101773
