# .PCD v0.7 - Point Cloud Data file format
VERSION 0.7
FIELDS x y z
SIZE 4 4 4
TYPE F F F
COUNT 1 1 1
WIDTH 1542
HEIGHT 1
VIEWPOINT 0 0 0 1 0 0 0
POINTS 1542
DATA ascii
28.237066 27.268206 2.0572219
8.0299749 7.7517529 -2.1694984
28.397055 27.40358 3.4525876
10.136619 9.7785635 -2.2307556
13.622738 13.132377 -2.3233173
21.100889 20.334225 -2.5637734
28.388748 27.338213 -2.0654912
28.364782 27.305567 -0.6872409
5.0471926 4.8434663 -1.8743677
6.6123652 6.343245 -2.1154397
28.407021 27.241377 2.062665
8.0612392 7.7277498 -2.1706433
28.432129 27.246386 3.4452665
10.16471 9.740797 -2.2298172
13.689154 13.109094 -2.3272171
21.197638 20.285255 -2.566911
5.0562334 4.8200383 -1.8717794
6.6372876 6.3228154 -2.1163394
8.0839767 7.6982689 -2.1698802
10.207233 9.7134295 -2.2316945
13.740587 13.066698 -2.328192
21.276346 20.225826 -2.5683055
5.1095057 4.8368883 -1.8852381
6.672061 6.3116593 -2.1203887
8.1108007 7.670002 -2.1698802
10.254002 9.6899481 -2.2345102
13.794766 13.026842 -2.3296547
21.349722 20.154165 -2.5686541
5.1165047 4.8097625 -1.8816146
6.6983089 6.2923384 -2.1217382
8.1461105 7.6497087 -2.1721697
10.282004 9.6486864 -2.2332587
13.863325 13.000333 -2.3335543
21.457741 20.114939 -2.5731862
5.1445613 4.8024178 -1.8857557
6.7077422 6.2594533 -2.118139
8.1770725 7.6252408 -2.1733146
10.312492 9.6131973 -2.2329459
13.912174 12.959697 -2.3345292
21.530727 20.042646 -2.5735347
5.1165447 4.7446117 -1.8697089
6.7309813 6.2373233 -2.1185889
8.2023115 7.5980849 -2.1733146
10.361935 9.5918989 -2.2363873
13.957324 12.911058 -2.3345292
21.632187 20.003595 -2.5777183
5.2055507 4.7934632 -1.8961084
6.75845 6.2190666 -2.1203887
8.2258921 7.5667505 -2.1725514
10.395356 9.5556688 -2.2363873
14.002304 12.862262 -2.3345292
21.719496 19.944128 -2.5798099
5.1823339 4.73876 -1.8816146
6.7829933 6.1980672 -2.1212883
8.2609549 7.5459328 -2.1748412
10.434483 9.5246534 -2.237639
14.061787 12.826681 -2.3369668
21.794867 19.873566 -2.5805073
29.11994 26.534296 -2.0646536
5.200273 4.721941 -1.8821322
6.8089161 6.1782832 -2.1226382
8.2872429 7.5170527 -2.1748412
10.464737 9.4855204 -2.2370131
14.109413 12.780187 -2.3374541
21.884777 19.816092 -2.5829475
29.108709 26.33869 -2.0573266
5.2325072 4.7179885 -1.8878261
6.8260956 6.1505651 -2.1212883
8.3134336 7.4880767 -2.1748412
10.500717 9.4515791 -2.237639
14.162799 12.738819 -2.3389168
21.965664 19.750242 -2.584342
29.096485 26.143475 -2.0499997
5.2921209 4.7383561 -1.9033554
6.848978 6.1279979 -2.1217382
8.3365936 7.4563961 -2.174078
10.536593 9.4174967 -2.2382646
14.207176 12.689307 -2.3389168
22.049337 19.68671 -2.5860851
29.092182 25.956657 -2.0433006
5.3164668 4.7284822 -1.9064611
6.8750896 6.1104288 -2.123538
8.3642111 7.4313154 -2.1748412
10.576631 9.3903704 -2.2401419
14.264024 12.655303 -2.3413541
22.162205 19.655783 -2.5916631
29.199015 25.87859 -2.0447662
5.3561072 4.7303576 -1.9147433
6.8978367 6.0876842 -2.1239879
8.3959875 7.40727 -2.1763675
10.621198 9.3638477 -2.2426448
14.314074 12.61068 -2.342329
22.239647 19.586208 -2.5927091
29.421116 25.892618 -2.0539773
5.350801 4.6925249 -1.9069788
6.9219742 6.0661387 -2.1248875
8.4232712 7.3792095 -2.1767492
10.65233 9.3254175 -2.242332
14.363986 12.565862 -2.3433039
22.331873 19.529448 -2.5954978
29.637655 25.90015 -2.0627697
5.4181356 4.718226 -1.9250962
6.9328184 6.0329838 -2.1217382
8.4548979 7.3549218 -2.1782756
10.683329 9.2868776 -2.2420189
14.416751 12.52346 -2.3447664
22.414957 19.464432 -2.5972412
29.830458 25.885559 -2.0698874
5.425806 4.6917009 -1.9219903
6.9538341 6.0087481 -2.1217382
8.4805222 7.3253613 -2.1782756
10.726147 9.2585669 -2.2442091
14.463387 12.475648 -2.3452539
22.503883 19.404291 -2.5996814
30.005371 25.854273 -2.0757489
5.453877 4.6827993 -1.9261314
6.9865994 5.9945889 -2.1253376
8.4985914 7.2893209 -2.1763675
10.762901 9.2249222 -2.2451477
14.506839 12.425096 -2.3452539
22.562405 19.317841 -2.5986357
30.225931 25.861065 -2.0847507
5.436377 4.6349072 -1.9142257
7.0178671 5.9790082 -2.1284869
8.5224876 7.2583394 -2.1759858
10.804065 9.1949749 -2.2470248
14.565248 12.387239 -2.3476913
22.67828 19.280254 -2.6042135
5.4702172 4.6308799 -1.9204375
7.0376515 5.955708 -2.1284869
8.5597668 7.2386866 -2.1790388
10.831474 9.1565542 -2.2463992
14.621411 12.351676 -2.3501287
22.763699 19.216413 -2.6063054
5.4692783 4.5990391 -1.9147433
7.0509396 5.9248357 -2.1262374
8.588233 7.2140517 -2.1801836
10.863373 9.1186867 -2.2463992
14.670519 12.305669 -2.3511038
22.866997 19.174097 -2.6108375
6.0013518 5.010798 -2.0948815
7.0715799 5.9001851 -2.1262374
8.6178837 7.1878033 -2.1813285
10.907278 9.0908251 -2.2489021
14.704229 12.246764 -2.3496411
22.967478 19.1222 -2.6146722
47.959839 39.901936 -3.2696369
6.0530138 5.0181751 -2.1067872
7.0906305 5.8742232 -2.1257875
8.6429234 7.1576748 -2.1813285
10.975468 9.0829248 -2.2564111
14.759131 12.20548 -2.3515911
23.086294 19.085079 -2.6205988
48.16349 39.787712 -3.2740331
6.0675097 4.9945617 -2.105752
7.1216264 5.8581042 -2.1289368
8.6617928 7.1224718 -2.1798022
10.993373 9.0332689 -2.2535954
14.801644 12.15389 -2.3515911
23.171259 19.019539 -2.6226904
48.475033 39.761223 -3.2857563
6.0983701 4.9843521 -2.1104105
7.1465573 5.8369083 -2.1302865
8.6987658 7.102128 -2.1828551
14.86552 12.119705 -2.3550034
23.27457 18.968754 -2.626874
63.875378 51.984211 -1.4375198
6.1397343 4.9825106 -2.1186929
7.1578083 5.8045602 -2.1275871
8.7296066 7.0766635 -2.1843815
11.031605 8.9364109 -2.2485893
14.901561 12.062748 -2.3540282
23.356125 18.899935 -2.6286173
6.1450505 4.9513555 -2.1145515
7.1749921 5.7770929 -2.1266873
8.7542515 7.046155 -2.1843815
11.038106 8.8780375 -2.2435834
14.937392 12.005679 -2.3530533
23.434387 18.828266 -2.6300116
6.1607895 4.9286666 -2.1140339
7.2088127 5.7629657 -2.1307364
8.7726603 7.0106487 -2.1828551
11.062853 8.8345251 -2.242332
14.991624 11.963367 -2.3550034
7.2365184 5.7438231 -2.1329858
8.79708 6.9799809 -2.1828551
11.098269 8.7995329 -2.2432706
15.039509 11.915905 -2.3559783
7.2595806 5.7209449 -2.1338856
8.8260155 6.9528775 -2.1839998
11.124255 8.757081 -2.242332
15.102858 11.880513 -2.3593907
6.2075028 4.8603077 -2.1124811
7.2764387 5.6931663 -2.1329858
8.8595123 6.9292808 -2.1862895
11.209232 8.7607689 -2.2532823
15.147362 11.830169 -2.3598781
19.561548 15.272176 -2.1712239
6.2168007 4.8326855 -2.1098928
7.293191 5.665339 -2.132086
8.8867474 6.9007244 -2.187053
11.252233 8.7312737 -2.2557852
15.17602 11.767488 -2.3579283
19.658836 15.237971 -2.1761045
6.2351623 4.8121343 -2.1104105
7.3190932 5.644608 -2.1338856
8.9045591 6.8648682 -2.1855264
11.273251 8.6847115 -2.2539082
15.232735 11.726545 -2.3603656
19.768749 15.213005 -2.1823797
6.2473211 4.7868166 -2.1088579
7.3464904 5.6249475 -2.1361351
8.9253521 6.8313551 -2.1847632
11.300362 8.6429043 -2.2532823
15.289344 11.68536 -2.362803
6.2624559 4.7638092 -2.1083403
7.3676305 5.6004496 -2.136585
8.961647 6.8096628 -2.1878161
11.327312 8.6010189 -2.2526565
15.352179 11.648722 -2.3662152
51.114872 38.742107 -3.3613296
6.2836723 4.7454104 -2.1098928
7.3809147 5.5700006 -2.1347857
8.9916344 6.7830658 -2.1893425
11.354115 8.5590467 -2.2520308
15.386402 11.590287 -2.3652403
51.090191 38.443371 -3.3508623
6.311017 4.7315612 -2.1135163
7.397191 5.5418668 -2.1338856
9.0121126 6.7492857 -2.1885793
11.396573 8.5288315 -2.2545338
15.433128 11.541259 -2.3662152
24.322956 18.182665 -2.6568556
51.108879 38.178722 -3.3433259
6.316648 4.701427 -2.1098928
7.4258723 5.5229912 -2.136585
9.026165 6.7107558 -2.1862895
11.426273 8.4890003 -2.2545338
15.489263 11.499146 -2.3686528
24.395874 18.104782 -2.6579015
51.135967 37.921555 -3.3364177
6.3345709 4.680501 -2.1104105
7.449811 5.5005074 -2.1379349
9.0590115 6.6862054 -2.1885793
11.471736 8.4607859 -2.2576625
15.538894 11.452079 -2.3701153
24.491009 18.043142 -2.6613877
51.161861 37.664684 -3.3295093
6.346199 4.654932 -2.1088579
7.4736795 5.4779263 -2.1392844
9.094964 6.6638279 -2.1916323
11.491634 8.4136915 -2.2557852
15.598001 11.411828 -2.37304
21.450039 15.687556 -2.3249664
51.160805 37.389221 -3.320926
6.3639717 4.6338863 -2.1093752
7.4864545 5.447217 -2.137485
9.1181717 6.6320372 -2.1916323
11.520936 8.3735237 -2.2557852
15.644159 11.36199 -2.3740151
49.344547 35.798351 -3.194901
6.3910675 4.6195674 -2.1129987
7.5060554 5.4235044 -2.1379349
9.1444483 6.6024685 -2.1923954
11.561453 8.3445234 -2.2582881
15.668872 11.300754 -2.3720651
26.921839 19.402355 6.450489
49.414387 35.599491 -3.191761
6.4079194 4.5994759 -2.1135163
7.5281091 5.3995395 -2.1388347
9.1567173 6.5652461 -2.1901057
11.584088 8.299511 -2.2570367
15.730824 11.262165 -2.3754773
26.925522 19.26259 6.4352245
6.405057 4.5636258 -2.1073048
7.543736 5.3709698 -2.1379349
9.1827793 6.5355177 -2.1908689
11.609768 8.2567368 -2.2564111
15.776516 11.211781 -2.3764522
27.043821 19.204851 6.4474363
6.4225235 4.5423574 -2.1078224
7.5703969 5.3502259 -2.1401844
9.2151556 6.5102224 -2.1931586
11.644976 8.2207155 -2.2576625
15.828526 11.165808 -2.3784022
21.642982 15.261787 -2.3169482
6.4509916 4.528789 -2.1119635
7.5810485 5.3181739 -2.1379349
9.2474709 6.4847765 -2.1954484
11.676834 8.1822863 -2.2582881
15.867408 11.110483 -2.3784022
21.776102 15.242135 -2.3254895
6.4746861 4.511764 -2.1145515
7.5963655 5.2894526 -2.1370349
9.2716637 6.453577 -2.1958301
11.718301 8.1504965 -2.2607911
15.912612 11.059563 -2.3793771
6.4919834 4.4902358 -2.1150692
7.6211972 5.2673345 -2.1388347
9.2860565 6.4155951 -2.1939218
11.740174 8.1050558 -2.2595396
15.960927 11.01071 -2.3808398
6.4964705 4.4598918 -2.1114457
7.6459641 5.2451105 -2.1406343
9.3083954 6.3831391 -2.1939218
11.774912 8.0684938 -2.2607911
15.997355 10.957716 -2.3808398
6.5192046 4.4437661 -2.1140339
7.6665387 5.2219186 -2.1415341
9.342494 6.3610778 -2.196975
11.801606 8.0293999 -2.2607911
16.050018 10.915774 -2.3832772
6.5403056 4.4264526 -2.1161046
7.6757398 5.1910095 -2.1392844
9.3651657 6.3311596 -2.1973565
11.834713 7.9946456 -2.2620428
16.091311 10.861906 -2.3837645
23.1525 15.610688 -1.4634181
6.5516729 4.3992219 -2.1145515
7.6954331 5.1652689 -2.1397343
9.3931961 6.3000741 -2.1985013
11.857369 7.9468193 -2.2607911
16.135727 10.810087 -2.3847394
23.073439 15.434661 -1.4548351
6.5702062 4.3784666 -2.115587
7.7191777 5.1402707 -2.1410842
9.4069614 6.2618051 -2.1965933
11.894908 7.911942 -2.2626684
16.178543 10.753074 -2.385227
23.028927 15.300391 -2.4189205
23.090565 15.329728 -1.4525323
6.5790014 4.3512473 -2.1135163
7.737072 5.1132965 -2.1410842
9.4385862 6.2354307 -2.1988828
11.935644 7.879076 -2.2651713
16.219297 10.698717 -2.3857143
23.115465 15.24184 -2.4224067
23.140604 15.246829 -1.452323
6.5876904 4.3240137 -2.1114457
7.7646527 5.0926685 -2.1437836
9.4602957 6.2024436 -2.1988828
11.959767 7.8352022 -2.2645457
16.279795 10.657261 -2.3891268
6.6043625 4.3020482 -2.1119635
7.7709508 5.0580902 -2.1406343
9.4950523 6.1779509 -2.201936
11.993671 7.7977109 -2.2657971
16.310234 10.596046 -2.3881519
6.6258297 4.2831616 -2.1140339
7.790195 5.0319924 -2.1410842
9.509963 6.1405067 -2.2004094
12.024136 7.7579422 -2.2664227
16.347124 10.539043 -2.3881519
6.6407409 4.260005 -2.1140339
7.8159151 5.0100293 -2.1433337
9.5280352 6.1051526 -2.1996462
12.051141 7.7159247 -2.2664227
16.400534 10.49262 -2.3905892
6.6523108 4.234725 -2.1129987
7.8333549 4.982718 -2.1433337
9.5559139 6.0760713 -2.2011726
12.088008 7.6801648 -2.2683001
16.43371 10.433175 -2.3901019
26.273067 16.673399 -2.7223969
6.6556182 4.204258 -2.1093752
7.8539968 4.9574218 -2.1442335
9.5803843 6.0447755 -2.201936
12.104714 7.6316042 -2.2664227
16.50362 10.396913 -2.3949764
26.270412 16.543371 -2.7161214
6.6842546 4.1913991 -2.1140339
7.8654394 4.9282432 -2.1428835
9.6037073 6.0150542 -2.2026992
12.146702 7.6018972 -2.2695515
16.534637 10.340025 -2.394489
26.321754 16.454046 -2.7157729
6.6988444 4.1680422 -2.1140339
7.886703 4.9052224 -2.1442335
9.6246433 5.9814963 -2.2026992
12.15842 7.5532389 -2.2670486
16.575584 10.28932 -2.3954639
24.797647 15.381175 -2.5529659
54.425518 33.745266 -3.3560958
6.7159152 4.1478367 -2.1150692
7.9070954 4.8797078 -2.1451333
9.6444244 5.9495487 -2.2026992
12.211619 7.5273342 -2.2720544
16.608023 10.229312 -2.3949764
24.769728 15.244411 -2.5445991
54.542988 33.555069 -3.3560958
6.7211881 4.1171412 -2.1119635
7.9274039 4.8541141 -2.146033
9.6695137 5.9162121 -2.2034624
12.239124 7.4825282 -2.2720544
16.657181 10.179554 -2.3969264
24.783686 15.133967 -2.5405898
24.945028 15.22054 -1.5314549
6.7371707 4.094656 -2.1124811
7.9518027 4.8290739 -2.1478326
9.6934652 5.8844585 -2.2042258
12.251655 7.4315662 -2.2695515
16.701166 10.122553 -2.3979013
24.838062 15.048404 -2.5407643
24.922834 15.087857 -1.5268494
6.7630038 4.0780954 -2.1161046
7.9577584 4.7966442 -2.1451333
9.7206745 5.8546343 -2.2057521
12.279615 7.3929386 -2.2701774
16.751652 10.077352 -2.4003389
24.951918 14.998555 -2.5470393
24.955606 14.994843 -1.5258026
6.7764916 4.055644 -2.1161046
7.9694371 4.7658348 -2.1437836
9.7332973 5.8183355 -2.2042258
12.312131 7.3540773 -2.2714286
16.776495 10.012714 -2.3988762
26.421665 15.762987 -2.6917179
25.052399 14.934237 -1.528524
6.7906041 4.0319695 -2.1161046
7.9960814 4.7439508 -2.1464829
9.7501659 5.7823281 -2.2034624
12.347925 7.3170938 -2.2733059
16.814764 9.9561119 -2.399364
26.462816 15.662537 -2.6903234
55.024029 32.541119 -3.350234
6.799644 4.0052977 -2.1145515
8.0176296 4.7189775 -2.1478326
9.7804461 5.7542291 -2.2057521
12.369985 7.2719479 -2.2726803
16.866533 9.9074059 -2.4018011
26.438292 15.523669 -2.6823051
54.975365 32.253838 -3.3403952
6.8152509 3.9825141 -2.1150692
8.0391026 4.6939082 -2.1491826
9.8055573 5.7230248 -2.206897
12.385056 7.2227502 -2.270803
16.911304 9.8544712 -2.4032638
26.502653 15.437299 -2.683351
55.049625 32.039646 -3.3380923
6.834126 3.9616051 -2.1166222
8.0419464 4.6580048 -2.1455832
9.833971 5.6936784 -2.2088051
12.42045 7.1854119 -2.2726803
16.938723 9.7914085 -2.4022889
26.580524 15.358653 -2.6857913
55.112694 31.819344 -3.3351614
6.8479142 3.9377239 -2.1166222
8.0632286 4.6328158 -2.1469328
9.8503828 5.6573586 -2.2080419
12.459165 7.1498752 -2.2751832
16.990015 9.7420988 -2.404726
26.737694 15.325214 -2.69625
55.240753 31.636709 -3.3362081
6.8700075 3.9185834 -2.1192105
8.0827351 4.6065731 -2.1478326
9.863245 5.6190543 -2.2065153
12.477178 7.1024346 -2.2739315
17.008427 9.6778469 -2.4027762
26.791023 15.231795 -2.69625
6.8711948 3.8891206 -2.115587
8.1081438 4.5855021 -2.150532
9.8852425 5.5882502 -2.2072787
12.504101 7.0629654 -2.2745574
17.061171 9.6331072 -2.4057012
26.84486 15.144819 -2.6965985
6.8907919 3.870095 -2.1176574
8.1131077 4.5528684 -2.1478326
9.9071455 5.5573573 -2.2080419
12.530899 7.0233955 -2.2751832
17.101622 9.5773687 -2.4066761
26.914946 15.060757 -2.6983416
55.603512 31.101233 -3.3389297
6.9066176 3.8457546 -2.118175
8.1340609 4.5273619 -2.1491826
9.9325943 5.5238729 -2.2091868
12.549655 6.9735732 -2.2739315
17.131475 9.5156908 -2.4061885
26.984779 14.976375 -2.7000849
6.9250741 3.8244226 -2.1197281
8.1540108 4.4994035 -2.1500821
9.96385 5.4958029 -2.211858
12.587756 6.9373608 -2.2764347
17.161114 9.4539127 -2.4057012
27.071791 14.901324 -2.7035711
6.9326344 3.7986536 -2.118175
8.1688871 4.4723368 -2.1500821
9.9665184 5.4542508 -2.2084234
12.603761 6.8917856 -2.2751832
17.202818 9.402668 -2.4071634
27.152534 14.82865 -2.7067087
6.9367085 3.771028 -2.115587
8.1888094 4.4480147 -2.1514318
9.9914541 5.4249148 -2.20995
12.626544 6.8499546 -2.2751832
17.263456 9.3577013 -2.4110632
27.19455 14.734736 -2.7060115
27.654337 14.971361 -1.6480595
6.9583292 3.7513797 -2.118175
8.1991405 4.4166293 -2.1500821
10.012054 5.3909431 -2.2103314
12.650379 6.8058343 -2.2751832
17.28203 9.2898598 -2.4091134
27.235291 14.634053 -2.7049656
27.702906 14.872855 -1.6478502
6.9747901 3.728888 -2.1192105
8.2110691 4.3861475 -2.1491826
10.045605 5.3615985 -2.2133844
12.674058 6.7616372 -2.2751832
17.321362 9.2332077 -2.4100883
27.348532 14.565985 -2.7108922
6.9867048 3.7023928 -2.1186929
8.2305355 4.3578444 -2.1500821
10.065188 5.3247457 -2.2133844
12.691772 6.7114429 -2.2739315
17.355085 9.1696634 -2.4100883
27.482786 14.508429 -2.7189105
45.766651 24.140234 -2.7117355
7.0087771 3.681253 -2.1212809
8.2516279 4.3303671 -2.1514318
10.074203 5.2823515 -2.2110946
12.73728 6.6758871 -2.2776861
17.378023 9.1004715 -2.4086261
27.588743 14.435305 -2.7241399
45.780476 23.933474 -2.7073393
7.0050883 3.6466177 -2.1161046
8.2709036 4.3018909 -2.1523318
10.100463 5.2490158 -2.2126212
12.754653 6.6255121 -2.2764347
17.43593 9.0495148 -2.4120383
27.733435 14.38179 -2.7332039
45.761494 23.710377 -2.7010589
7.0285239 3.6308007 -2.1197281
8.2878399 4.2776752 -2.1532316
10.115994 5.2190208 -2.2126212
12.761357 6.5781708 -2.2739315
17.453682 8.9892426 -2.4105759
27.86101 14.34322 -2.7415709
45.84586 23.581793 -2.7018964
7.0445948 3.6080036 -2.1207633
8.283639 4.2389512 -2.1482825
10.148135 5.1908274 -2.2156742
12.801833 6.542572 -2.2770603
17.481419 8.9264612 -2.4100883
27.907362 14.244061 -2.7412224
29.259832 14.921515 -1.7213298
7.0640349 3.5868917 -2.122834
8.3105497 4.2161837 -2.1514318
10.167943 5.1562624 -2.2160556
12.821071 6.4960561 -2.2764347
17.516014 8.8671741 -2.4105759
28.252026 14.29588 -2.7701581
46.822144 23.672096 -2.7496266
7.0782394 3.5630784 -2.1233516
8.3339195 4.1915288 -2.1536813
10.173602 5.1145625 -2.2133844
12.847194 6.4530449 -2.2770603
17.564604 8.8148766 -2.4130132
28.764774 14.429465 -2.815479
7.0750747 3.5305908 -2.1186929
8.3467579 4.1615405 -2.1532316
10.191389 5.0790257 -2.2133844
12.873178 6.4099178 -2.2776861
17.600842 8.7601318 -2.4139881
27.86232 13.855234 -2.7223969
7.0884757 3.5079644 -2.1192105
8.3605127 4.1338367 -2.1532316
10.220498 5.0512881 -2.2160556
12.876654 6.3584442 -2.2745574
17.640478 8.7069845 -2.4154506
27.92956 13.773329 -2.7244885
7.1139426 3.4912488 -2.1233516
8.3741741 4.106091 -2.1532316
10.228376 5.0130496 -2.2141476
12.91186 6.3226609 -2.2770603
17.663631 8.64186 -2.4144754
28.084856 13.728271 -2.7349472
7.1249561 3.4643018 -2.122834
8.3849516 4.0751328 -2.1523318
10.25375 4.97895 -2.2156742
12.931391 6.2735724 -2.2764347
17.711555 8.5888071 -2.416913
28.118267 13.623196 -2.7335527
7.135263 3.438576 -2.1223164
8.4086084 4.0486021 -2.1545811
10.263988 4.9397287 -2.2141476
12.971015 6.2369523 -2.2795632
17.742912 8.5238371 -2.416913
28.12973 13.507705 -2.7300665
7.1315331 3.406153 -2.1176574
8.4219885 4.0206933 -2.1545811
10.279397 4.9030232 -2.2137661
12.988059 6.1922073 -2.2789376
17.781834 8.4700785 -2.4183755
28.176708 13.409437 -2.7300665
7.1567583 3.3890977 -2.1217985
8.4412565 3.993773 -2.155931
10.304475 4.8731022 -2.2156742
12.998878 6.1417718 -2.2770603
17.81488 8.4096556 -2.4188631
28.246248 13.327822 -2.7325068
7.1685443 3.3640969 -2.1217985
8.4445601 3.959317 -2.1532316
10.335643 4.8437705 -2.2187271
13.020238 6.0963564 -2.2770603
17.854918 8.3524599 -2.4203253
28.332304 13.247715 -2.7363417
7.1837463 3.3406842 -2.122834
8.4583282 3.9298177 -2.1532316
10.348928 4.806006 -2.2179639
13.03427 6.0475469 -2.2758088
17.873161 8.2850704 -2.4188631
28.403681 13.160467 -2.7387819
7.2023811 3.3188233 -2.1249044
8.4808464 3.9043412 -2.1554811
10.358503 4.7665763 -2.2164373
13.076839 6.0119104 -2.2795632
17.916401 8.2292624 -2.4208128
28.431343 13.05292 -2.7370389
7.2033787 3.288846 -2.1217985
8.4961958 3.8755243 -2.155931
10.37508 4.7303867 -2.2164373
13.10134 5.9678674 -2.280189
17.945019 8.1666679 -2.4208128
28.489872 12.95358 -2.7380848
7.2083435 3.2592406 -2.1197281
8.5096731 3.8458412 -2.155931
10.392347 4.6923308 -2.2164373
13.105121 5.9116826 -2.2770603
18.002367 8.1170464 -2.4247127
28.571249 12.870411 -2.7415709
7.2355442 3.2411647 -2.1243868
8.5219316 3.8138313 -2.1554811
10.417625 4.6600318 -2.2183454
13.140102 5.8723516 -2.2795632
18.02475 8.0477591 -2.4237378
28.674223 12.796591 -2.747149
7.2485805 3.2166698 -2.1249044
8.5327501 3.7847626 -2.1550312
10.435625 4.6244316 -2.2187271
13.166727 5.8319483 -2.2808149
18.036816 7.9815202 -2.421788
28.726009 12.699636 -2.7478461
7.2609749 3.1933978 -2.1254222
8.5494785 3.75652 -2.155931
10.4509 4.5898075 -2.2187271
13.183388 5.7843614 -2.280189
18.057291 7.9153266 -2.4208128
28.80081 12.618704 -2.7509837
7.2632222 3.1641729 -2.122834
8.5732594 3.7313216 -2.1586304
10.459658 4.5501642 -2.2172008
13.196251 5.7351608 -2.2789376
18.113949 7.864892 -2.4247127
28.797159 12.497477 -2.7464516
42.46312 18.410637 -2.4255624
7.2671285 3.1357367 -2.1207633
8.5719166 3.6951993 -2.1550312
10.466463 4.509738 -2.2152925
13.208934 5.6859345 -2.2776861
18.148584 7.8047557 -2.4256876
28.851595 12.401594 -2.7474976
7.2851353 3.1133888 -2.122834
8.5793867 3.662957 -2.1536813
10.494781 4.4785719 -2.2179639
13.228703 5.6397882 -2.2776861
18.183022 7.7444725 -2.4266624
28.960705 12.328894 -2.7537727
7.3101921 3.093962 -2.1269751
8.5975056 3.6352658 -2.1550312
10.510351 4.4419084 -2.2179639
13.259226 5.5981903 -2.2795632
18.198971 7.6763206 -2.4252002
29.025593 12.23702 -2.7558644
7.3227286 3.0691738 -2.1274927
8.6173306 3.6082449 -2.1568308
10.522169 4.4036794 -2.2172008
13.285975 5.5549235 -2.2808149
18.240307 7.6188726 -2.42715
29.064451 12.134099 -2.7555158
7.3209081 3.0384085 -2.1238692
8.6352749 3.580384 -2.1581805
10.535665 4.3661695 -2.216819
13.297983 5.5054932 -2.2795632
18.27046 7.5566673 -2.4276373
29.172913 12.059978 -2.7617912
7.3314686 3.0128367 -2.1238692
8.645298 3.5509858 -2.1577303
10.55084 4.3293686 -2.216819
13.308858 5.4583635 -2.278312
18.288071 7.4930329 -2.4266624
29.166893 11.938443 -2.7572591
7.3449988 2.9899628 -2.1249044
47.023048 19.132353 0.88612849
8.6468105 3.5163796 -2.1550312
10.574233 4.2980499 -2.2187271
13.338813 5.4163289 -2.280189
18.32147 7.432138 -2.4276373
29.272799 11.868599 -2.7635343
7.3661408 2.9686401 -2.1280103
8.6662617 3.4890881 -2.1568308
10.58917 4.2611151 -2.2187271
13.36497 5.3726788 -2.2814405
18.339937 7.3651757 -2.4266624
29.365824 11.787118 -2.768415
7.3728714 2.9414759 -2.1269751
8.6856289 3.461704 -2.1586304
10.587566 4.2175846 -2.2152925
13.38731 5.3274627 -2.2820661
18.354467 7.2967072 -2.4252002
29.37179 11.664706 -2.7649286
42.27494 16.780519 -2.3836937
7.3764143 2.9115975 -2.1249044
47.098064 18.590416 0.88382477
8.6994734 3.4320769 -2.1590803
10.608432 4.180912 -2.2164373
13.403069 5.276916 -2.2814405
18.405685 7.242774 -2.4286125
29.471659 11.585455 -2.7705069
7.3973293 2.8900473 -2.1280103
47.136078 18.40604 0.88326627
8.704731 3.3973365 -2.1572804
10.635765 4.1488481 -2.2191086
13.417728 5.2286611 -2.2808149
18.417309 7.1695085 -2.4266624
29.471073 11.466607 -2.7666719
7.4037671 2.8628199 -2.1269751
47.047642 18.191946 0.88047391
8.7104979 3.3663423 -2.155931
10.64835 4.1109972 -2.2187271
13.442366 5.1869774 -2.2820661
18.418753 7.0998306 -2.4237378
29.518358 11.36652 -2.767369
42.765209 16.458887 -2.4014878
7.4204373 2.8410134 -2.1290457
47.073513 18.013302 0.87977582
8.7367573 3.3414834 -2.1595302
10.671093 4.0791655 -2.2206352
13.456701 5.1386104 -2.2814405
18.439716 7.0340738 -2.4232502
29.567064 11.272821 -2.768415
43.065048 16.401909 -2.4150953
7.4303102 2.8150918 -2.1290457
47.079994 17.827641 0.87872869
8.7410755 3.3082128 -2.1577303
10.670579 4.0363321 -2.2175822
13.48564 5.0958056 -2.2833178
18.449301 6.9640508 -2.4213002
29.64724 11.185022 -2.7722497
42.374466 15.969731 -2.3732264
7.4382811 2.7884614 -2.1285279
47.134453 17.660372 0.87858903
8.7635202 3.2817783 -2.16043
10.697474 4.00388 -2.2202537
13.507048 5.0500808 -2.2839434
18.495811 6.9079471 -2.4242251
29.633837 11.061962 -2.767369
7.4425354 2.7604663 -2.1269751
8.7730942 3.250493 -2.1599801
10.711385 3.9665115 -2.2202537
13.520886 5.0015335 -2.2833178
18.553331 6.8557234 -2.4286125
29.698433 10.968124 -2.7698095
42.8372 15.803476 -2.392905
7.4593811 2.7371302 -2.1290457
8.777071 3.2171645 -2.1581805
10.730695 3.9311256 -2.2213984
13.549394 4.9583759 -2.2851949
18.58342 6.7968912 -2.4295874
29.74777 10.868484 -2.7708554
7.4720478 2.7136993 -2.1300809
8.7876911 3.1880388 -2.1581805
10.754746 3.8995321 -2.2236881
13.55462 4.9093771 -2.2833178
18.613323 6.737926 -2.4305623
29.791145 10.77248 -2.7715526
42.162327 15.229284 -2.3493614
7.479187 2.6882544 -2.1295633
8.8092184 3.1628327 -2.1608799
10.752833 3.8585491 -2.2206352
13.578262 4.8670707 -2.2845693
18.655418 6.6796083 -2.4329998
29.845461 10.680348 -2.7732956
7.4848852 2.6608343 -2.1285279
8.8257132 3.1340218 -2.1622295
10.764388 3.8203321 -2.2202537
13.602616 4.8222871 -2.2858207
18.693594 6.6197448 -2.4349496
29.878801 10.57478 -2.7729471
7.5014186 2.6372521 -2.1305985
8.8310852 3.1012557 -2.1608799
10.775805 3.7820809 -2.219872
13.600726 4.7682366 -2.282692
18.720329 6.5557761 -2.4354372
29.772614 10.420388 -2.7596993
42.633648 14.90506 -2.3669462
7.5105782 2.6110528 -2.1305985
8.8381748 3.0691299 -2.1599801
10.820472 3.7553885 -2.2263594
13.628487 4.7246108 -2.2845693
18.743101 6.4903855 -2.4354372
29.857763 10.333334 -2.7642314
42.768478 14.784852 -2.3715518
7.5251279 2.5867019 -2.1321514
8.8414602 3.0357349 -2.1581805
10.842801 3.7207785 -2.2282674
13.652367 4.6795812 -2.2858207
18.765644 6.4249153 -2.4354372
29.999208 10.26519 -2.7739928
7.5341096 2.5604236 -2.1321514
8.8741474 3.0123682 -2.1635792
10.825975 3.6728177 -2.2221618
13.661137 4.6293573 -2.2845693
18.795477 6.3619213 -2.4364121
30.080156 10.175726 -2.7781763
7.5338454 2.5310309 -2.1295633
8.8772182 2.9788954 -2.1617796
10.84059 3.6356325 -2.2225432
13.688451 4.5854106 -2.2864466
18.821335 6.2975283 -2.4368994
30.051247 10.049188 -2.7722497
62.065556 20.730711 -3.4293661
7.5481353 2.506542 -2.1311162
8.8912621 2.9491146 -2.1626794
56.006027 18.565615 3.0922179
10.855079 3.5983841 -2.2229249
13.689372 4.53263 -2.2839434
18.862049 6.2380285 -2.439337
30.101278 9.9492226 -2.7736442
61.985817 20.46386 -3.4209926
62.590828 20.639372 -1.1503928
7.562346 2.481988 -2.1326692
8.8940964 2.9156299 -2.1608799
56.05151 18.363796 3.0911713
10.865708 3.5598621 -2.2225432
13.705112 4.4848137 -2.2839434
18.891254 6.1746206 -2.4403119
30.150978 9.8490305 -2.775039
62.01889 20.234985 -3.4188991
7.5691257 2.454977 -2.1321514
8.9023647 2.8839669 -2.16043
10.879936 3.5225136 -2.2229249
13.739477 4.4430275 -2.2870722
18.893806 6.1025348 -2.4378746
30.207924 9.7510748 -2.7771306
62.089149 20.01836 -3.4188991
7.580904 2.4310451 -2.1331868
8.919302 2.8568094 -2.1622295
10.867249 3.4786365 -2.2179639
13.754134 4.3974442 -2.2870722
18.951757 6.0519276 -2.4427493
30.190742 9.6351042 -2.7725985
62.155197 19.812338 -3.4188991
7.5819769 2.4022355 -2.1311162
8.9292212 2.8256557 -2.1622295
10.888684 3.443644 -2.219872
13.769402 4.3494029 -2.2870722
18.980341 5.9881201 -2.4437242
30.18619 9.5176687 -2.7691121
62.223972 19.595268 -3.4188991
7.5958481 2.3774841 -2.1326692
8.9408884 2.7950528 -2.1626794
10.917505 3.4108803 -2.2233064
13.765642 4.2954311 -2.2839434
19.012503 5.9253693 -2.4451866
30.276295 9.4300232 -2.7743416
62.292 19.37793 -3.4188991
7.6041012 2.3509531 -2.1326692
8.9412823 2.7609491 -2.16043
10.933097 3.3739054 -2.2240696
13.795655 4.2520046 -2.2864466
19.044449 5.8624845 -2.4466491
30.309029 9.3242731 -2.7743416
62.359249 19.160416 -3.4188991
7.6141081 2.3249609 -2.1331868
8.9508629 2.7297275 -2.16043
10.93354 3.3322897 -2.2217801
13.810415 4.2038198 -2.2864466
19.057199 5.7936563 -2.4456742
30.337584 9.2172518 -2.7739928
62.425758 18.942608 -3.4188991
7.6295757 2.3005974 -2.135257
8.9696674 2.7012739 -2.1626794
10.941345 3.2929695 -2.2210169
13.828785 4.1567335 -2.2870722
19.096319 5.7328115 -2.4481115
30.396282 9.1193342 -2.7764332
62.491501 18.724569 -3.4188991
7.6190434 2.2684441 -2.1300809
8.9753075 2.6688344 -2.1617796
10.952771 3.2547646 -2.2210169
13.843211 4.1084328 -2.2870722
19.123827 5.6683688 -2.4490864
30.427931 9.0131674 -2.7764332
62.55648 18.506332 -3.4188991
7.6324759 2.2434671 -2.1316338
8.9957867 2.6407838 -2.164479
10.971602 3.2187202 -2.2225432
13.849885 4.0578671 -2.2858207
19.154932 5.6049199 -2.4505491
30.436258 8.9001951 -2.7743416
62.620701 18.28784 -3.4188991
7.6476831 2.2189624 -2.1337044
8.9955921 2.6066523 -2.1622295
11.018602 3.1907752 -2.229794
13.863966 4.0094938 -2.2858207
19.18582 5.5413404 -2.4520113
30.440344 8.7861547 -2.7719011
62.74173 18.085751 -3.422039
7.6553817 2.192255 -2.1337044
9.0121307 2.5773811 -2.1640291
11.012682 3.1474404 -2.2263594
13.893074 3.9654081 -2.2883236
19.189772 5.4699764 -2.4500613
30.493824 8.6863871 -2.7739928
62.86211 17.883041 -3.4251795
7.6574101 2.1639411 -2.1321514
9.0266981 2.5474968 -2.1653788
11.008487 3.1047137 -2.2233064
13.906831 3.9168911 -2.2883236
19.224037 5.4072633 -2.4520113
30.504776 8.5745058 -2.7722497
63.097206 17.712063 -3.4345996
7.6556129 2.1346061 -2.1295633
9.0336599 2.5154474 -2.1649289
11.015474 3.0652177 -2.2225432
13.924225 3.8693843 -2.2889495
19.23897 5.3390584 -2.451524
30.588278 8.4828863 -2.7771306
63.158646 17.491718 -3.4345996
7.6686058 2.109405 -2.1311162
9.0423841 2.4839005 -2.1649289
11.026107 3.0267448 -2.2225432
13.926214 3.8176258 -2.2870722
19.276638 5.2771058 -2.4539614
30.656137 8.3865843 -2.7806168
63.265572 17.283766 -3.4371119
7.6833797 2.0846488 -2.1331868
9.0472383 2.4513001 -2.1640291
11.044184 2.9902925 -2.2240696
13.939457 3.7689872 -2.2870722
19.294939 5.2097898 -2.4539614
30.704464 8.2847042 -2.7823598
63.414223 17.086737 -3.441927
67.64151 18.200441 -1.2226808
7.6943417 2.0588164 -2.1342218
9.0519733 2.4187 -2.1631293
11.048864 2.950206 -2.2229249
13.956347 3.7213204 -2.2876978
19.309174 5.1413798 -2.453474
30.702391 8.1692705 -2.7795711
63.49279 16.870388 -3.4429736
7.7033496 2.0324364 -2.1347394
9.0731335 2.3921485 -2.1662786
11.0515 2.9096179 -2.2213984
13.964787 3.6740232 -2.2870722
19.322273 5.0763149 -2.4529862
30.834785 8.0893574 -2.7889836
63.683617 16.695211 -3.4503005
7.6969609 2.0034714 -2.1311162
9.0757723 2.3589902 -2.1649289
11.064891 2.8739378 -2.2221618
13.985175 3.6272345 -2.2883236
19.351408 5.0118275 -2.4544489
30.792002 7.9690967 -2.7827084
63.811119 16.490816 -3.4540687
7.7039061 1.9765972 -2.1311162
9.0858393 2.3277764 -2.1653788
11.074853 2.8353043 -2.2221618
13.97096 3.571542 -2.2839434
19.388018 4.949152 -2.4568863
30.923885 7.8881483 -2.7921214
7.7201238 1.9520593 -2.1337044
9.09202 2.2955716 -2.1649289
46.721813 11.787745 2.5253148
11.090395 2.7980664 -2.2233064
13.994834 3.525651 -2.2858207
19.420578 4.885314 -2.4588361
30.928041 7.774333 -2.7900295
64.122284 16.094494 -3.4647453
7.728765 1.9255677 -2.1342218
9.0961952 2.2628772 -2.1640291
46.824696 11.640011 2.5286644
11.101998 2.7598126 -2.2236881
14.014726 3.478678 -2.2870722
19.41824 4.8127317 -2.4563985
30.927917 7.6596131 -2.7875893
64.298279 15.900338 -3.471235
7.7410684 1.8999571 -2.1357749
9.1078243 2.2320416 -2.1649289
11.086775 2.7149689 -2.2187271
14.026782 3.4297392 -2.2870722
19.446495 4.7477398 -2.4578612
30.93898 7.5478373 -2.7861948
7.738265 1.8706523 -2.1331868
9.1155596 2.2002375 -2.1649289
11.10382 2.6780908 -2.2202537
14.042509 3.3816838 -2.2876978
19.478388 4.6835465 -2.459811
30.918644 7.4286294 -2.7820113
64.601929 15.497655 -3.4817021
7.7447472 1.843631 -2.1331868
9.1307688 2.1702051 -2.1667287
11.11883 2.6406779 -2.2213984
14.035008 3.3280842 -2.2845693
19.498484 4.6164355 -2.4602985
30.92112 7.3151455 -2.7799196
7.753016 1.8170279 -2.1337044
9.1288004 2.1361012 -2.164479
11.133715 2.6031935 -2.2225432
14.042691 3.2781773 -2.2839434
19.510612 4.5474386 -2.459811
30.961988 7.2107878 -2.7813139
7.7593112 1.7899555 -2.1337044
9.1343031 2.1037829 -2.1640291
11.144646 2.5647562 -2.2229249
14.06175 3.2309048 -2.2851949
19.518627 4.4775348 -2.4588361
30.998625 7.1053295 -2.7823598
7.7711635 1.7641404 -2.135257
9.1488295 2.075207 -2.1658287
11.138213 2.5223665 -2.219872
14.072387 3.1842594 -2.2851949
19.544985 4.4154129 -2.4602985
31.08543 7.0111141 -2.7879379
7.7713161 1.7370943 -2.1337044
9.1598225 2.0441101 -2.1667287
11.148434 2.4858413 -2.2202537
14.094984 3.1376967 -2.2870722
19.56028 4.347156 -2.4602985
27.020094 6.0001202 -2.421535
7.775445 1.7095435 -2.1331868
9.1726122 2.0133746 -2.1680782
11.162796 2.4481695 -2.2213984
14.071118 3.0808682 -2.2814405
19.579212 4.2797031 -2.4607861
26.9163 5.8785515 -2.4103792
7.7813649 1.6823933 -2.1331868
9.1719646 1.9796968 -2.1662786
11.173192 2.409611 -2.2217801
14.108824 3.037549 -2.2858207
19.590153 4.2104936 -2.4602985
26.827568 5.7611265 -2.4006176
7.7947483 1.6568255 -2.135257
9.1788187 1.9476705 -2.1662786
11.179614 2.3701842 -2.2213984
14.11934 2.9882843 -2.2858207
19.624153 4.1461835 -2.4627359
27.077545 5.7160106 -2.4211864
7.8023758 1.6300035 -2.1357749
9.1893787 1.916412 -2.1671786
11.174366 2.3283448 -2.2187271
14.145157 2.9421947 -2.2883236
19.634615 4.0768633 -2.4622483
27.054419 5.6125469 -2.4173517
27.39044 5.6722984 -1.4659303
83.268402 17.213741 -1.4841876
7.7985568 1.6008139 -2.1331868
9.1979189 1.8847209 -2.1676283
11.184349 2.2897155 -2.2191086
14.143727 2.8904378 -2.2864466
19.652618 4.0090895 -2.4627359
26.933277 5.4894447 -2.4048011
27.355272 5.5654964 -1.4629995
7.8003092 1.5728161 -2.1321514
9.2025328 1.8522158 -2.1671786
11.201898 2.252593 -2.2210169
14.138238 2.8379357 -2.2839434
19.682062 3.9435885 -2.4646859
26.690491 5.3429847 -2.3814435
83.187531 16.607441 -1.480697
7.817121 1.5478351 -2.135257
9.2048006 1.8209298 -2.1662786
11.207765 2.213105 -2.2206352
14.155324 2.7925613 -2.2851949
19.68335 3.8759923 -2.4632235
26.959217 5.2989631 -2.4037554
7.8241081 1.5222712 -2.1357749
9.2053623 1.7876755 -2.1649289
11.215042 2.1759233 -2.2206352
14.164984 2.7431359 -2.2851949
19.688959 3.8057578 -2.4622483
26.738878 5.1587839 -2.3824892
7.8277364 1.4932237 -2.135257
9.217288 1.7566237 -2.1662786
11.207514 2.1318712 -2.2175822
14.174944 2.6911964 -2.2851949
19.706024 3.7377515 -2.4627359
26.803707 5.0743036 -2.3866727
83.297943 15.724256 -1.4796499
7.8272052 1.4648226 -2.1337044
9.2332439 1.7246202 -2.1685281
11.226466 2.0948942 -2.219872
14.188135 2.6424267 -2.2858207
19.739111 3.6691229 -2.4651732
26.801668 4.9770784 -2.3849299
83.411301 15.444332 -1.480697
7.81707 1.4346997 -2.1295633
9.2350779 1.6932909 -2.1676283
11.227918 2.0546308 -2.2187271
14.189047 2.5939445 -2.2845693
19.751171 3.6036401 -2.4651732
26.744394 4.8699226 -2.3783059
83.323051 15.127338 -1.478184
7.8388953 1.4118565 -2.1342218
9.2294245 1.6589733 -2.1649289
11.250129 2.0201645 -2.2217801
14.201904 2.5450928 -2.2851949
19.763628 3.5346782 -2.4651732
26.803543 4.7889228 -2.3821406
28.768154 5.1295738 -1.5314549
83.36747 14.835011 -1.4780443
7.8399715 1.3838115 -2.1331868
9.2466736 1.6287767 -2.1676283
11.251309 1.9798635 -2.2206352
14.218484 2.4968731 -2.2864466
19.775848 3.4656632 -2.4651732
26.910376 4.7111292 -2.3901591
7.8542728 1.3580801 -2.1357749
9.2484636 1.5958248 -2.1667287
11.248479 1.9389066 -2.2187271
14.219326 2.4458828 -2.2851949
19.795647 3.3979683 -2.4661481
26.93058 4.6178446 -2.3905077
7.8513455 1.3293669 -2.1337044
9.2616634 1.564828 -2.1685281
11.266793 1.901593 -2.2210169
14.239465 2.3981979 -2.2870722
19.819134 3.3308165 -2.4676106
26.73826 4.4888382 -2.3720307
7.8559389 1.3019505 -2.1337044
9.2747593 1.5337675 -2.1703279
46.769127 7.7258053 2.4842834
11.271426 1.86193 -2.2206352
14.236053 2.3465602 -2.2851949
19.846313 3.2641871 -2.4695606
26.836336 4.4090619 -2.3793516
7.8604345 1.2745255 -2.1337044
9.2646675 1.498891 -2.1667287
46.665684 7.541461 2.477375
11.277857 1.822571 -2.2206352
14.244159 2.296849 -2.2851949
19.849745 3.1936331 -2.4685855
26.855497 4.3159838 -2.3797004
7.8705592 1.2479851 -2.135257
9.2698421 1.466544 -2.1667287
46.777229 7.400435 2.4819808
11.280272 1.7825878 -2.219872
14.267699 2.2495782 -2.2876978
19.849007 3.1224689 -2.4671233
26.815292 4.2135472 -2.3748195
7.8710504 1.2199104 -2.1342218
9.2746553 1.4357934 -2.1667287
11.268963 1.7405012 -2.2164373
14.263368 2.2004411 -2.2858207
19.863174 3.0572381 -2.4676106
26.845591 4.122344 -2.3762143
30.194973 4.6312733 -1.600957
7.8674126 1.192642 -2.1321514
9.2873173 1.4045776 -2.1685281
11.284378 1.7045854 -2.2183454
14.286588 2.1529973 -2.2883236
19.873724 2.9878881 -2.4676106
26.752716 4.0173264 -2.3668013
7.8734393 1.1654569 -2.1326692
9.2919245 1.3737694 -2.1685281
11.288318 1.6649013 -2.2179639
14.278015 2.1033025 -2.2858207
19.899237 2.9242718 -2.4695606
26.738979 3.9198644 -2.364361
7.8851066 1.1390729 -2.1347394
9.2853231 1.338038 -2.1658287
11.301834 1.6266087 -2.2194905
14.281717 2.0503986 -2.2851949
19.917683 2.8524384 -2.4705355
26.784725 3.8263364 -2.3671501
7.8968816 1.1112397 -2.1368101
9.289937 1.3056154 -2.1658287
11.309664 1.5854441 -2.219872
14.300874 1.999684 -2.2870722
19.91572 2.7812519 -2.4690731
26.821596 3.7361212 -2.3692417
7.9007115 1.0836693 -2.1368101
9.2985229 1.2720878 -2.1667287
11.311238 1.5454218 -2.2191086
14.303854 1.9492153 -2.2864466
19.921846 2.7077081 -2.4685855
26.850267 3.6446228 -2.3706362
7.8872123 1.0537831 -2.1321514
9.3106327 1.2406492 -2.1685281
11.312672 1.5054187 -2.2183454
14.314487 1.8997896 -2.2870722
19.935114 2.6386673 -2.4690731
26.815422 3.5446022 -2.3664527
101.44936 13.338103 -1.7860444
7.8908429 1.0262431 -2.1321514
9.312974 1.2078928 -2.1680782
11.327593 1.4671787 -2.2202537
14.32103 1.8498142 -2.2870722
19.95208 2.5700736 -2.4700482
26.847391 3.4535251 -2.3681958
31.654816 4.0606828 -1.6725527
7.9058762 1.000149 -2.135257
9.3016663 1.1734234 -2.164479
11.338489 1.4283623 -2.2213984
14.323482 1.7993169 -2.2864466
19.960926 2.5004261 -2.4700482
26.871147 3.3612659 -2.3692417
31.716358 3.9561174 -1.6750647
7.9112372 0.97278005 -2.1357749
9.3153772 1.1421397 -2.1667287
11.337561 1.3880615 -2.2202537
14.337517 1.750275 -2.2876978
19.965593 2.4302492 -2.4695606
26.732401 3.2491703 -2.355994
7.9184217 0.94561481 -2.1368101
9.3270473 1.110535 -2.1685281
11.32674 1.3466203 -2.2172008
14.335693 1.6992831 -2.2864466
19.966066 2.3596137 -2.4685855
26.929573 3.1778035 -2.3723793
30.184113 3.5511713 -1.5927926
7.9101596 0.91663969 -2.1337044
9.3289309 1.0777445 -2.1680782
11.343074 1.3084321 -2.2194905
14.333687 1.6483254 -2.2851949
19.989962 2.2917082 -2.4705355
26.782146 3.065649 -2.3584344
7.91715 0.88945174 -2.1347394
9.326827 1.0445254 -2.1667287
11.355375 1.269699 -2.2210169
14.335427 1.5978467 -2.2845693
19.966274 2.2184036 -2.4666357
26.705553 2.9624832 -2.3507648
7.9202065 0.86181194 -2.1347394
9.3226662 1.0111192 -2.1649289
11.361691 1.2302619 -2.2213984
14.336989 1.5473692 -2.2839434
19.985737 2.1499729 -2.4680982
26.711767 2.8688126 -2.3504159
7.9250879 0.83436018 -2.135257
9.3298435 0.98060787 -2.1658287
11.363963 1.1903925 -2.2210169
14.345972 1.5002315 -2.2845693
19.973011 2.0816321 -2.4656608
26.76918 2.7804866 -2.3545995
27.242348 2.8248415 -1.435366
7.9374213 0.80905241 -2.1378453
9.3351479 0.94823349 -2.1662786
11.356129 1.1515104 -2.2187271
14.34719 1.4497513 -2.2839434
19.999908 2.0138843 -2.4680982
27.035965 2.7176249 -2.37726
27.252045 2.7297235 -1.435366
7.9286609 0.78020722 -2.1347394
9.3459997 0.91803122 -2.1680782
11.358125 1.1116741 -2.2183454
14.363715 1.4033148 -2.2858207
20.026234 1.9494784 -2.4705355
27.045288 2.6232278 -2.37726
7.9292817 0.75372553 -2.1342218
9.347208 0.88521588 -2.1676283
11.363704 1.0741848 -2.2187271
14.352793 1.3516821 -2.2833178
20.025011 1.8788245 -2.4695606
27.109823 2.5339909 -2.3821406
7.9319911 0.72465998 -2.1342218
9.3385963 0.85152733 -2.1649289
11.37343 1.0330627 -2.219872
14.34978 1.2983583 -2.2820661
20.015629 1.807479 -2.4676106
27.13835 2.4411352 -2.3838837
7.9440951 0.6978147 -2.1368101
9.353303 0.81830615 -2.1676283
11.380877 0.99369973 -2.2206352
14.366034 1.2492836 -2.2839434
20.006298 1.7327399 -2.4656608
27.396814 2.368 -2.4058471
7.9561076 0.67088985 -2.1393983
9.3520813 0.78696007 -2.1667287
11.378409 0.95347214 -2.2194905
14.370097 1.20164 -2.2839434
20.01589 1.666711 -2.4661481
27.845709 2.3089221 -2.4445443
7.9351816 0.64263308 -2.1331868
9.3547716 0.7543124 -2.1667287
11.37368 0.91510719 -2.2179639
14.366328 1.1508437 -2.282692
20.057207 1.5996679 -2.4705355
31.773796 2.5285625 -2.7886353
7.9450803 0.6155287 -2.135257
9.3573475 0.72165102 -2.1667287
11.390507 0.87645137 -2.2206352
14.362379 1.1000817 -2.2814405
20.038914 1.5278482 -2.4676106
31.822163 2.4206498 -2.7921214
7.9510345 0.58807433 -2.1362925
9.3520346 0.68841314 -2.1649289
11.395455 0.83683199 -2.2210169
14.366131 1.0499439 -2.2814405
20.048086 1.4581728 -2.4680982
31.818497 2.3086815 -2.7910755
7.947257 0.55990702 -2.1347394
9.3600979 0.65780848 -2.1662786
11.394391 0.79677236 -2.2202537
14.373474 1.0025761 -2.2820661
20.044891 1.3911277 -2.4671233
31.810459 2.1965241 -2.7896812
7.9548526 0.53393966 -2.1362925
9.3603926 0.62499934 -2.1658287
11.387175 0.75833273 -2.2183454
14.384771 0.95291561 -2.2833178
20.025854 1.3195873 -2.4641984
31.809612 2.090493 -2.7889836
7.9528117 0.50592512 -2.135257
9.3663044 0.59420449 -2.1667287
11.401509 0.71932358 -2.2206352
14.38391 0.90496367 -2.282692
20.045967 1.2541676 -2.4661481
31.780922 1.9772086 -2.785846
7.9623265 0.47723731 -2.1373277
101.85275 6.0868516 1.781018
9.3704615 0.55834973 -2.1671786
11.39819 0.67717797 -2.2194905
14.37939 0.84925747 -2.2814405
20.050636 1.1771826 -2.4661481
31.752155 1.858624 -2.7827084
7.963944 0.4494386 -2.1373277
101.79651 5.7448015 1.7796917
9.3586416 0.52650875 -2.1640291
11.408324 0.63782746 -2.2210169
14.36635 0.80068564 -2.2789376
20.050467 1.1104703 -2.4656608
31.822109 1.7512718 -2.7882864
7.9769654 0.42363921 -2.1404335
101.76003 5.3864436 1.7787144
9.3565302 0.49363437 -2.1631293
11.404495 0.59968013 -2.219872
14.392729 0.7517792 -2.282692
20.046291 1.0400575 -2.4646859
31.776011 1.6430829 -2.7837543
7.9803247 0.39588922 -2.1409512
101.75024 5.0298414 1.7782258
9.369875 0.46154371 -2.1658287
11.396715 0.55938309 -2.2179639
14.399211 0.7017231 -2.2833178
20.033937 0.96931338 -2.4627359
31.741751 1.5302267 -2.7802682
0.65999204 0.030432045 -0.17703223
9.3792152 0.4291878 -2.1676283
11.398598 0.51960558 -2.2179639
14.389733 0.65091676 -2.2814405
20.053062 0.90008277 -2.4646859
31.730972 1.4186975 -2.7788737
0.65237391 0.0277989 -0.17496169
9.3923397 0.3969413 -2.1703279
11.408189 0.4801411 -2.2194905
14.384024 0.60035676 -2.280189
20.067982 0.83056617 -2.4661481
31.77953 1.3097388 -2.7827084
0.65825808 0.025748182 -0.1765146
9.3780899 0.36354712 -2.1667287
11.419603 0.44069707 -2.2213984
14.382083 0.54998869 -2.2795632
20.066792 0.76037431 -2.4656608
31.823936 1.1947389 -2.7861948
67.781609 2.5328536 -3.5547633
0.70275271 0.024909131 -0.18842028
0.66995007 0.023629693 -0.15476632
11.421142 0.39883623 -2.2213984
14.380054 0.49713874 -2.2789376
20.037582 0.68922633 -2.461761
31.835876 1.0839232 -2.7868919
0.70669717 0.02257945 -0.18945555
0.67782325 0.021419758 -0.15656593
11.40088 0.35829067 -2.2172008
14.377752 0.44681337 -2.278312
20.039974 0.6157847 -2.461761
31.827518 0.97241515 -2.785846
0.69132304 0.019672677 -0.18531445
0.67594254 0.01911694 -0.15611602
11.404024 0.31854379 -2.2175822
14.387053 0.3993547 -2.2795632
20.053814 0.54964715 -2.4632235
31.846651 0.86174834 -2.7872405
0.68945324 0.01733165 -0.18479681
0.66626447 0.016516022 -0.15386651
11.40698 0.28077552 -2.2179639
14.38836 0.3491351 -2.2795632
20.055609 0.47963756 -2.4632235
31.793564 0.75481856 -2.7823598
0.69337237 0.015008662 -0.18583208
0.65657413 0.014097178 -0.15161701
11.415742 0.24112424 -2.2194905
14.385489 0.30133295 -2.2789376
20.049149 0.41297814 -2.4622483
31.823893 0.64438993 -2.7848003
0.67796612 0.012425871 -0.18169098
0.65856779 0.01184039 -0.15206692
11.402739 0.20301916 -2.216819
14.378553 0.25098148 -2.2776861
20.050468 0.34298569 -2.4622483
31.853836 0.5337739 -2.7872405
0.67414373 0.0098841004 -0.1806557
0.65081096 0.009428707 -0.1502673
11.401443 0.16119398 -2.2164373
14.395178 0.19849399 -2.280189
20.035666 0.27277294 -2.4602985
31.867458 0.42273012 -2.7882864
0.66258377 0.0074015097 -0.17754988
0.65668702 0.0071063973 -0.15161701
11.390156 0.12127153 -2.2141476
14.37208 0.14800318 -2.2764347
20.036531 0.19934112 -2.4602985
31.828896 0.31110659 -2.7848003
0.66646922 0.0051181093 -0.17858516
0.65475917 0.004799942 -0.15116711
11.406216 0.081621088 -2.2172008
14.380409 0.097891159 -2.2776861
20.041075 0.12941965 -2.4607861
31.817835 0.19993271 -2.7837543
0.67034662 0.0028083106 -0.17962041
0.64697701 0.0024842713 -0.1493675
11.400541 0.041791715 -2.2160556
14.376714 0.04767663 -2.2770603
20.049345 0.059490241 -2.461761
31.862169 0.088980444 -2.7875893
0.6645568 0.00046412097 -0.17806751
0.645033 0.00022534022 -0.1489176
11.406508 0.001994136 -2.2172008
14.357038 -0.0025057758 -2.2739315
20.041491 -0.0104937 -2.4607861
31.886196 -0.022260766 -2.7896812
0.64330441 -0.0016841707 -0.17237349
0.64892763 -0.0019254127 -0.14981739
11.39271 -0.035791371 -2.2145293
14.364852 -0.050142996 -2.2751832
20.029432 -0.076907873 -2.4593234
31.862038 -0.12790309 -2.7875893
0.64522642 -0.0039415127 -0.17289113
0.65866047 -0.0042535029 -0.15206692
11.390551 -0.075546108 -2.2141476
14.36459 -0.10028537 -2.2751832
20.033014 -0.14685228 -2.459811
31.841473 -0.23897205 -2.785846
0.6413452 -0.0061566615 -0.17185585
0.65474439 -0.0065138582 -0.15116711
11.386292 -0.11526633 -2.2133844
14.364152 -0.15042652 -2.2751832
20.032379 -0.21677966 -2.459811
31.888258 -0.35064384 -2.7900295
0.64131981 -0.0083953366 -0.17185585
0.65082198 -0.0086333361 -0.1502673
11.397598 -0.15517156 -2.2156742
14.371475 -0.19816791 -2.2764347
20.023611 -0.28309599 -2.4588361
31.906763 -0.46224111 -2.7917726
0.66446751 -0.010902296 -0.17806751
0.64104557 -0.010741826 -0.14801779
11.385243 -0.1927671 -2.2133844
14.358847 -0.24812771 -2.2745574
20.026468 -0.35305968 -2.4593234
31.865213 -0.56733584 -2.7882864
0.66056252 -0.013144784 -0.17703223
0.65074819 -0.013063108 -0.1502673
11.382539 -0.23246776 -2.2130029
14.373744 -0.29606745 -2.2770603
20.01725 -0.41930157 -2.4583485
31.859055 -0.67847794 -2.7879379
0.65858132 -0.015405319 -0.1765146
0.66043687 -0.015679389 -0.15251681
11.381658 -0.27219883 -2.2130029
14.360713 -0.34846032 -2.2751832
20.031456 -0.49305645 -2.4602985
31.836576 -0.78918892 -2.7861948
0.6585235 -0.017704105 -0.1765146
0.6603781 -0.017984649 -0.15251681
11.390451 -0.31219551 -2.214911
14.35151 -0.39836723 -2.2739315
20.03755 -0.5631994 -2.4612734
31.833626 -0.90031451 -2.7861948
0.67004341 -0.020354625 -0.17962041
0.64083308 -0.019691173 -0.14801779
11.385366 -0.35183239 -2.2141476
14.342135 -0.44821411 -2.2726803
20.031492 -0.63301468 -2.4607861
31.858168 -1.0123149 -2.7886353
0.67576057 -0.022889586 -0.18117334
0.64465564 -0.022061277 -0.1489176
11.384069 -0.39157259 -2.2141476
14.364174 -0.49909794 -2.2764347
20.001389 -0.70195907 -2.4573736
31.842493 -1.1230932 -2.7875893
0.68725955 -0.025681118 -0.18427916
0.65236413 -0.024605205 -0.1507172
11.361053 -0.43049031 -2.20995
14.378136 -0.54983914 -2.2789376
20.018652 -0.77253819 -2.459811
31.894123 -1.2363983 -2.79247
0.69488668 -0.028395453 -0.18634972
0.66006261 -0.027203213 -0.15251681
11.371251 -0.47063231 -2.2122397
14.352444 -0.59903628 -2.2751832
20.011866 -0.84224451 -2.4593234
31.861744 -1.3465443 -2.7900295
0.67548382 -0.029964751 -0.18117334
0.66191041 -0.029594136 -0.15296671
11.367578 -0.51023448 -2.211858
14.350266 -0.64913195 -2.2751832
20.01277 -0.91227466 -2.459811
31.797142 -1.4550222 -2.7848003
0.67151582 -0.032137748 -0.18013807
0.65596366 -0.031622946 -0.15161701
11.355923 -0.54943728 -2.20995
14.343966 -0.69902754 -2.2745574
20.02136 -0.98271066 -2.4612734
31.835649 -1.5681624 -2.7886353
0.66754091 -0.034283403 -0.17910279
0.65001088 -0.033610601 -0.1502673
11.3657 -0.58968377 -2.2122397
14.337493 -0.748887 -2.2739315
19.986092 -1.0509244 -2.4573736
31.814064 -1.6784403 -2.7872405
0.66934609 -0.036719169 -0.17962041
0.63821489 -0.03523482 -0.14756788
11.35377 -0.62881106 -2.2103314
14.338737 -0.79914939 -2.2745574
19.986265 -1.1209048 -2.4578612
31.831881 -1.7908249 -2.7893324
0.66149962 -0.038605195 -0.17754988
0.66726893 -0.039175611 -0.15431643
11.337787 -0.66763145 -2.2076602
14.33586 -0.84919608 -2.2745574
19.978268 -1.1904269 -2.4573736
31.801571 -1.9005017 -2.7872405
0.6613608 -0.040914021 -0.17754988
0.66129309 -0.041141558 -0.15296671
11.349104 -0.70805937 -2.2103314
14.309151 -0.89774811 -2.270803
19.977951 -1.2604069 -2.4578612
31.750998 -2.0087306 -2.7834058
0.66506946 -0.043474384 -0.17858516
0.64753366 -0.042555097 -0.14981739
