# .PCD v0.7 - Point Cloud Data file format
VERSION 0.7
FIELDS x y z
SIZE 4 4 4
TYPE F F F
COUNT 1 1 1
WIDTH 1479
HEIGHT 1
VIEWPOINT 0 0 0 1 0 0 0
POINTS 1479
DATA ascii
3.1839254 -7.0091677 -2.0627878
3.6755855 -8.0990257 -2.0533531
4.359282 -9.6099825 -2.0511968
5.3286977 -11.757956 -2.0445988
6.8319702 -15.088984 -2.0337558
9.6228304 -21.262716 -2.0418847
16.025078 -35.442123 -2.0384855
3.1546831 -7.0096684 -2.0596819
3.6471086 -8.1076145 -2.0524535
4.3297343 -9.6340933 -2.0531049
5.2872491 -11.770156 -2.0436602
6.7916474 -15.133287 -2.0366805
9.535511 -21.26709 -2.0390959
15.866617 -35.403942 -2.0332522
3.1309812 -7.0224028 -2.0601997
3.6165762 -8.1191473 -2.0520036
4.295279 -9.647356 -2.0527232
5.2352438 -11.769602 -2.0402186
6.7345238 -15.154451 -2.0361931
9.4574986 -21.301895 -2.0390959
15.746473 -35.483761 -2.034508
3.1060028 -7.0355978 -2.0607173
3.5858524 -8.1263733 -2.0506537
4.2622681 -9.6684227 -2.0538683
5.1880894 -11.779672 -2.0386541
6.676785 -15.166967 -2.0347307
9.3718529 -21.309244 -2.0366554
15.606672 -35.519295 -2.0332522
3.0821989 -7.0481668 -2.061235
3.5560434 -8.1394615 -2.0506537
4.2284927 -9.6832418 -2.0538683
5.1461477 -11.7959 -2.0383413
6.617979 -15.184056 -2.0337558
9.2974119 -21.341829 -2.0366554
15.422019 -35.434372 -2.0252969
3.0552735 -7.053565 -2.0596819
3.528259 -8.1494207 -2.0502038
4.1876512 -9.6817255 -2.0504336
5.1085725 -11.816525 -2.0389671
6.5628672 -15.194984 -2.0322933
9.2212811 -21.370491 -2.0363066
15.277534 -35.422966 -2.0217381
3.0257711 -7.0494561 -2.055541
3.502094 -8.1670618 -2.0515537
4.1501093 -9.6829281 -2.0477622
5.0665154 -11.832471 -2.0386541
6.5035396 -15.203198 -2.0303433
9.1456633 -21.389963 -2.0352609
15.150652 -35.468731 -2.0213194
3.0049243 -7.0688639 -2.0581291
3.4728026 -8.1774406 -2.0511036
4.1224194 -9.711813 -2.0508151
5.019784 -11.837353 -2.0364642
6.4519801 -15.229466 -2.0308311
9.0585146 -21.392403 -2.0324719
15.037643 -35.547153 -2.0227849
2.9779823 -7.0739694 -2.0565763
3.4351723 -8.1679573 -2.0457051
4.0877342 -9.7243338 -2.0504336
4.9761367 -11.84934 -2.0355256
6.3987818 -15.251895 -2.0308311
8.976078 -21.405519 -2.0307288
14.890322 -35.544163 -2.0196447
2.9555018 -7.0896702 -2.0581291
3.4050677 -8.1721087 -2.0439053
4.0515018 -9.7331066 -2.0492887
4.9345403 -11.860305 -2.0345869
6.335978 -15.2437 -2.026931
8.9043627 -21.444078 -2.031426
2.9312379 -7.0976462 -2.0576115
3.3824668 -8.1983566 -2.0475044
4.0162101 -9.7392282 -2.0477622
4.8961191 -11.884763 -2.0358384
6.2797065 -15.258381 -2.0259562
8.8203592 -21.452919 -2.0293343
14.594893 -35.515377 -2.0123177
2.9015493 -7.099401 -2.0550234
3.3486707 -8.1974859 -2.0443552
3.9760358 -9.7429762 -2.0454724
4.8540182 -11.906287 -2.0364642
6.2249084 -15.276532 -2.0254686
8.7303991 -21.446672 -2.0258482
14.454091 -35.542732 -2.0108523
2.8745761 -7.1041136 -2.0534704
3.3207939 -8.2151241 -2.0457051
3.9449439 -9.7640781 -2.046999
4.8035564 -11.901176 -2.0327096
6.1673899 -15.295563 -2.0249813
8.6569748 -21.480711 -2.0261967
14.258327 -35.415108 -2.0008039
2.8504786 -7.1158977 -2.053988
3.2863059 -8.2121906 -2.0421057
3.9115653 -9.7796106 -2.0473807
4.7663803 -11.928879 -2.0345869
6.1110182 -15.309623 -2.0240064
8.5730782 -21.488592 -2.0241048
14.133143 -35.460953 -2.0005944
2.8284714 -7.132988 -2.0560586
3.2576189 -8.2236128 -2.0421057
3.8737907 -9.7840786 -2.0454724
4.7203536 -11.934422 -2.0327096
6.0589995 -15.334555 -2.0244937
8.4936275 -21.507269 -2.0230591
14.004871 -35.49892 -1.9999664
2.8035553 -7.1428175 -2.0560586
3.2274716 -8.2313051 -2.0412059
3.8360336 -9.7884016 -2.0435643
4.6793871 -11.952665 -2.0330224
5.99965 -15.340818 -2.0225437
8.4068937 -21.507093 -2.0202701
13.832926 -35.424801 -1.9930581
2.7723091 -7.136354 -2.0513999
3.2008343 -8.2479725 -2.0425556
3.802552 -9.8035622 -2.043946
4.6362066 -11.965242 -2.0323968
5.9431996 -15.354264 -2.021569
8.3188295 -21.502861 -2.0171325
13.689032 -35.420712 -1.9901272
2.7466879 -7.1441841 -2.0508821
3.1734662 -8.2585411 -2.0425556
3.769011 -9.8186083 -2.0443277
4.5929646 -11.97133 -2.0308325
5.8936706 -15.377595 -2.0220563
8.2308989 -21.498276 -2.0139949
2.7257316 -7.1604748 -2.0529528
3.1418471 -8.2622824 -2.040756
3.734339 -9.8255472 -2.0431828
4.549047 -11.98175 -2.0298939
5.8378439 -15.392505 -2.0213251
8.1525002 -21.506823 -2.0122519
13.45751 -35.539219 -1.9915926
2.6979964 -7.1627145 -2.0508821
3.1102428 -8.2659025 -2.0389564
3.697253 -9.8311739 -2.0416565
4.5085855 -12.001252 -2.0305195
5.7764058 -15.392346 -2.0186441
8.0773792 -21.535149 -2.0122519
13.298338 -35.492458 -1.9863591
2.6763504 -7.1811399 -2.0534704
3.0874887 -8.2931471 -2.0430055
3.6574371 -9.829299 -2.0386035
4.4632225 -12.00766 -2.0289552
5.7240252 -15.416138 -2.0191314
7.9841328 -21.514648 -2.0077198
13.159096 -35.497463 -1.9840564
2.6459203 -7.1759377 -2.0493293
3.0531335 -8.2892437 -2.0394061
3.6244602 -9.8456907 -2.0393667
4.4212818 -12.023166 -2.0289552
5.667438 -15.428573 -2.0181565
7.8938789 -21.501238 -2.0038848
13.007593 -35.468178 -1.9798694
2.6188691 -7.1796851 -2.0477762
36.016514 -98.793587 1.8354696
3.0268495 -8.3071747 -2.0412059
3.5914133 -9.8619709 -2.0401299
4.3752341 -12.027388 -2.0270779
5.6094813 -15.437065 -2.0166941
7.8146935 -21.517427 -2.0028389
12.871449 -35.479572 -1.9779854
2.5957592 -7.1942344 -2.0493293
2.9939964 -8.3025007 -2.0376067
3.5549719 -9.868907 -2.038985
4.3386726 -12.051123 -2.0286424
5.5528846 -15.440639 -2.0147443
7.734149 -21.529572 -2.0014443
12.715928 -35.41679 -1.9721237
2.5751359 -7.2118998 -2.0519176
2.9656515 -8.3147364 -2.0380566
3.5195885 -9.8732443 -2.0374587
4.2912769 -12.051309 -2.0261395
5.4923019 -15.441225 -2.0123067
7.6613765 -21.551348 -2.0010958
12.64168 -35.600239 -1.9798694
2.5467303 -7.2117367 -2.0493293
2.9361165 -8.3190126 -2.0367069
3.4870613 -9.8910246 -2.0386035
4.2598252 -12.089692 -2.0302067
5.4371099 -15.448118 -2.0108442
7.5913897 -21.592997 -2.0024903
12.46529 -35.476147 -1.9706584
2.5170815 -7.2078156 -2.0457058
2.9107416 -8.3444376 -2.0403061
3.4473431 -9.8883057 -2.0355504
4.2050929 -12.075377 -2.0252008
5.3726282 -15.445441 -2.0079193
7.4951944 -21.571743 -1.9979583
12.32601 -35.495178 -1.969193
2.4887569 -7.211514 -2.044153
2.8809595 -8.352706 -2.0398562
3.4117179 -9.90273 -2.0359321
4.1569476 -12.0795 -2.0233238
5.3212628 -15.471612 -2.0088944
7.4159651 -21.586468 -1.9969124
12.154341 -35.419212 -1.9624939
2.4660637 -7.2274704 -2.0462234
2.8446681 -8.3466072 -2.0358069
3.377763 -9.9164381 -2.0363138
4.1160288 -12.097677 -2.0239494
5.2638841 -15.489131 -2.0086505
7.3380051 -21.604677 -1.9962151
12.071698 -35.582474 -1.969193
2.4402027 -7.2342048 -2.0457058
2.8148944 -8.35464 -2.0353572
3.3431275 -9.9281683 -2.0363138
4.0725169 -12.108227 -2.0233238
5.2028284 -15.486713 -2.0059695
7.2549381 -21.607494 -1.9941233
11.892802 -35.461544 -1.9601911
2.4149363 -7.2426782 -2.0457058
2.7875609 -8.3699617 -2.0367069
3.3016303 -9.9192858 -2.0321159
4.0264869 -12.111122 -2.0214465
5.1481142 -15.502895 -2.0057259
7.1819792 -21.640251 -1.9948206
11.768948 -35.502842 -1.9601911
2.3848016 -7.2363858 -2.0415647
2.7622287 -8.3865623 -2.0385065
3.2682121 -9.9344807 -2.0328791
3.9869206 -12.126284 -2.0217593
5.0917211 -15.504794 -2.0037761
7.0952191 -21.631113 -1.991683
11.606355 -35.405025 -1.9526547
2.3607922 -7.2442541 -2.0415647
2.731127 -8.3905954 -2.0371568
3.2382882 -9.9545994 -2.0347872
3.9378514 -12.119461 -2.0183177
5.038795 -15.526251 -2.0042634
7.0209894 -21.646942 -1.9909858
11.487625 -35.460522 -1.953492
2.3360827 -7.2542896 -2.0420823
2.6976457 -8.3870916 -2.0340075
3.2035201 -9.9658422 -2.0347872
3.894316 -12.129372 -2.0176921
4.9839582 -15.541853 -2.0040195
6.9405222 -21.656139 -1.9895912
11.341849 -35.431931 -1.9497238
2.310746 -7.2624002 -2.0420823
2.6671729 -8.3927412 -2.0331075
3.16693 -9.9713507 -2.0336425
3.8501604 -12.137242 -2.0167532
4.9158883 -15.515631 -1.9984137
6.856462 -21.653643 -1.9871509
11.210877 -35.448456 -1.948468
2.2848029 -7.2685785 -2.0415647
2.6378593 -8.4020004 -2.0331075
3.1279895 -9.9692316 -2.0309711
3.8095422 -12.156263 -2.0176921
4.8617001 -15.532696 -1.9984137
6.7844052 -21.688852 -1.9881967
11.076343 -35.453053 -1.9465836
2.2536881 -7.2580609 -2.0363884
2.609093 -8.4130182 -2.0335574
3.0925913 -9.9782143 -2.0305893
3.7653341 -12.163825 -2.0167532
4.8051038 -15.541986 -1.9974388
6.7039504 -21.697176 -1.9868023
10.893631 -35.300659 -1.9361167
2.228905 -7.2677302 -2.036906
2.5762856 -8.4108953 -2.0308583
3.0542936 -9.977685 -2.0282996
3.7193847 -12.165562 -2.0148761
4.7508245 -15.558663 -1.9974388
6.6200299 -21.693764 -1.984362
10.700473 -35.109207 -1.923556
20.979158 -68.920776 -1.2575157
2.207442 -7.2884083 -2.0405295
2.5457816 -8.4161072 -2.0299582
3.0188777 -9.9864054 -2.0279181
3.6729004 -12.165232 -2.012686
4.6947641 -15.569452 -1.9967074
6.5350685 -21.686216 -1.981573
10.470785 -34.790615 -1.9040868
2.181988 -7.2960691 -2.0405295
2.5130427 -8.4137383 -2.0272589
2.9828784 -9.9931202 -2.0271549
3.631542 -12.181766 -2.0133119
4.637557 -15.576232 -1.9954888
6.4559197 -21.697439 -1.980527
10.422106 -35.07201 -1.9174849
2.1570535 -7.3054943 -2.0410471
2.4842081 -8.4243288 -2.027709
2.9452014 -9.9940557 -2.0252469
3.5901129 -12.198158 -2.0139375
4.5764413 -15.56947 -1.9925638
6.3722801 -21.693079 -1.9780867
10.31311 -35.154175 -1.919997
2.1272144 -7.2981424 -2.036906
2.4547875 -8.4329481 -2.027709
2.9097502 -10.00239 -2.0248652
3.5464101 -12.20682 -2.0133119
4.5231695 -15.589163 -1.9930513
6.2998466 -21.726671 -1.9791325
10.177003 -35.143917 -1.9174849
2.1033292 -7.3110924 -2.0384588
2.4247973 -8.4395924 -2.0272589
2.8764427 -10.018147 -2.02601
3.4994226 -12.203936 -2.0108089
4.4665408 -15.597222 -1.9920764
6.210815 -21.702559 -1.9749491
10.050977 -35.167709 -1.916857
2.0772674 -7.3165321 -2.0379412
2.3930745 -8.4344635 -2.0241096
2.841455 -10.028128 -2.02601
3.4589348 -12.215472 -2.0108089
4.4120932 -15.602397 -1.9908577
6.1296053 -21.704933 -1.973206
9.9451475 -35.239285 -1.9189503
2.0514297 -7.3178 -2.0363884
20.338448 -72.599464 1.3160162
2.3609903 -8.4333839 -2.0218601
2.8065989 -10.031823 -2.0248652
3.4130828 -12.216058 -2.0089316
4.3528037 -15.600496 -1.9886642
6.0522428 -21.705948 -1.9714628
9.8049383 -35.212215 -1.9156008
2.0279329 -7.3323636 -2.0384588
2.3325765 -8.4453306 -2.0227599
2.7663407 -10.022635 -2.021049
3.3677964 -12.218375 -2.0073674
4.2972655 -15.611767 -1.9881767
5.9679856 -21.696205 -1.9686739
9.6872501 -35.265488 -1.9166476
1.9977494 -7.3226237 -2.0338001
2.3035944 -8.4553013 -2.0232098
2.7313383 -10.03223 -2.021049
3.3256438 -12.231962 -2.0076802
4.2474265 -15.643913 -1.9903703
5.8838649 -21.68614 -1.9658849
9.5609608 -35.287518 -1.9160194
19.181683 -70.893654 -1.281949
1.9726793 -7.3314185 -2.0343177
2.272043 -8.4557629 -2.02141
2.6973205 -10.045495 -2.0218122
3.2778096 -12.224417 -2.0045516
4.1907368 -15.650975 -1.9893954
5.8040118 -21.691147 -1.9644904
9.4346294 -35.309105 -1.9153916
1.947571 -7.340127 -2.0348353
2.2390199 -8.4504557 -2.0182607
2.6622396 -10.054849 -2.0218122
3.2366345 -12.241512 -2.0054901
4.125946 -15.627122 -1.9845206
5.7252102 -21.699717 -1.9634446
9.2828264 -35.233665 -1.9095298
1.922426 -7.3487492 -2.0353529
2.2085235 -8.4544497 -2.0173612
2.6251416 -10.056481 -2.0202856
3.1918888 -12.24509 -2.0042386
4.0633731 -15.610691 -1.9806207
5.6504316 -21.723425 -1.9637932
9.1648064 -35.285183 -1.9105766
1.897727 -7.3591571 -2.0363884
2.1804559 -8.4677677 -2.0187106
2.5900214 -10.065584 -2.0202856
3.1476524 -12.250418 -2.0033
4.0105953 -15.620234 -1.9801333
5.5646739 -21.704416 -1.9603069
9.028698 -35.266655 -1.9078552
1.8704561 -7.3541751 -2.0332825
2.1533229 -8.4787302 -2.0196106
2.5551805 -10.068408 -2.019141
3.1055548 -12.255043 -2.0023613
3.9582868 -15.631523 -1.9798895
5.4926682 -21.722752 -1.9603069
8.9019203 -35.257671 -1.9057617
1.8446484 -7.3547163 -2.0317297
2.1256688 -8.4877138 -2.0200605
2.5190656 -10.073458 -2.0183775
3.0596306 -12.244194 -1.9989198
3.9017758 -15.637541 -1.9789146
5.41681 -21.741791 -1.9603069
8.7643309 -35.230381 -1.9026215
1.8195318 -7.3689299 -2.0338001
2.0912788 -8.4822035 -2.0169113
2.4844754 -10.092155 -2.0202856
3.0147326 -12.255326 -1.9989198
3.8444366 -15.651736 -1.9789146
5.3323374 -21.742149 -1.9585637
8.6161442 -35.184673 -1.8984346
1.7920556 -7.373672 -2.0332825
2.0592577 -8.4860249 -2.0160115
2.4469185 -10.091226 -2.0183775
2.9688659 -12.262453 -1.998294
3.7851789 -15.658006 -1.9779397
5.2536058 -21.74901 -1.957518
8.4885941 -35.195114 -1.897388
1.7681034 -7.3873978 -2.0353529
2.0291703 -8.4912653 -2.0155613
2.4098544 -10.092068 -2.0168512
2.9265018 -12.274664 -1.998607
3.7259016 -15.651811 -1.9755023
5.1730442 -21.747833 -1.9557748
8.3638382 -35.216763 -1.8969693
1.7378755 -7.3747211 -2.0301766
2.0013039 -8.5058851 -2.0173612
2.3741636 -10.098506 -2.0164697
2.8831854 -12.282881 -1.998294
3.6694314 -15.656991 -1.9745274
5.0889211 -21.730841 -1.9526372
8.2244911 -35.175732 -1.8932011
1.7125585 -7.3826246 -2.0306942
1.9702814 -8.5071239 -2.0160115
2.3380117 -10.102906 -2.0157063
2.8358469 -12.273623 -1.9951655
3.6147573 -15.669703 -1.9745274
5.0103493 -21.736822 -1.9515913
8.1097164 -35.239262 -1.8950852
1.6863478 -7.3866744 -2.0301766
1.9392744 -8.5082483 -2.0146616
2.3022969 -10.109093 -2.0153246
2.7947385 -12.291153 -1.9964169
3.5582774 -15.674481 -1.9735522
4.9291539 -21.730864 -1.9494997
7.9690127 -35.189434 -1.8908982
1.6622475 -7.4000545 -2.0322473
1.9114757 -8.5165339 -2.0151114
2.2648499 -10.107488 -2.0134165
2.750942 -12.286859 -1.9942267
3.5010824 -15.662949 -1.9706273
4.8489313 -21.728491 -1.9477565
7.8357568 -35.14159 -1.8869207
1.6368644 -7.4017544 -2.0312121
1.8821568 -8.5250578 -2.0155613
2.2292049 -10.105357 -2.0115087
2.7076111 -12.294457 -1.9939139
3.4446836 -15.667318 -1.9696525
4.7717199 -21.721098 -1.9456648
7.6984982 -35.102394 -1.8833618
1.6077327 -7.3923206 -2.0270708
1.8528007 -8.5334806 -2.0160115
2.1930842 -10.10924 -2.0107453
2.6642604 -12.301904 -1.9936011
3.3874581 -15.667606 -1.9681902
4.6950278 -21.733728 -1.9453162
7.5514998 -35.01582 -1.877291
1.5831306 -7.4035554 -2.0286238
1.8217812 -8.5341778 -2.0146616
2.1590116 -10.122595 -2.0118902
2.6200695 -12.305332 -1.9926625
3.3335707 -15.68322 -1.9686776
4.6116858 -21.714903 -1.9421785
7.4399943 -35.092762 -1.8800124
1.5588678 -7.4165983 -2.0306942
1.7899791 -8.5309486 -2.0124121
2.1240664 -10.13199 -2.0122719
2.5750763 -12.304735 -1.9910982
3.2747476 -15.675328 -1.9662402
4.5334158 -21.719168 -1.9411327
7.3141966 -35.102879 -1.8791751
1.5317961 -7.4163189 -2.0291414
21.987152 -106.54643 1.8989614
1.7590089 -8.5314198 -2.0110624
2.0871015 -10.131651 -2.0107453
2.5321088 -12.313649 -1.9910982
3.2192116 -15.682774 -1.9657527
4.4543715 -21.719244 -1.9397382
7.1787963 -35.065586 -1.8758256
15.464877 -75.674187 -1.3481983
1.5070523 -7.4273005 -2.0306942
1.73154 -8.5489683 -2.013762
2.0505555 -10.133102 -2.0096004
2.4867637 -12.310795 -1.9892209
3.1573856 -15.658888 -1.9613652
4.3745947 -21.715132 -1.9379952
7.0390296 -35.004272 -1.87122
1.4777188 -7.4154649 -2.0260355
1.7009271 -8.551136 -2.012862
2.0144062 -10.136348 -2.0088372
2.4453146 -12.327151 -1.9904724
3.1034799 -15.67371 -1.9618529
4.2949033 -21.710724 -1.936252
6.9400125 -35.146198 -1.8775002
1.4525666 -7.4243693 -2.0270708
1.674805 -8.5682058 -2.0155613
1.9782592 -10.139462 -2.0080738
2.3998871 -12.311926 -1.9867179
3.0484531 -15.668326 -1.959903
4.2168131 -21.713848 -1.9352061
6.7967997 -35.031765 -1.8701732
1.4279392 -7.4291453 -2.0270708
19.70639 -102.62315 1.8240209
1.6408463 -8.552948 -2.0106125
1.945733 -10.151752 -2.0092189
2.3565245 -12.318288 -1.9864051
2.9915097 -15.667173 -1.9584407
4.14329 -21.719883 -1.9345088
6.6625152 -34.992496 -1.8668238
19.321745 -102.55178 1.8215425
1.0821586 -5.7491579 -1.3506061
1.9110115 -10.16234 -2.0099821
2.3160629 -12.340029 -1.9885952
2.935338 -15.669715 -1.9574655
4.0637827 -21.714628 -1.9327657
6.5315294 -34.968418 -1.8643116
1.0561631 -5.7264295 -1.131879
2.2690399 -12.326668 -1.9851536
2.8777549 -15.664247 -1.9555157
3.9829235 -21.701246 -1.9303253
6.4058318 -34.971359 -1.8632649
16.010599 -88.363556 1.5675054
1.0288314 -5.6895113 -1.123865
2.225647 -12.332569 -1.9848408
2.8205936 -15.660522 -1.9538096
3.9043274 -21.699331 -1.9289309
6.3027778 -35.099663 -1.8689172
17.51812 -98.645325 1.7488009
1.0051968 -5.671803 -1.1196673
2.179832 -12.324702 -1.9823378
2.7655673 -15.668317 -1.9535657
3.8257904 -21.69713 -1.9275364
6.1615295 -35.015228 -1.8632649
0.98515046 -5.6563134 -1.5384204
0.97742188 -5.6235495 -1.3177633
0.98203301 -5.6559343 -1.115851
2.1347737 -12.320558 -1.9804606
2.7095063 -15.670051 -1.9525908
3.7473161 -21.694645 -1.9261419
6.0134811 -34.886936 -1.8553097
0.96442562 -5.6540046 -1.5368675
0.95615095 -5.617322 -1.3155137
0.96162653 -5.6554565 -1.1150879
2.0927463 -12.333776 -1.9813992
2.6537945 -15.673541 -1.9518596
3.6679094 -21.685986 -1.9242245
5.8923306 -34.911655 -1.8555192
0.94182044 -5.6401873 -1.5322088
0.93525565 -5.6129365 -1.3137141
0.93897814 -5.6413498 -1.1116532
2.047415 -12.327366 -1.9792091
2.597446 -15.672917 -1.9506408
3.5918655 -21.69669 -1.9240501
5.7684803 -34.920185 -1.8548912
0.91776454 -5.6167488 -1.5249618
0.91502988 -5.6123204 -1.3128144
0.91991144 -5.648468 -1.1124165
2.0043716 -12.334438 -1.9792091
2.542721 -15.681889 -1.9506408
3.5154703 -21.705162 -1.9237015
5.6439972 -34.924339 -1.8540539
0.8966291 -5.6103802 -1.5223737
0.89487743 -5.6057019 -1.3105649
0.89957196 -5.6477675 -1.1116532
1.9609745 -12.32541 -1.9767061
2.4882154 -15.674549 -1.948691
3.4353199 -21.689753 -1.9212611
5.5262871 -34.931023 -1.8534257
0.87801927 -5.6133227 -1.5223737
0.87199968 -5.5876117 -1.3056159
0.88265234 -5.6623583 -1.113943
1.918547 -12.336083 -1.9773319
2.4347014 -15.690987 -1.9496659
3.3559315 -21.677984 -1.9191694
5.3884449 -34.847462 -1.8479828
0.85627311 -5.6088634 -1.5203031
0.85190225 -5.5867686 -1.3047161
0.86100692 -5.6597323 -1.1127981
1.871838 -12.333268 -1.9757676
2.3787262 -15.691538 -1.948691
3.2820256 -21.701387 -1.9202154
5.2624736 -34.87883 -1.8486109
0.83640498 -5.6099076 -1.5197855
0.83256674 -5.5975633 -1.3065157
0.83922666 -5.6491098 -1.1101269
1.8296438 -12.345589 -1.9767061
2.3177135 -15.676586 -1.9457661
3.2062554 -21.712711 -1.9202154
5.1302156 -34.825851 -1.8448426
0.81542581 -5.6032348 -1.5171974
0.81343979 -5.596437 -1.3056159
0.81893814 -5.648119 -1.1093636
1.7881291 -12.347678 -1.9760804
2.2657146 -15.684186 -1.9457661
3.12135 -21.660664 -1.9146372
5.0135617 -34.834766 -1.8444239
0.79711264 -5.6078205 -1.517715
0.79417306 -5.601171 -1.3060658
0.79772693 -5.6333089 -1.105929
1.7433572 -12.342109 -1.9742032
2.2098465 -15.684137 -1.9447912
3.0461712 -21.647221 -1.9125456
4.8797231 -34.765026 -1.8398185
0.77859336 -5.6182227 -1.5197855
0.77328223 -5.5942578 -1.3038163
0.77564162 -5.618556 -1.1024945
1.6994573 -12.342248 -1.9732646
2.1545427 -15.687822 -1.9443036
2.9705915 -21.657722 -1.9125456
4.7583356 -34.781849 -1.8398185
0.76001197 -5.6285644 -1.521856
0.75505006 -5.6065793 -1.3060658
0.75628668 -5.6231747 -1.1028761
1.6566267 -12.350062 -1.9735774
2.0966115 -15.671637 -1.9413787
2.8896964 -21.628464 -1.9090594
4.6305676 -34.750736 -1.8373064
0.7408635 -5.6350141 -1.5228913
0.7364881 -5.616909 -1.3078654
0.73818207 -5.6374607 -1.1051657
1.6137625 -12.35773 -1.9738904
2.0400996 -15.66508 -1.9396726
2.8100698 -21.606808 -1.9062704
4.5082078 -34.758762 -1.8368877
0.72069871 -5.6337333 -1.521856
0.71835715 -5.6310444 -1.3105649
0.71949208 -5.6477928 -1.1066922
1.5706173 -12.363288 -1.9738904
1.9851558 -15.670136 -1.9394289
2.730129 -21.580904 -1.9031327
4.3778496 -34.70295 -1.8331194
0.70246005 -5.647717 -1.5249618
0.70040035 -5.6391973 -1.3119146
0.70073825 -5.6580634 -1.1082187
1.5286402 -12.360585 -1.9726388
1.9326944 -15.672692 -1.9389415
2.6542966 -21.586348 -1.9027841
4.2520356 -34.630054 -1.8285139
0.68651253 -5.6730299 -1.5311736
0.6814124 -5.6474118 -1.3132643
0.68525916 -5.6876445 -1.1135614
1.486662 -12.375653 -1.9742032
1.8782123 -15.681314 -1.9391851
2.5812788 -21.583162 -1.9017383
4.1230907 -34.577255 -1.824955
0.66873419 -5.6926599 -1.5358323
0.66350776 -5.6652398 -1.3168634
0.66585726 -5.6939015 -1.1143246
1.4418522 -12.367032 -1.9720131
1.8193387 -15.652282 -1.9347978
2.4990323 -21.532665 -1.8965088
3.9977722 -34.551758 -1.8228616
0.65104574 -5.7141542 -1.5410087
0.64548832 -5.683012 -1.3204627
0.64730567 -5.7078958 -1.1166143
1.3980098 -12.366101 -1.9710745
1.7653556 -15.664456 -1.9355291
2.4274182 -21.572939 -1.899298
3.8722453 -34.521839 -1.8205588
0.6306715 -5.7125506 -1.5399734
0.62841803 -5.7104125 -1.3263115
0.63016468 -5.7354898 -1.1215754
1.3556955 -12.378761 -1.972326
1.711098 -15.674469 -1.9360166
2.348645 -21.549587 -1.8965088
3.7465439 -34.487488 -1.8180467
0.61401159 -5.7454524 -1.5482556
0.61219621 -5.7474513 -1.3344096
0.61512256 -5.7845092 -1.1307341
1.3108113 -12.367702 -1.9698231
1.65512 -15.668502 -1.9345541
2.2729926 -21.553692 -1.8961602
3.6278021 -34.516247 -1.818884
0.59832174 -5.7898364 -1.5596437
0.59512526 -5.7786303 -1.3411582
1.0468959 -10.182734 -1.9897563
1.267229 -12.368273 -1.9691973
1.5998131 -15.66826 -1.933823
2.1945093 -21.529781 -1.8933713
3.5008404 -34.465115 -1.8155346
0.58252066 -5.836102 -1.5715494
1.0113436 -10.186326 -1.9897563
1.2240475 -12.372621 -1.9691973
1.5445281 -15.667822 -1.9330916
2.118562 -21.529381 -1.8926741
3.3758347 -34.429417 -1.8130224
0.82535976 -8.6031628 -1.9953159
9.8499088 -102.85966 5.4153066
0.97353572 -10.166343 -1.9851768
1.1808528 -12.376818 -1.9691973
1.4886984 -15.661261 -1.9316292
2.042644 -21.528709 -1.8919767
3.2616467 -34.50462 -1.8163718
0.69397837 -7.4808512 -2.0130947
0.79693782 -8.623456 -1.999365
9.485858 -102.83971 5.4124804
0.9384042 -10.17359 -1.9859402
1.137642 -12.380864 -1.9691973
1.4349275 -15.676246 -1.932848
1.9634964 -21.49206 -1.888142
3.1411862 -34.515797 -1.8163718
0.66871858 -7.4928489 -2.0156829
0.76700383 -8.6281261 -1.9998149
9.1227474 -102.82644 5.4100728
0.90323156 -10.180715 -1.9867034
1.0919831 -12.357211 -1.964817
1.3791537 -15.669295 -1.9313855
1.8856733 -21.467026 -1.8853531
3.0269504 -34.598175 -1.82014
0.64223027 -7.4912877 -2.0146475
0.73539019 -8.6132755 -1.9957658
8.7585144 -102.79597 5.4068284
0.86768973 -10.183805 -1.9867034
1.0486743 -12.358979 -1.9645042
1.3241146 -15.670058 -1.9308981
1.811062 -21.477448 -1.8857017
2.9074981 -34.624458 -1.8209774
0.61686903 -7.5031104 -2.0172358
0.70579642 -8.6216164 -1.9971154
8.3942537 -102.76022 5.4033737
0.83165514 -10.180901 -1.9855584
1.0050478 -12.35666 -1.9635657
1.2684478 -15.662713 -1.9294356
1.7357618 -21.479668 -1.8853531
2.7766862 -34.510963 -1.8144878
0.59067339 -7.505218 -2.0172358
0.67584908 -8.6259708 -1.9975653
8.0503311 -102.74767 5.4012804
0.79504198 -10.170041 -1.9828871
0.96190858 -12.360093 -1.9635657
1.2161934 -15.662875 -1.9289482
1.6592345 -21.465731 -1.8836099
2.6488478 -34.424858 -1.8094635
0.56476629 -7.4936509 -2.0136123
0.64724028 -8.6281643 -1.9975653
7.7062726 -102.72999 5.3989778
0.76072609 -10.16479 -1.9813608
0.92003483 -12.351396 -1.9616885
1.1645404 -15.670781 -1.9294356
1.5862806 -21.447271 -1.8815181
2.5311558 -34.385651 -1.8069514
0.53963548 -7.4916296 -2.0125771
0.61876363 -8.6322069 -1.9980152
7.3440795 -102.70646 5.3963614
0.72579938 -10.175217 -1.9828871
0.87808919 -12.340585 -1.9594984
1.1098335 -15.67475 -1.9294356
1.508885 -21.416903 -1.8783807
2.4105566 -34.386307 -1.8065327
0.51283216 -7.5031934 -2.0151651
0.58646083 -8.6246967 -1.9957658
6.9634004 -102.67091 5.393116
0.68876535 -10.181727 -1.9836504
0.83218914 -12.333865 -1.957934
1.0511785 -15.660887 -1.927242
1.430112 -21.418312 -1.8780318
2.2781541 -34.299252 -1.8015084
0.48495489 -7.499239 -2.0136123
0.55409515 -8.615119 -1.9930664
6.6022749 -102.65274 5.3909178
0.65271735 -10.176231 -1.982124
0.78697741 -12.336832 -1.957934
0.99625087 -15.660499 -1.9267545
1.3540834 -21.40329 -1.8762889
2.15766 -34.295036 -1.8008803
0.46008357 -7.5008059 -2.0136123
0.52599853 -8.6246891 -1.9948659
0.61861151 -10.172462 -1.9809792
0.74546611 -12.329515 -1.9563696
0.94371742 -15.65381 -1.9255358
1.2828609 -21.403685 -1.8759401
2.0398855 -34.234215 -1.7973217
0.43509531 -7.5003619 -2.0130947
0.49750701 -8.6283321 -1.9953159
0.58543789 -10.184258 -1.9828871
0.70356286 -12.314171 -1.9535539
0.88895661 -15.655025 -1.925292
1.2072417 -21.39212 -1.8745457
1.9247776 -34.212875 -1.7958562
0.40728763 -7.4961195 -2.0115416
0.46727979 -8.6280689 -1.9948659
0.54768467 -10.178493 -1.9813608
0.65789694 -12.306804 -1.9519895
0.83420074 -15.656051 -1.9250482
1.1312975 -21.372328 -1.8724539
1.795802 -34.15189 -1.7922974
0.38170797 -7.5090714 -2.0146475
0.43535832 -8.6238852 -1.9935162
0.51234996 -10.184264 -1.982124
0.61483526 -12.307053 -1.9516766
0.77612412 -15.645124 -1.9233421
1.0547218 -21.336348 -1.8689677
1.6746234 -34.11805 -1.7902039
0.35567567 -7.5142179 -2.0156829
0.40639156 -8.6174955 -1.9917165
0.47697923 -10.189913 -1.9828871
0.57401973 -12.309024 -1.9516766
0.72387105 -15.63968 -1.9223672
0.98041999 -21.34388 -1.8693165
1.5585518 -34.05957 -1.7868544
0.33050144 -7.5095658 -2.0141299
0.37647721 -8.622756 -1.9926165
0.44284528 -10.183593 -1.9813608
0.53130472 -12.316873 -1.9526151
0.66893601 -15.634179 -1.9213922
0.90793836 -21.307203 -1.8658301
1.4403218 -34.080765 -1.7876917
0.30389491 -7.5010223 -2.0115416
0.34796134 -8.6259041 -1.9930664
0.40698114 -10.177229 -1.9798342
0.48990703 -12.304749 -1.9504251
0.61693037 -15.632344 -1.9209048
0.8335588 -21.310242 -1.8658301
1.32373 -33.993549 -1.7828768
0.27887598 -7.4981279 -2.0105064
0.31770438 -8.6231709 -1.9921664
0.37116683 -10.17074 -1.9783077
0.44630834 -12.288619 -1.9476093
0.56307262 -15.65424 -1.9233421
0.75718057 -21.257269 -1.8609494
1.1964527 -33.922325 -1.7788993
0.25152051 -7.5029612 -2.0115416
0.28570896 -8.6125917 -1.9894673
0.33375892 -10.168108 -1.9775445
0.40100726 -12.282274 -1.9463578
0.50517839 -15.640326 -1.9213922
0.67926341 -21.259901 -1.8609494
1.0702199 -33.866592 -1.7757591
0.2241919 -7.5096259 -2.0130947
0.25402623 -8.6096849 -1.9885672
0.29826209 -10.16921 -1.9775445
0.35633236 -12.295509 -1.948235
0.44722697 -15.620246 -1.9187111
0.60493439 -21.25816 -1.8606008
0.94919026 -33.770302 -1.7705256
0.19792685 -7.5084314 -2.0125771
0.22432572 -8.624155 -1.9917165
0.2625612 -10.16234 -1.9760182
0.31335872 -12.294703 -1.9479222
0.3919507 -15.591945 -1.915055
0.53042692 -21.24819 -1.8595549
0.83258092 -33.825317 -1.773247
0.17176117 -7.5110078 -2.0130947
0.19408859 -8.6190424 -1.9903669
0.22734804 -10.174971 -1.9783077
0.27018076 -12.283873 -1.9460449
0.3375237 -15.593218 -1.915055
0.45574239 -21.226009 -1.8574631
0.71256244 -33.736168 -1.7684321
0.14535359 -7.501904 -2.0105064
0.16385384 -8.6118736 -1.9885672
1.9292809 -102.33935 5.3643312
0.19164529 -10.165889 -1.9763998
0.2271539 -12.276841 -1.9447935
0.2827304 -15.574454 -1.9126177
0.3811425 -21.199583 -1.8550228
0.59395504 -33.690521 -1.7659199
0.11916685 -7.5023656 -2.0105064
0.13369973 -8.6065474 -1.9872177
1.5894625 -102.31722 5.3628659
0.15615949 -10.166495 -1.9763998
0.1841794 -12.269658 -1.943542
0.23102261 -15.571336 -1.9121301
0.30731493 -21.212738 -1.8560687
0.4751063 -33.604519 -1.7613145
0.094359994 -7.5085144 -2.0120592
0.10511173 -8.6030464 -1.9863179
1.2497756 -102.28998 5.3611913
0.12237399 -10.161067 -1.9752548
0.14349173 -12.270202 -1.943542
0.17911179 -15.548197 -1.9092052
0.23674591 -21.193718 -1.8543255
0.36379543 -33.617893 -1.7619424
0.069370702 -7.4991274 -2.0094712
0.076634131 -8.6091928 -1.9876676
0.91027457 -102.26161 5.3595166
0.088643357 -10.157492 -1.9744916
0.1028672 -12.278511 -1.9447935
0.12750167 -15.54275 -1.9084741
0.1664654 -21.194387 -1.8543255
0.25141186 -33.499084 -1.7556622
0.044479996 -7.4954529 -2.0084357
0.048116915 -8.6152458 -1.9890171
0.57110924 -102.25607 5.3590975
0.054875251 -10.142024 -1.9714386
0.062059168 -12.261006 -1.9419776
0.075939357 -15.539119 -1.9079866
0.09607207 -21.170914 -1.8522338
0.14037643 -33.511719 -1.7562902
0.016998595 -7.4917021 -2.0074008
0.016536245 -8.6134157 -1.9885672
0.17845275 -102.24753 5.3585744
0.017735383 -10.161788 -1.9752548
0.017105911 -12.251275 -1.9404132
0.016272683 -15.537309 -1.9077429
0.018468825 -21.163155 -1.8515366
0.017496228 -33.420135 -1.7514753
-0.0091526378 -7.4917154 -2.0074008
-0.013498893 -8.5939341 -1.9840684
-0.17838328 -102.20958 5.3565855
-0.017728209 -10.157863 -1.9744916
-0.025616633 -12.231506 -1.9372847
-0.037945632 -15.529331 -1.906768
-0.055321619 -21.131212 -1.8487476
-0.09879145 -33.296162 -1.7449857
-0.035321962 -7.4955015 -2.0084357
-0.043497477 -8.5938349 -1.9840684
-0.053185944 -10.15774 -1.9744916
-0.068401009 -12.247145 -1.9397876
-0.092104346 -15.521164 -1.905793
-0.12908356 -21.13089 -1.8487476
-0.21496151 -33.287624 -1.744567
-0.061565373 -7.5049915 -2.011024
-0.071994729 -8.5936432 -1.9840684
-0.088540234 -10.145713 -1.9722018
-0.10913572 -12.260677 -1.9419776
-0.14384991 -15.550549 -1.9094491
-0.20295617 -21.142263 -1.8497934
-0.32460561 -33.210838 -1.7405895
-0.086251602 -7.4873605 -2.0063653
-0.10206234 -8.599185 -1.985418
-0.12390596 -10.141416 -1.9714386
-0.15166534 -12.238495 -1.938536
-0.19757275 -15.506283 -1.9040867
-0.27633855 -21.109552 -1.8470045
-0.44777715 -33.317265 -1.7462417
-0.1138697 -7.4985838 -2.0094712
-0.13357837 -8.598753 -1.985418
-0.16107544 -10.140894 -1.9714386
-0.1965194 -12.237856 -1.938536
-0.25417709 -15.49156 -1.9023806
-0.35364068 -21.104414 -1.8466558
-0.57043517 -33.347351 -1.7479165
-0.14113338 -7.4865274 -2.0063653
-0.16475694 -8.5806704 -1.9813689
-0.19647428 -10.14027 -1.9714386
-0.24121647 -12.229155 -1.9372847
-0.3107577 -15.480601 -1.9011619
-0.42657864 -21.067192 -1.8435181
-0.68593168 -33.301224 -1.7456136
-0.1674391 -7.4937143 -2.0084357
-0.19325475 -8.5820255 -1.9818188
-0.2318683 -10.139522 -1.9714386
-0.28172344 -12.226313 -1.9369718
-0.36162609 -15.459641 -1.8987246
-0.49964455 -21.045658 -1.8417752
-0.79597408 -33.282795 -1.7447762
-0.19238763 -7.4969802 -2.0094712
-0.223159 -8.5793505 -1.9813689
-0.26518291 -10.126922 -1.969149
-0.32424268 -12.219331 -1.9360331
-0.41537511 -15.450346 -1.8977495
-0.56910664 -21.031935 -1.8407292
-0.90908444 -33.168011 -1.7389146
-0.21821733 -7.4846768 -2.0063653
-0.25172353 -8.5824585 -1.9822687
-0.30023873 -10.116122 -1.9672408
-0.36440843 -12.206342 -1.9341559
-0.46672663 -15.452853 -1.8982371
-0.64166707 -21.00194 -1.8382889
-1.0163668 -33.076973 -1.7343091
-0.24347541 -7.4974275 -2.0099888
-0.2819353 -8.5893183 -1.9840684
-0.33384848 -10.117033 -1.9676224
-0.40609142 -12.177355 -1.9297757
-0.52080029 -15.455098 -1.8987246
-0.71117193 -20.995714 -1.8379403
-1.1318257 -33.073223 -1.7343091
-0.26915807 -7.4830179 -2.0063653
-1.251817 -34.634109 0.60493535
-0.31120783 -8.5688076 -1.9795692
-0.36916173 -10.115806 -1.9676224
-0.44859618 -12.175863 -1.9297757
-0.57444894 -15.44525 -1.8977495
-0.78430814 -20.989122 -1.8375916
-1.24651 -33.049114 -1.7332623
-0.29550576 -7.487824 -2.0079181
-0.34127298 -8.5715637 -1.9804692
-0.40462747 -10.11838 -1.9683858
-0.49117512 -12.176196 -1.9300886
-0.62755102 -15.423317 -1.8953122
-0.85708147 -20.974312 -1.8365457
-1.3603898 -33.008644 -1.7313782
-0.3213928 -7.480957 -2.0063653
-1.4903895 -34.550602 0.60364383
-0.37119046 -8.5703201 -1.9804692
-0.43926141 -10.101213 -1.9653327
-0.5335874 -12.172435 -1.9297757
-0.68138689 -15.421032 -1.8953122
-0.92905474 -20.943327 -1.8341054
-1.4756004 -33.003693 -1.7313782
-0.34768379 -7.4836493 -2.0074008
-1.6105158 -34.535206 0.60346931
-0.40110445 -8.5689726 -1.9804692
-0.4741503 -10.091775 -1.9638064
-0.57579404 -12.164579 -1.9288372
-0.73539984 -15.422524 -1.8957996
-1.0006316 -20.908113 -1.8313165
-1.591562 -33.014301 -1.7322158
-1.6757486 -34.510075 -0.60308534
-0.37390107 -7.4843192 -2.0079181
-0.43130723 -8.5733585 -1.9818188
-0.50957251 -10.093979 -1.9645696
-0.61755115 -12.148685 -1.9266472
-0.78882641 -15.411934 -1.8948246
-1.0725846 -20.884596 -1.8295733
-1.7111305 -33.092316 -1.736612
-0.39992014 -7.4810395 -2.0074008
-0.46070692 -8.5620708 -1.9795692
-0.54490888 -10.0941 -1.9649512
-0.66027606 -12.152372 -1.9275857
-0.84196758 -15.397195 -1.8933623
-1.145043 -20.872768 -1.8288761
-1.8316951 -33.177876 -1.7414268
-2.2801688 -41.170631 -0.71973723
-0.42680061 -7.4930983 -2.011024
-0.48943102 -8.5663328 -1.980919
-0.57946604 -10.080376 -1.9626614
-0.70034271 -12.146172 -1.92696
-0.89256263 -15.38639 -1.8923874
-1.217432 -20.860689 -1.8281789
-1.9468434 -33.25935 -1.7460325
-0.45118156 -7.4839292 -2.0089536
-0.51874059 -8.5548468 -1.9786695
-0.61277062 -10.07644 -1.9622798
-0.74249709 -12.139709 -1.9263341
-0.94528931 -15.367331 -1.8904375
-1.288028 -20.820515 -1.8250412
-2.0624304 -33.244373 -1.7456136
-0.47823778 -7.4764414 -2.0074008
-0.54922336 -8.5627069 -1.980919
-0.64919204 -10.066289 -1.9607532
-0.78685731 -12.134935 -1.9260213
-0.99918538 -15.367899 -1.8909249
-1.3593957 -20.796009 -1.823298
-2.1981473 -33.447849 -1.7567089
-0.50381339 -7.4670162 -2.0053301
-0.58073467 -8.562582 -1.9813689
-0.68392789 -10.058085 -1.9596084
-0.82813406 -12.116348 -1.9235184
-1.0553672 -15.362153 -1.8906811
-1.4311584 -20.779213 -1.8222523
-2.2806826 -32.945831 -1.7307502
-0.52973765 -7.4632854 -2.0048125
-0.60951114 -8.5449524 -1.9777697
-0.72029227 -10.07326 -1.963043
-0.87056494 -12.115355 -1.9238312
-1.1079843 -15.344516 -1.888975
-1.5022447 -20.754219 -1.8205091
-2.3965416 -32.949623 -1.7313782
-0.55664647 -7.47295 -2.0079181
-0.63918954 -8.5408278 -1.9773197
-0.75442362 -10.056981 -1.9603716
-0.91210675 -12.102393 -1.9222668
-1.1604894 -15.326699 -1.8872689
-1.5734735 -20.732956 -1.8191147
-2.506381 -32.873344 -1.7278193
-0.58318031 -7.4767389 -2.0094712
-0.66899896 -8.5385447 -1.9773197
-0.78875512 -10.044501 -1.9584637
-0.954036 -12.095197 -1.9216411
-1.2124151 -15.302766 -1.8848314
-1.6467844 -20.739252 -1.8201605
-2.6153998 -32.792725 -1.7240512
-0.60786223 -7.4573288 -2.0048125
-0.69975418 -8.5478115 -1.9800191
-0.82413226 -10.0456 -1.9592268
-0.99608845 -12.089825 -1.9213283
-1.2656611 -15.296462 -1.8845876
-1.7178491 -20.717495 -1.8187661
-2.7242138 -32.715725 -1.7204924
-0.63421792 -7.4590116 -2.0058477
-0.72859162 -8.5512695 -1.9813689
-0.85819024 -10.030925 -1.9569372
-1.034825 -12.070709 -1.9188254
-1.3150176 -15.276359 -1.8826377
-1.7894679 -20.703432 -1.8180687
-2.8257959 -32.626915 -1.7163056
-0.65945894 -7.4626403 -2.0074008
-0.75809252 -8.5447922 -1.9804692
-0.89318687 -10.047579 -1.9607532
-1.0773034 -12.070958 -1.9194511
-1.3693956 -15.283539 -1.8841002
-1.8563348 -20.67754 -1.8163255
-2.934649 -32.561153 -1.7133747
-0.68621171 -7.4679875 -2.0094712
-0.78773594 -8.5401525 -1.9800191
-0.92753166 -10.03658 -1.9592268
-1.1183379 -12.055323 -1.9175739
-1.4201621 -15.250993 -1.880688
-1.92887 -20.674902 -1.8166744
-3.04196 -32.483105 -1.7098159
-0.71099061 -7.4520855 -2.0058477
-0.81791365 -8.5412312 -1.980919
-0.95955944 -10.002013 -1.9531209
-1.1609805 -12.057245 -1.9185126
-1.4722424 -15.234088 -1.8792255
-1.9991077 -20.648212 -1.8149312
-3.1475992 -32.392773 -1.7056289
-0.73623919 -7.4418678 -2.0037773
-0.84714478 -8.532506 -1.9795692
-0.99621743 -10.016185 -1.9565556
-1.2030613 -12.05312 -1.9185126
-1.5254107 -15.228856 -1.8792255
-2.0671935 -20.60146 -1.8114449
-3.2618532 -32.393509 -1.706257
-0.76181716 -7.4354091 -2.0027418
-0.87792033 -8.5391893 -1.9818188
-1.0315757 -10.016552 -1.9573188
-1.2416756 -12.015443 -1.9131937
-1.5777415 -15.215541 -1.8782505
-2.1390939 -20.594118 -1.8114449
-3.3749087 -32.381924 -1.706257
-0.79061681 -7.4595995 -2.0099888
-0.90463156 -8.5070057 -1.9750704
-1.0677804 -10.024604 -1.9596084
-1.2857077 -12.030677 -1.9163225
-1.6312659 -15.213888 -1.8787379
-2.2084129 -20.562754 -1.8093531
-3.4780805 -32.278603 -1.7014421
-0.81286639 -7.4222283 -2.0006714
-0.9351725 -8.5115442 -1.9768698
-1.1038417 -10.030573 -1.9615166
-1.3281287 -12.030043 -1.9169482
-1.6799923 -15.16864 -1.8738631
-2.2806168 -20.558882 -1.8097019
-3.5801268 -32.170986 -1.6964178
-0.8383351 -7.4155064 -1.9996361
-0.9648779 -8.5082283 -1.9768698
-1.1355238 -9.9973993 -1.9557924
-1.3694427 -12.019444 -1.9160095
-1.7329309 -15.162683 -1.8738631
-2.3487418 -20.519121 -1.8069128
-3.6919475 -32.15432 -1.6962085
-0.86108404 -7.3856707 -1.9923891
-0.99117529 -8.4757748 -1.9701214
-1.1731561 -10.016772 -1.9603716
-1.4125414 -12.024401 -1.9175739
-1.7832031 -15.156854 -1.8738631
-2.4161479 -20.475183 -1.8037752
-3.8022876 -32.125374 -1.6953712
-0.88326877 -7.3635936 -1.9872128
-1.0204408 -8.4821157 -1.9723709
-1.2051916 -10.003081 -1.9584637
-1.4512235 -12.009845 -1.9160095
-1.832979 -15.146915 -1.8733757
-2.4816329 -20.447279 -1.8020321
-3.8976946 -32.021385 -1.6905563
-0.90744722 -7.358707 -1.9866952
-1.045692 -8.4554777 -1.966972
-1.2335308 -9.960062 -1.9508314
-1.492745 -12.018689 -1.9181997
-1.8843669 -15.128606 -1.8719133
-2.5464664 -20.415211 -1.7999403
-3.9979112 -31.96072 -1.6880441
-0.93045324 -7.3344126 -1.981001
-1.0737263 -8.440176 -1.9642726
-1.2675451 -9.9498539 -1.9496864
-1.5354416 -12.019283 -1.9191382
-1.9341359 -15.098309 -1.8689884
-2.6151791 -20.386438 -1.7981973
-4.1038461 -31.902992 -1.6857414
-0.94905484 -7.2774825 -1.9665072
-1.1026754 -8.4325132 -1.9633728
-1.2981908 -9.9142227 -1.9435806
-1.5743005 -11.990348 -1.9153838
-1.985793 -15.083592 -1.8680135
-2.6868439 -20.381136 -1.798546
-4.2120433 -31.864712 -1.6844852
-0.97778684 -7.299017 -1.9732366
-1.1310662 -8.420887 -1.9615731
-1.3301733 -9.890173 -1.9397644
-1.6132413 -11.963244 -1.9119422
-2.037101 -15.066732 -1.8667948
-2.7526281 -20.332144 -1.7950596
-4.3146467 -31.786484 -1.6811358
-1.0032586 -7.2955594 -1.9732366
-1.1583248 -8.4014435 -1.957974
-1.3620039 -9.8660212 -1.9359483
-1.6506584 -11.926233 -1.9069364
-2.0929577 -15.083125 -1.8697196
-2.8230336 -20.318466 -1.794711
-4.4255805 -31.771229 -1.6811358
-1.0306079 -7.3054037 -1.9768599
-1.1826355 -8.3724709 -1.9521253
-1.3936808 -9.8417673 -1.932132
-1.686039 -11.891356 -1.9022434
-2.1412864 -15.06431 -1.8682572
-2.8933794 -20.304543 -1.7943624
-4.5235753 -31.704967 -1.6784142
-1.0509613 -7.2751775 -1.969613
-1.209898 -8.3547916 -1.9489759
-1.4254649 -9.8312635 -1.9309872
-1.7218535 -11.846303 -1.895986
-2.1955752 -15.068529 -1.8697196
-2.9630868 -20.286434 -1.7936652
-4.6330638 -31.68108 -1.6779956
-1.0764863 -7.2636328 -1.9675424
-1.2393396 -8.3524456 -1.9494258
-1.4603333 -9.8182049 -1.9294606
-1.7565219 -11.781299 -1.8865999
-2.2425911 -15.023471 -1.8650886
-3.0297513 -20.248379 -1.7912247
-4.7396708 -31.600681 -1.674646
-1.0977756 -7.2330914 -1.9602956
-1.2655492 -8.3189478 -1.9426774
-1.4892758 -9.7781124 -1.9225914
-1.7988286 -11.782907 -1.8878514
-2.294337 -14.993566 -1.8624074
-3.0973966 -20.217985 -1.7894818
-4.8547964 -31.615532 -1.6763209
-1.1259828 -7.2483048 -1.9654719
-1.291032 -8.3012266 -1.9395281
-1.5261205 -9.7903128 -1.9260262
-1.8314948 -11.735889 -1.8812811
-2.3489537 -15.017255 -1.8663074
-3.1688778 -20.212955 -1.7900045
-4.9466047 -31.516388 -1.6719246
-1.1494073 -7.240715 -1.9644365
-1.3175523 -8.2812719 -1.9359287
-1.5573419 -9.7774429 -1.9244996
-1.8690258 -11.707968 -1.8778396
-2.393518 -14.95996 -1.8602139
-3.2387259 -20.220043 -1.7915735
-5.0470877 -31.43977 -1.6687845
-1.1768422 -7.2500076 -1.9680601
-1.3434434 -8.2672415 -1.9336793
-1.5914624 -9.7719469 -1.9244996
-1.9091113 -11.709504 -1.8790911
-2.4354315 -14.904922 -1.854364
-3.3099298 -20.212547 -1.7919221
-5.142272 -31.367672 -1.6658536
-1.2011939 -7.2401376 -1.9665072
-1.3705382 -8.2430382 -1.9291801
-1.6229845 -9.7508392 -1.9214467
-1.951691 -11.70048 -1.8787781
-2.4867718 -14.876316 -1.8519267
-3.3893459 -20.253925 -1.7966284
-5.2558846 -31.340736 -1.665435
-1.2232304 -7.2168541 -1.9613309
-1.4002836 -8.2439671 -1.9305301
-1.6570119 -9.7451143 -1.9214467
-1.9892036 -11.674123 -1.8756495
-2.5323348 -14.830367 -1.8472956
-3.4512949 -20.19091 -1.7920963
-5.3564897 -31.271015 -1.6627135
-1.248085 -7.2106357 -1.9608132
-1.42672 -8.2255898 -1.9273807
-1.6890024 -9.7276649 -1.919157
-2.0285861 -11.659323 -1.874398
-2.5782928 -14.788191 -1.843152
-3.5220964 -20.180704 -1.7922707
-5.4580412 -31.208845 -1.6604108
-1.2749282 -7.2157474 -1.9634014
-1.4533857 -8.2090454 -1.9246813
-1.7256891 -9.737175 -1.9222099
-2.0672004 -11.640501 -1.8725207
-2.6229408 -14.740013 -1.8382773
-3.5848322 -20.12513 -1.7884358
-5.5536084 -31.114887 -1.6564332
-1.2980516 -7.1998458 -1.9602956
-1.4764891 -8.1732378 -1.9174827
-1.7589693 -9.7272282 -1.9214467
-2.1145127 -11.670144 -1.8784653
-2.6644504 -14.676079 -1.8314526
-3.6265593 -19.955673 -1.7744908
-5.6664839 -31.118891 -1.6576892
-1.3217777 -7.1876712 -1.958225
-1.5095998 -8.1929483 -1.9233315
-1.7907754 -9.709445 -1.919157
-2.1577494 -11.676291 -1.8806553
-2.7149391 -14.662785 -1.8309652
-3.6972852 -19.948771 -1.7750138
-5.7670488 -31.055721 -1.6553864
-1.3457913 -7.1773176 -1.9566721
-1.5363905 -8.1780529 -1.9210819
-1.8264725 -9.7127829 -1.9210651
-2.1999574 -11.676452 -1.8819069
-2.7609487 -14.62591 -1.8275528
-3.7624583 -19.912249 -1.772922
-5.8650174 -30.980453 -1.6524557
-1.3711996 -7.1744733 -1.9571897
-1.5634621 -8.1649847 -1.9192824
-1.8522341 -9.663928 -1.9126694
-2.2399564 -11.664823 -1.8812811
-2.8074877 -14.592792 -1.824628
-3.8323193 -19.900951 -1.7730964
-5.9625301 -30.904881 -1.6495248
-1.4006654 -7.1923981 -1.9634014
-1.5871029 -8.1346121 -1.9134337
-1.8821937 -9.638135 -1.9088533
-2.2821779 -11.664686 -1.8825326
-2.8427525 -14.503034 -1.8146347
-3.907515 -19.91678 -1.7757111
-6.0588131 -30.825087 -1.6463847
-1.4302748 -7.2102041 -1.969613
-1.6143488 -8.1232882 -1.9120839
-1.9024202 -9.5641117 -1.8954966
-2.2950859 -11.517164 -1.860006
-2.8455589 -14.253581 -1.7846549
-4.0074654 -20.05541 -1.7893074
-6.1593237 -30.768496 -1.6445005
-1.4535211 -7.1956997 -1.9670248
-1.633804 -8.0736732 -1.9017363
-1.905004 -9.4054022 -1.8653487
-2.3128846 -11.398736 -1.8421725
-2.8672211 -14.105443 -1.7673494
-4.080626 -20.056921 -1.7907019
-6.2666855 -30.746811 -1.6445005
-1.4801867 -7.1981511 -1.9690953
-1.6655153 -8.0851002 -1.9057853
-1.8835119 -9.1352711 -1.8130672
-2.3095047 -11.181662 -1.8083826
-2.9075909 -14.052583 -1.7619872
-4.1320257 -19.952808 -1.7826835
-6.3739748 -30.724747 -1.6445005
-1.5049084 -7.1910496 -1.9685777
-1.6805328 -8.0162954 -1.8909385
-1.9149845 -9.1267195 -1.8126855
-2.3387706 -11.127136 -1.8008738
-2.9357691 -13.94328 -1.7495564
-3.6901572 -17.511047 -1.5656657
-6.4704609 -30.651503 -1.6417791
-1.5300001 -7.1857529 -1.9685777
-1.6985775 -7.9706545 -1.8814906
-1.9456006 -9.1142197 -1.8115407
-2.3591478 -11.042048 -1.7883589
-2.9570618 -13.817001 -1.7349322
-3.9275029 -18.320169 -1.6392251
-6.5854783 -30.692368 -1.6451286
-1.5460577 -7.1447644 -1.9587426
-1.7160689 -7.9170637 -1.870243
-1.9608301 -9.0386477 -1.7978026
-2.3955793 -11.024096 -1.7867948
-2.9782548 -13.682455 -1.7193328
-3.988658 -18.30899 -1.6393995
-6.7206759 -30.797983 -1.652037
-1.5730643 -7.1487584 -1.9613309
-1.7340467 -7.8672552 -1.8598953
-2.0118237 -9.1199379 -1.815357
-2.4310641 -11.002164 -1.7846047
-3.0405812 -13.737874 -1.72762
-4.0404797 -18.24049 -1.6345189
-6.8385201 -30.821131 -1.6545491
-1.5861996 -7.090436 -1.9468369
-1.7619243 -7.8630557 -1.8603452
-2.0127141 -8.9749308 -1.7878804
-2.4798436 -11.039867 -1.7921134
-3.0340514 -13.485091 -1.6971526
-4.0179014 -17.843363 -1.6001794
-6.9451895 -30.793175 -1.6543397
-1.6015164 -7.0434132 -1.9354489
-1.7880619 -7.8511572 -1.8589954
-2.068898 -9.0769577 -1.8096325
-2.4963822 -10.934853 -1.7764701
-3.1063259 -13.584723 -1.7110457
-4.0801625 -17.829227 -1.6001794
-7.0588803 -30.796 -1.6558052
-1.6265279 -7.0396624 -1.9359666
-1.8141388 -7.8391724 -1.8576458
-2.0775366 -8.9702225 -1.7897884
-2.547482 -10.981875 -1.7855432
-3.1496818 -13.556394 -1.7088521
-4.1401176 -17.805174 -1.5993078
-7.1627121 -30.75561 -1.6549678
-1.6356398 -6.9681163 -1.9178492
-1.8553176 -7.8916006 -1.8715929
-2.1002917 -8.9266052 -1.7825377
-2.5635979 -10.878704 -1.7702127
-3.2088411 -13.595548 -1.7151892
-4.1775117 -17.685905 -1.589895
-7.2571521 -30.675999 -1.652037
-1.6595044 -6.9604855 -1.9173316
-1.8891897 -7.9116116 -1.8778914
-2.1492352 -8.9936905 -1.7974207
-2.5850031 -10.800528 -1.7589493
-3.2183335 -13.425972 -1.6952027
-4.1880946 -17.458099 -1.5707208
-7.3651171 -30.654366 -1.6522464
-1.6815189 -6.9452615 -1.9147433
-1.9190912 -7.9144382 -1.880141
-2.1833942 -8.9975815 -1.7997105
-2.6245546 -10.799117 -1.7602009
-3.281611 -13.482163 -1.7037336
-4.1957264 -17.22463 -1.5510236
-7.5411921 -30.91176 -1.6675284
-1.7025236 -6.926218 -1.9111199
-1.9378546 -7.8717389 -1.8715929
-2.2063341 -8.9555922 -1.7928416
-2.6750114 -10.841672 -1.7686483
-3.3072238 -13.383905 -1.6927652
-4.2859583 -17.331728 -1.5620052
-7.0229483 -28.357199 -1.5310363
-1.7365118 -6.9595947 -1.9219903
-1.9487853 -7.7987547 -1.8558462
-2.2323437 -8.9268847 -1.7886436
-2.7022808 -10.790112 -1.7617651
-3.3394334 -13.314517 -1.6854532
-4.3182998 -17.20458 -1.5518951
-7.0819659 -28.173677 -1.5224532
-1.7513105 -6.9160361 -1.9116375
-1.9922833 -7.8561292 -1.871143
-2.276046 -8.9685144 -1.7985657
-2.7389562 -10.776785 -1.7611394
-3.3819745 -13.287389 -1.6835033
-4.3734117 -17.170095 -1.5501521
-7.1664453 -28.094597 -1.5195223
-1.7764022 -6.9136229 -1.9126729
-2.022207 -7.8645773 -1.8747422
-2.3166392 -8.9966393 -1.8058165
-2.7633414 -10.723647 -1.7539434
-3.4220505 -13.260723 -1.6815534
-4.401413 -17.031267 -1.5389961
-7.1845608 -27.78063 -1.5038215
-1.8051627 -6.9301281 -1.9188845
-2.0324306 -7.7914739 -1.8589954
-2.3201797 -8.8882284 -1.7855908
-2.8097486 -10.748336 -1.759575
-3.4582622 -13.210289 -1.6766785
-4.480083 -17.101381 -1.5466658
-7.3078413 -27.855841 -1.5092645
-1.8283554 -6.9200487 -1.9178492
-2.0356901 -7.6939034 -1.8374002
-2.2929015 -8.6599236 -1.741323
-2.8275075 -10.663996 -1.7473731
-3.4997678 -13.18087 -1.674485
-4.4798894 -16.860346 -1.5262713
-7.3300495 -27.548368 -1.4939823
-16.465794 -61.796196 -1.1162908
-1.844 -6.8819017 -1.9090494
-2.0918262 -7.7959166 -1.8634945
-2.3943932 -8.9173193 -1.7947495
-2.8688173 -10.669322 -1.7498761
-3.542145 -13.155155 -1.6727787
-4.5900316 -17.035059 -1.5435282
-7.422008 -27.507185 -1.493145
-1.86953 -6.8810163 -1.9106023
-2.1133988 -7.7678823 -1.8585455
-2.4280839 -8.9183798 -1.7966576
-2.8946118 -10.617314 -1.742993
-3.584383 -13.129306 -1.6710726
-4.6037869 -16.851725 -1.5283631
-7.3071699 -26.710524 -1.4512762
-1.8909729 -6.8651357 -1.9080141
-2.1368742 -7.7473087 -1.8553963
-2.4283829 -8.798192 -1.7741421
-2.9479694 -10.66617 -1.752692
-3.6211901 -13.08419 -1.666929
-4.6790676 -16.895075 -1.5337667
-7.2946815 -26.30378 -1.4305512
-1.9159644 -6.8622146 -1.9090494
-2.1618047 -7.732295 -1.8535968
-2.5019233 -8.9428043 -1.8050531
-2.9734588 -10.613968 -1.7458088
-3.6132238 -12.880339 -1.6425551
-4.7013979 -16.748196 -1.5219135
-7.477252 -26.601177 -1.4481361
-1.9404317 -6.8573437 -1.909567
-2.1829386 -7.7040777 -1.8486477
-2.511703 -8.8584642 -1.7897884
-3.0002398 -10.567418 -1.7398643
-3.6663039 -12.896289 -1.6462111
-4.7363887 -16.649282 -1.5144182
-7.5820975 -26.617172 -1.4504389
-1.9542401 -6.8152452 -1.8997319
-2.2114313 -7.7020297 -1.8499974
-2.5588737 -8.906251 -1.801237
-3.0573165 -10.627121 -1.7514404
-3.6821752 -12.782314 -1.633293
-4.8275871 -16.747513 -1.5248768
-7.4777889 -25.907404 -1.4131756
-2.0098166 -6.9178357 -1.9302725
-2.2339485 -7.6792941 -1.8463982
-2.589946 -8.8972645 -1.801237
-3.0910771 -10.605006 -1.7495633
-3.7429004 -12.824645 -1.6403615
-4.8435707 -16.585211 -1.5116292
-7.5760226 -25.907982 -1.414641
-2.0394065 -6.9293103 -1.9354489
-2.2431121 -7.6116328 -1.8320013
-2.6132147 -8.8618069 -1.7958944
-3.1359074 -10.620675 -1.7539434
-3.7685089 -12.746778 -1.6320744
-4.8799567 -16.495602 -1.5050054
-7.5677109 -25.548168 -1.3964281
-2.0475769 -6.8684611 -1.9204375
-2.283603 -7.6504402 -1.843249
-2.6413224 -8.8432255 -1.7939863
-3.1769233 -10.622911 -1.7561336
-3.8375051 -12.823594 -1.6435301
-4.9317889 -16.459381 -1.5032623
-7.6729159 -25.575161 -1.3993589
-2.074249 -6.8745794 -1.9240609
-2.3315034 -7.7174439 -1.8612449
-2.657567 -8.7911949 -1.7852092
-3.2127054 -10.614208 -1.7564464
-3.8759816 -12.7975 -1.641824
-4.9672618 -16.380016 -1.49751
-7.6625199 -25.236155 -1.3821927
-2.0998547 -6.8769011 -1.926649
