# .PCD v0.7 - Point Cloud Data file format
VERSION 0.7
FIELDS x y z
SIZE 4 4 4
TYPE F F F
COUNT 1 1 1
WIDTH 1476
HEIGHT 1
VIEWPOINT 0 0 0 1 0 0 0
POINTS 1476
DATA ascii
-24.448866 8.7539577 -2.2719758
-60.658485 21.742779 -3.3770301
-7.4786568 2.6954312 -2.1300809
-7.8033829 2.8155458 -1.9152331
-9.0188303 3.2558713 -1.8638223
-12.891101 4.6588793 -2.1709976
-16.841158 6.0930877 -2.1990106
-24.440641 8.8473854 -2.2740676
-7.4733076 2.721539 -2.1311162
-7.8031578 2.8447447 -1.9174827
-8.9083872 3.2494323 -1.8432151
-12.866304 4.6982155 -2.1694334
-16.791029 6.1379976 -2.1951108
-24.399942 8.9242802 -2.2730217
-60.509087 22.155149 -3.3770301
-7.4619503 2.7469404 -2.1305985
-7.798666 2.8739874 -1.9188325
-8.9098845 3.2852609 -1.8458863
-12.864652 4.7485714 -2.1719363
-16.780672 6.2007008 -2.1965733
-24.372377 9.0107794 -2.2733703
-7.4523158 2.7729707 -2.1305985
-7.7885871 2.9011908 -1.9188325
-8.9737883 3.3444552 -1.8615327
-12.844297 4.7920651 -2.1713107
-16.755205 6.2578492 -2.1960857
-24.355707 9.1013737 -2.2747648
-7.4353571 2.7962489 -2.1285279
-7.8094158 2.9400325 -1.9264808
-8.9087791 3.3556902 -1.8504658
-12.827492 4.8368707 -2.1713107
-16.759262 6.3261085 -2.1994979
-24.308876 9.1807108 -2.2733703
-65.874641 24.905073 -3.6908367
-7.4327755 2.82493 -2.1305985
-7.8118548 2.9721277 -1.92963
-8.8896713 3.3839715 -1.8489393
-12.812373 4.8823247 -2.1716235
-16.72595 6.3803267 -2.1980357
-24.276682 9.2655096 -2.2733703
-65.906708 25.180489 -3.6975355
-7.4228692 2.8508582 -2.1305985
-7.7868819 2.9937818 -1.9260309
-8.9052906 3.4255545 -1.8546635
-12.791567 4.9255953 -2.1709976
-16.707279 6.4401045 -2.198523
-24.270218 9.3602266 -2.2758107
-7.4128728 2.8767519 -2.1305985
-7.7781997 3.0216506 -1.9264808
-8.8731508 3.4487958 -1.8504658
-12.7835 4.9737983 -2.1725621
-7.7985239 3.0373807 -1.0276023
-24.233685 9.4434423 -2.2754622
-65.703255 25.629843 -3.6960702
-7.4009876 2.9019032 -2.1300809
-7.7676048 3.0487835 -1.9264808
-8.8976049 3.4941006 -1.8580981
-12.775252 5.0220046 -2.1741264
-7.7546244 3.0515003 -1.0232152
-24.204279 9.5294371 -2.2758107
-7.3908124 2.9277217 -2.1300809
-7.7804661 3.0852153 -1.9323295
-8.8671064 3.5178978 -1.8542819
-12.739286 5.0592742 -2.1709976
-16.624166 6.6088367 -2.1965733
-24.152351 9.6065092 -2.2740676
-7.3823409 2.9542208 -2.1305985
-7.7624125 3.1094592 -1.9305301
-8.654314 3.4684889 -1.8123039
-12.725214 5.1051865 -2.1716235
-16.623102 6.6756997 -2.1994979
-24.144558 9.7011528 -2.2765079
-7.384522 2.985038 -2.1342218
-7.7804141 3.1482313 -1.9377284
-8.7731791 3.5517187 -1.8397803
-12.709147 5.1503167 -2.1719363
-16.566587 6.7202578 -2.1951108
-24.114239 9.7868729 -2.2768564
-7.3758454 3.0115271 -2.1347394
-7.7621622 3.17242 -1.9359287
-8.6898575 3.5533421 -1.8248973
-12.705716 5.200635 -2.1744394
-16.568745 6.7885814 -2.198523
-24.094677 9.8770342 -2.2782512
-7.3510008 3.0313637 -2.1305985
-7.7438364 3.196522 -1.9341292
-8.6411076 3.5686677 -1.8172649
-12.694789 5.2479706 -2.1756909
-7.5094247 3.1074352 -0.99786633
-24.056374 9.9595518 -2.2779024
-7.3582082 3.0644324 -2.1357749
-7.7362285 3.2250335 -1.9350289
-7.4689379 3.1151392 -1.5730294
-7.4793267 3.1225352 -1.2837014
-23.992048 10.031173 -2.2751136
-55.300034 23.143831 -3.1417277
-7.3474669 3.0900991 -2.1357749
-7.7051668 3.2437034 -1.9300802
-7.4829426 3.1547651 -1.2862043
-23.978912 10.12416 -2.2772052
-7.3526387 3.122524 -2.1404335
-7.7051306 3.2738059 -1.9327793
-12.640075 5.3784184 -2.1756909
-16.469919 7.014823 -2.1980357
-23.928766 10.201544 -2.2758107
-7.3404679 3.1461284 -2.1399159
-7.6918631 3.2999153 -1.9323295
-8.5712385 3.6789505 -1.8130672
-12.61941 5.4217253 -2.1753781
-16.438038 7.0691347 -2.1970608
-23.893009 10.285009 -2.2758107
-53.939808 23.230158 -3.0778778
-7.3288879 3.1730099 -2.1399159
-7.682086 3.3275197 -1.9327793
-8.5180693 3.6931601 -1.8046715
-12.603077 5.4695139 -2.1760037
-0.88682753 0.38486758 0.11870075
-16.409618 7.1248903 -2.1965733
-23.860617 10.369938 -2.2761593
-7.3213067 3.2001224 -2.1409512
-7.6626983 3.3525276 -1.9309798
-8.4817457 3.7126369 -1.7997105
-12.580291 5.5118856 -2.1753781
-0.81632352 0.35783127 0.10943868
-16.394302 7.1897707 -2.1980357
-23.816977 10.449963 -2.2754622
-7.3242311 3.2318983 -2.1450922
-7.6331215 3.3713834 -1.9264808
-8.5208101 3.7652335 -1.8107775
-12.560973 5.555769 -2.1753781
-0.78965527 0.3494325 0.10602634
-16.379999 7.2517715 -2.1994979
-23.802214 10.542719 -2.2775538
-54.894508 24.337343 -3.1469612
-7.3234935 3.2621596 -2.1481981
-7.5768104 3.3781686 -1.9152331
-8.5542336 3.8157461 -1.8206996
-12.550521 5.6036081 -2.1769423
-0.79205573 0.35380587 0.10651381
-16.329208 7.2975693 -2.1960857
-23.743443 10.615982 -2.2754622
-52.833057 23.644436 -3.0334969
-7.3279195 3.2948341 -2.1528571
-7.5957789 3.4168668 -1.9228816
-8.3045597 3.7391865 -1.770326
-12.542676 5.6500645 -2.1788194
-0.78363895 0.35316798 0.10553886
-16.319401 7.3582039 -2.1980357
-23.73893 10.713545 -2.2785997
-53.998493 24.403934 -1.0343343
-7.3011189 3.3119338 -2.1481981
-7.6121974 3.4562492 -1.9300802
-8.2849655 3.7634575 -1.7687995
-12.526475 5.6954451 -2.1794453
-0.79685676 0.36247677 0.10748877
-16.290001 7.4134846 -2.1975482
-23.648874 10.76744 -2.2733703
-53.008934 24.157568 -3.0529661
-7.284245 3.3349874 -2.1466453
-7.6538458 3.5058193 -1.9435771
-8.4787951 3.8872659 -1.8130672
-12.49136 5.7295413 -2.1766293
-0.78843361 0.36180559 0.10651381
-16.279758 7.4740849 -2.1994979
-23.64373 10.864899 -2.2765079
-52.975716 24.35491 -3.0556874
-53.649467 24.687332 -1.0308439
-7.2848353 3.3660641 -2.1502688
-7.6391754 3.5330305 -1.9431273
-8.5596075 3.9605334 -1.833293
-12.46669 5.7736259 -2.1760037
-0.7726931 0.35801661 0.10456391
-16.245052 7.530364 -2.198523
-23.587585 10.938983 -2.2747648
-53.44981 24.833261 -1.0287496
-7.2800441 3.3947401 -2.1523392
-7.6303287 3.5613215 -1.9440269
-8.574192 4.0036783 -1.8393987
-12.457199 5.8221235 -2.177881
-0.77143866 0.36071166 0.10456391
-16.20788 7.5819783 -2.1970608
-23.520384 11.007741 -2.2719758
-7.2664013 3.4193091 -2.1518216
-7.6284275 3.5929186 -1.9467264
-8.5388536 4.0235415 -1.8348193
-12.433226 5.8638897 -2.1772552
-0.77376539 0.36509651 0.10505138
-16.188498 7.6418943 -2.1980357
-23.499832 11.098285 -2.2737191
-7.252677 3.4438224 -2.151304
-7.644001 3.6329093 -1.9539249
-8.5141191 4.0482631 -1.8325297
-12.430519 5.9157434 -2.1803839
-0.77607089 0.36950177 0.10553886
-16.16889 7.7017746 -2.1990106
-23.457352 11.178533 -2.2733703
-51.317371 24.477127 -2.9796956
-7.2440958 3.470788 -2.1523392
-7.6576314 3.6722078 -1.9606735
-8.5123262 4.0839028 -1.8352009
-12.397329 5.9531093 -2.1781938
-0.78193361 0.37564692 0.10651381
-16.149061 7.7616076 -2.1999855
-23.425373 11.263795 -2.2740676
-51.004852 24.546978 -2.966507
-7.237154 3.4985762 -2.1538923
-7.6412582 3.6972184 -1.9597737
-8.4856482 4.1076064 -1.8325297
-12.372918 5.9946256 -2.177568
-0.7591818 0.36798415 0.10358895
-16.125446 7.8196607 -2.2004731
-23.389498 11.347236 -2.2744162
-50.818245 24.676014 -2.9606454
-7.2335801 3.5280519 -2.1564806
-7.640564 3.7298529 -1.9629229
-8.4959564 4.149262 -1.8378724
-12.357241 6.0403814 -2.1785066
-0.75967604 0.37150389 0.10383269
-16.087353 7.870667 -2.1990106
-23.353321 11.430569 -2.2747648
-50.907578 24.939352 -2.9709032
-7.2316208 3.558398 -2.1595864
-7.6205044 3.7530568 -1.9611233
-8.4708557 4.173687 -1.8355827
-12.337851 6.0843563 -2.1788194
-0.76727575 0.3785449 0.10505138
-16.081142 7.9373183 -2.2019355
-23.316853 11.513783 -2.2751136
-7.2053118 3.5767477 -2.1554451
-7.6317902 3.791774 -1.9674219
-8.482605 4.2163382 -1.8413069
-12.323614 6.1309037 -2.1800709
-0.75350964 0.37502936 0.10334522
-16.04978 7.9916382 -2.201448
-23.294353 11.603982 -2.2768564
-7.1996937 3.6053355 -2.1575158
-7.609797 3.8140252 -1.9651723
-8.4573069 4.2406406 -1.8390172
-12.293309 6.1694541 -2.1785066
-0.76106626 0.38211069 0.10456391
-16.039528 8.0565205 -2.2038856
-23.243027 11.679857 -2.2758107
-7.1939621 3.6339297 -2.1595864
-7.5999169 3.8423221 -1.9660723
-6.6765265 3.376945 -1.4543462
-12.273462 6.2132173 -2.1788194
-0.74556035 0.37759009 0.102614
-15.997142 8.1052828 -2.2019355
-23.22344 11.771729 -2.2779024
-50.971191 25.859156 -2.9953964
-7.1829543 3.6598983 -2.1601038
-7.5864582 3.8688276 -1.9660723
-6.6122336 3.3734636 -1.4428977
-12.262255 6.2614121 -2.1806967
-0.75130886 0.3838025 0.10358895
-16.000566 8.1773338 -2.2063227
-23.21059 11.867236 -2.2806914
-7.1701355 3.6849475 -2.1601038
-7.6144958 3.9166803 -1.9768698
-6.5934353 3.3929312 -1.4413712
-12.229785 6.2987537 -2.1788194
-0.74643528 0.38460428 0.10310147
-15.961341 8.2276773 -2.2048604
-23.1584 11.942705 -2.2796457
-7.1572289 3.7099538 -2.1601038
-7.5852098 3.9351597 -1.9728208
-0.9679029 0.50235617 0.057150867
-6.5676122 3.4086893 -1.4383184
-0.89649439 0.46549293 0.088375926
-12.239278 6.3577967 -2.1844511
-0.75741839 0.39361504 0.10480764
-15.964223 8.2998285 -2.2092476
-7.1408105 3.7331245 -2.1590683
-0.91079539 0.47635487 0.017941073
-7.5921483 3.9724529 -1.9782196
-0.85997391 0.45015684 0.050870556
-0.93016434 0.48710543 0.09186215
-9.6133289 5.0364118 -1.7189021
-0.75779802 0.39717808 0.10505138
-0.94584221 0.49594676 -0.13113143
-0.86807114 0.45536086 -0.085761249
-0.87533844 0.45956299 -0.051812604
-0.81959939 0.43066433 -0.01616093
-0.87729001 0.46273813 0.017312787
-7.6506219 4.037128 -1.9971154
-0.87959218 0.46434525 0.052126616
-0.81570452 0.43080011 0.080706216
-0.90821964 0.47986308 -0.16269186
-0.73885685 0.39054447 0.102614
-0.87391168 0.46212652 -0.12138188
-0.85238737 0.4509348 -0.084366761
-0.87372905 0.46261549 -0.051812604
-0.86049747 0.45599464 -0.016998643
-0.9313252 0.49519432 -0.28263038
-0.84389102 0.4488937 0.016684501
-0.86875957 0.46231663 -0.22720055
-0.80392069 0.42799219 0.047730397
-0.87861478 0.46775794 -0.19348033
-0.82826394 0.44113764 0.082100704
-0.85075206 0.45330554 -0.15268005
-0.74975151 0.39965752 0.10432017
-0.83025503 0.44275624 -0.11553215
-0.84026074 0.44828069 -0.083320886
-0.84391952 0.45061088 -0.050137851
-0.84831876 0.45334044 -0.016789215
-0.87851465 0.47105539 -0.26710126
-0.81764859 0.43860301 0.016195834
-0.82592988 0.44323093 -0.21640292
-0.83761579 0.4496904 0.049823835
-0.82854402 0.44482005 -0.18279503
-0.81969804 0.44025522 0.081403457
-0.83176357 0.4469226 -0.14955136
-0.74310637 0.39945251 0.10358895
-0.8391943 0.45129281 -0.11699458
-0.82816344 0.44554713 -0.082275018
-0.84234142 0.453554 -0.050137851
-0.81504476 0.43922326 -0.01616093
-0.83608049 0.45206705 -0.25467795
-0.82666582 0.44716278 0.016405262
-0.82780546 0.44796622 -0.21730271
-0.81847709 0.44310287 0.048777115
-0.82353324 0.44584018 -0.1820318
-0.79713297 0.43172762 0.079311721
-0.83714575 0.45358753 -0.15080284
-0.75217867 0.40771997 0.10505138
-0.83063376 0.4504343 -0.11601962
-0.85253507 0.46250343 0.15361866
-0.82660317 0.44843528 -0.082275018
-0.83373213 0.45267951 -0.049719162
-0.79242212 0.43060821 -0.015742071
-0.83619362 0.45590732 -0.25519559
-0.81281108 0.44334304 0.01616093
-0.81768352 0.44618586 -0.2150532
-0.83445603 0.45552689 0.049823835
-0.80473989 0.43930495 -0.17821561
-0.78862673 0.43068773 0.078614481
-0.81475502 0.44514164 -0.14704841
-0.75075096 0.4103429 0.10505138
-0.83079815 0.45428342 -0.11626337
-0.85091543 0.46547654 0.15361866
-0.83377254 0.45609885 -0.08314658
-0.82513934 0.45175052 -0.049300473
-0.80143625 0.43913737 -0.015951499
-0.82105392 0.45137802 -0.25105447
-0.82001948 0.45099598 0.016335452
-0.78880328 0.43400669 -0.20785476
-0.81536365 0.44880611 0.048777115
-0.80148154 0.44116488 -0.17783399
-0.79235423 0.43632108 0.079137415
-0.80627549 0.44417021 -0.14579694
-0.74757534 0.41200307 0.10480764
-0.83268404 0.45909756 -0.11675084
-0.82161021 0.45317882 0.14861277
-0.81298482 0.44842124 -0.08122915
-0.82180893 0.45366284 -0.049195804
-0.79289722 0.43806392 -0.015811879
-0.81778359 0.45330492 -0.25053686
-0.7957058 0.44124833 0.015881689
-0.78387535 0.43486679 -0.20695497
-0.8085531 0.44874191 0.048463102
-0.7913537 0.43919638 -0.17592591
-0.780375 0.43328124 0.078091539
-0.80990076 0.44985947 -0.14673555
-0.73919189 0.41075328 0.10383269
-0.80331612 0.44656903 -0.11285102
-0.81311774 0.45220381 0.14736128
-0.80967331 0.45028824 -0.081054844
-0.80800432 0.44972917 -0.048463102
-0.80009806 0.44569468 -0.015986405
-0.80439186 0.4495593 -0.24691339
-0.79939699 0.44695085 0.015986405
-0.79936022 0.44711366 -0.21145399
-0.80175298 0.44863549 0.048149083
-0.78467613 0.43907982 -0.17478105
-0.78059638 0.43697584 0.078265861
-0.80832541 0.45268402 -0.14673555
-0.74294913 0.41624165 0.10456391
-0.79309422 0.44451764 -0.11163233
-0.81153423 0.45503941 0.14736128
-0.78898019 0.442393 -0.079137415
-0.78727031 0.44179526 -0.047311708
-0.78110218 0.43869239 -0.015637357
-0.80786687 0.45520949 -0.2484663
-0.81176788 0.45759425 0.016265644
-0.78761005 0.4441576 -0.20875457
-0.79844254 0.45045006 0.048044413
-0.78826833 0.4447102 -0.17592591
-0.76518524 0.4318639 0.076871365
-0.79125923 0.4467617 -0.14391972
-0.75359052 0.4256666 0.10627007
-0.79499406 0.44923669 -0.1121198
-0.79618412 0.45009229 0.14485833
-0.78049356 0.44122222 -0.078440167
-0.80658311 0.45634282 -0.048567772
-0.78130621 0.44240162 -0.015672261
-0.7980324 0.45297706 -0.2458781
-0.77728724 0.44138113 0.015602452
-0.78451639 0.44566727 -0.20830467
-0.80570555 0.45789042 0.048567772
-0.78686732 0.44718444 -0.17592591
-0.76728886 0.43623498 0.077219985
-0.78470057 0.4463155 -0.14298111
-0.76087618 0.43294063 0.10748877
-0.78495306 0.44682178 -0.11090111
-0.82223105 0.46823168 0.14986424
-0.81191826 0.46254662 -0.081752084
-0.7947343 0.45294067 -0.04793974
-0.7729643 0.44089112 -0.015532642
-0.80474967 0.46069792 -0.2484663
-0.75838733 0.43415672 0.015253403
-0.77619183 0.44452897 -0.20650508
-0.79033297 0.45299432 -0.17707075
-0.77432686 0.44399968 0.078091539
-0.78134602 0.44820568 -0.14266825
-0.74902892 0.42966753 0.10602634
-0.7782234 0.44659492 -0.11016989
-0.78632891 0.45142889 0.14360686
-0.79129392 0.45446292 -0.079834662
-0.76363164 0.43893045 -0.046160318
-0.7748878 0.4455801 -0.015602452
-0.79644388 0.45964152 -0.24639574
-0.77584064 0.44793177 0.015637357
-0.76274478 0.44054839 -0.20335576
-0.78165656 0.45165321 0.047311708
-0.78534722 0.45378572 -0.17630751
-0.78312188 0.4526825 0.079137415
-0.77464658 0.44796371 -0.14172964
-0.74916744 0.43340385 0.10627007
-0.78517175 0.45441601 -0.11138859
-0.79150718 0.45826703 0.14485833
-0.76728761 0.44424438 -0.077568613
-0.76727927 0.44459724 -0.046474334
-0.77670908 0.45042378 -0.015672261
-0.79984397 0.46533346 -0.24794866
-0.78809863 0.45868436 0.015916595
-0.77972728 0.45399407 -0.20830467
-0.78180093 0.4553844 0.047416382
-0.78375828 0.45652452 -0.17630751
-0.79186559 0.46143201 0.080183282
-0.78502423 0.45762873 -0.14391972
-0.74250549 0.43301636 0.10553886
-0.79043925 0.46115535 -0.11236355
-0.83767223 0.48890761 0.15361866
-0.79842645 0.46600181 -0.08088053
-0.80538845 0.47044235 -0.048881788
-0.77167946 0.45111361 -0.015602452
-0.79488188 0.46616805 -0.24691339
-0.78994238 0.46345624 0.015986405
-0.7882216 0.46263158 -0.21100408
-0.79226273 0.46518964 0.048149083
-0.78554595 0.46124575 -0.17707075
-0.77307087 0.45410201 0.078440167
-0.7885313 0.46336883 -0.14485833
-0.74098945 0.43560556 0.10553886
-0.79738039 0.46894315 -0.11358224
-0.83596039 0.49182886 0.15361866
-0.77275354 0.45464176 -0.078440167
-0.81062567 0.47730443 -0.049300473
-0.77871412 0.45888069 -0.015776975
-0.8098799 0.47877067 -0.25208977
-0.78831977 0.46621081 0.015986405
-0.78492469 0.46438813 -0.21055418
-0.79235303 0.46896943 0.048253756
-0.78562069 0.46498477 -0.17745239
-0.75948024 0.44969207 0.077219985
-0.78350979 0.46410504 -0.1442326
-0.73092568 0.4331294 0.10432017
-0.79061586 0.46868682 -0.11285102
-0.8088631 0.47969511 -0.082275018
-0.81238967 0.4821699 -0.04950982
-0.77538836 0.46057492 -0.015742071
-0.80156547 0.47763923 -0.25001919
-0.77981693 0.46486405 0.015846785
-0.77827775 0.46413067 -0.20920448
-0.78564727 0.46852553 0.04793974
-0.78905082 0.4707419 -0.17859723
-0.77501422 0.46255144 0.078963101
-0.77340466 0.46177387 -0.14266825
-0.73793042 0.44076788 0.10553886
-0.78727072 0.47042572 -0.11260728
-0.78666204 0.47024831 -0.080183282
-0.77813643 0.46552062 -0.047521055
-0.78586781 0.47033218 -0.015986405
-0.79326898 0.47645554 -0.24794866
-0.78855658 0.47362512 0.016056214
-0.77005279 0.46269426 -0.20740487
-0.78400707 0.47126508 0.04793974
-0.77730787 0.4674229 -0.17630751
-0.77680945 0.46730807 0.079311721
-0.77356184 0.46535435 -0.14298111
-0.7381655 0.4442361 0.1057826
-0.77720326 0.46791425 -0.11138859
-0.76283067 0.45962408 -0.077917233
-0.76290405 0.45985004 -0.046683677
-0.77052313 0.46480903 -0.015707165
-0.79499012 0.48108387 -0.24898393
-0.78689831 0.47637507 0.016056214
-0.76676607 0.46436995 -0.20695497
-0.77210802 0.46778932 0.047311708
-0.77071619 0.46694607 -0.17516267
-0.78718251 0.47711048 0.080531903
-0.77193278 0.46805158 -0.14298111
-0.73491311 0.44578061 0.10553886
-0.78744459 0.47783321 -0.11309476
-0.76633054 0.46538669 -0.078440167
-0.76982892 0.46769542 -0.047207039
-0.75522667 0.45918486 -0.015427927
-0.7800287 0.47594464 -0.24484283
-0.77328163 0.47182786 0.015811879
-0.77844727 0.47516617 -0.21055418
-0.77728885 0.47464505 0.047730397
-0.76899958 0.46976778 -0.17516267
-0.75992769 0.4644081 0.077917233
-0.77358276 0.47293866 -0.14360686
-0.74012703 0.45248511 0.10651381
-0.77222425 0.47229302 -0.11114486
-0.76470119 0.46805906 -0.078440167
-0.77662528 0.47572997 -0.047730397
-0.75702918 0.46390814 -0.015497738
-0.77836257 0.47866455 -0.24484283
-0.77325046 0.47570658 0.015846785
-0.76674277 0.47188771 -0.20785476
-0.7840476 0.48272657 0.048253756
-0.77069867 0.47450784 -0.17592591
-0.77017695 0.47437203 0.079137415
-0.76015496 0.46838224 -0.14141677
-0.73339415 0.45206973 0.1057826
-0.78231561 0.48241374 -0.11285102
-0.76645428 0.47281748 -0.078788787
-0.75966454 0.46899539 -0.04678835
-0.75532389 0.46667948 -0.015497738
-6.8374734 4.2377591 -2.1554451
-7.3693819 4.5709906 -2.0020645
-0.785752 0.48756665 0.048463102
-8.1558027 5.0607543 -1.8657305
-0.77867299 0.48336226 0.080183282
-0.77026224 0.4783276 -0.14360686
-0.71663582 0.44519925 0.10358895
-8.8650894 5.5094481 -1.2815782
-0.80889696 0.5032981 -0.049928509
-0.8164978 0.50842267 -0.016789215
-6.8242769 4.2626238 -2.1559627
-7.3649483 4.6039181 -2.0052137
-0.84509993 0.52828217 0.052231289
-8.1297655 5.0839853 -1.8638223
-0.77529192 0.48502076 0.080008969
-8.8044338 5.5101709 -1.6450651
-0.72517282 0.45401841 0.10505138
-8.8003798 5.51191 -1.2749972
-44.81546 28.101782 -2.7722359
-6.8158946 4.2905374 -2.1580334
-7.3628325 4.6366234 -2.0088129
-8.2132845 5.1761866 -1.8871011
-8.7978096 5.5467124 -1.6472552
-0.72030514 0.45430273 0.10456391
-8.7921267 5.5474186 -1.2764597
-8.7921801 5.5517411 -0.90973163
-46.122303 29.157291 -0.95244759
-6.795104 4.3089767 -2.1559627
-7.3630571 4.6727371 -2.0133121
-8.1513243 5.1749821 -1.8767973
-0.72541612 0.46107385 0.10553886
-15.196871 9.6628418 -2.2111976
-8.8248549 5.6155591 -0.91513532
-45.969646 29.285891 -0.95140052
-6.7694998 4.32761 -2.1528571
-7.3614774 4.70786 -2.0173612
-8.1901779 5.2418647 -1.890154
-11.620634 7.4431429 -2.1857026
-0.72380221 0.4636032 0.10553886
-8.8202934 5.6560087 -0.91670412
-46.058971 29.569336 -0.95537966
-6.7576003 4.3533063 -2.1538923
-7.3539996 4.7411447 -2.0200605
-8.1272831 5.2416916 -1.8798503
-8.8063068 5.6839809 -1.6600827
-0.70375401 0.45440808 0.10285773
-46.192036 29.89439 -0.96040595
-6.7472239 4.380024 -2.1554451
-7.3504782 4.7752795 -2.0236597
-8.1138763 5.2732391 -1.8809953
-11.568391 7.524086 -2.1857026
-0.70049965 0.45577925 0.102614
-15.099792 9.828413 -2.2121725
-21.862158 14.23545 -2.2824345
-46.402294 30.26082 -0.966968
-6.7302766 4.402492 -2.1549275
-7.3451777 4.8083801 -2.026809
-8.103631 5.3069072 -1.8829032
-8.4095421 5.5114379 -1.5925031
-0.70886499 0.46475217 0.10407643
-15.078672 9.8897715 -2.2141225
-8.3524542 5.4802771 -0.87399781
-43.245457 28.396145 -2.7113168
-46.573795 30.60491 -0.97276223
-6.7035775 4.4185162 -2.151304
-7.3494964 4.8479381 -2.0326576
-8.1063595 5.3492193 -1.8878642
-11.522174 7.6090193 -2.186954
-0.71386361 0.47160059 0.10505138
-15.040747 9.9401579 -2.213635
-8.1604252 5.395124 -0.85586941
-43.146076 28.546928 -2.7113168
-6.6977692 4.4483027 -2.1544099
-7.3503809 4.8854308 -2.0376067
-8.0843678 5.3753095 -1.8871011
-11.500477 7.6524768 -2.1878927
-0.7039507 0.46858966 0.10383269
-15.004395 9.9877796 -2.2131476
-8.048686 5.3617187 -0.8461079
-42.447899 28.298538 -2.673635
-43.316586 28.888563 -0.90881658
-6.6813745 4.4694142 -2.1538923
-7.3357601 4.910861 -2.0380566
-8.105648 5.4283075 -1.8962599
-11.466831 7.6850724 -2.1863284
-0.70074403 0.469816 0.10358895
-7.8549294 5.2663617 -1.1611712
-7.9646821 5.3439765 -0.83913547
-42.330624 28.423538 -2.6721694
-42.410484 28.487917 -0.89178312
-6.6665168 4.4915462 -2.1538923
-7.3355927 4.9460554 -2.0425556
-8.0583057 5.4353962 -1.8893907
-11.457659 7.7341051 -2.1894569
-0.69095659 0.46658269 0.10237025
-7.8275514 5.2857156 -1.1597089
-21.701326 14.665293 -2.2914989
-42.136868 28.496626 -2.6658893
-42.252846 28.585819 -0.89045668
-6.6563826 4.5168815 -2.1554451
-7.3352714 4.9813018 -2.0470545
-8.0678434 5.4808445 -1.8958783
-11.445017 7.7809434 -2.1919601
-0.70089561 0.47668594 0.10407643
-14.891159 10.127624 -2.2111976
-21.599867 14.701303 -2.2859206
-42.141182 28.703661 -2.6721694
-42.17765 28.739281 -0.89087552
-6.6270251 4.5325232 -2.151304
-7.3523436 5.0323691 -2.0569522
-8.0865803 5.5369954 -1.905037
-11.426199 7.8295393 -2.1938372
-0.69914383 0.4792515 0.10407643
-7.465373 5.1193075 -1.1114485
-21.545839 14.780373 -2.2859206
-41.390221 28.414818 -2.6311381
-6.6207089 4.5622058 -2.1544099
-7.3315234 5.0557904 -2.0560527
-8.114068 5.5975194 -1.9161041
-7.4290504 5.1287861 -1.4298111
-0.71053398 0.49071372 0.10602634
-7.419692 5.1261525 -1.1073049
-21.481003 14.84643 -2.2845263
-29.729954 20.562977 -1.8944571
-41.988861 29.063631 -0.89136422
-6.6079178 4.5874901 -2.1554451
-7.3250337 5.0891342 -2.059202
-8.1170502 5.6414933 -1.9214467
-11.382611 7.9170136 -2.1960273
-0.69252193 0.4818534 0.10358895
-21.439518 14.934177 -2.2859206
-41.926521 29.237473 -0.8922019
-6.5863094 4.6083584 -2.1538923
-7.3231912 5.1258459 -2.0637012
-8.1140041 5.6835976 -1.9256444
-11.319549 7.9348679 -2.1894569
-0.69733787 0.48882547 0.10456391
-14.744698 10.339695 -2.2111976
-21.361166 14.990608 -2.2831318
-41.703133 29.298573 -0.88961899
-6.5828161 4.640223 -2.1580334
-7.3298316 5.1706271 -2.0708995
-8.052412 5.6824541 -1.9157225
-11.298236 7.9788914 -2.1907084
-0.69554162 0.49137792 0.10456391
-5.3107533 3.753269 -0.79848802
-21.334738 15.083485 -2.2859206
-41.518993 29.386202 -0.88787371
-6.553978 4.6542249 -2.1538923
-7.3396525 5.2140923 -2.0785477
-8.1093321 5.76513 -1.9340401
-11.274934 8.0186033 -2.1913342
-0.70361328 0.50058657 0.10602634
-5.2885737 3.7639532 -0.79702556
-21.294943 15.167112 -2.2873154
-29.386276 20.937819 -1.8910029
-42.06744 29.995333 -0.90183568
-6.5353651 4.6736865 -2.1528571
-7.3451781 5.2566905 -2.0852964
-8.0167389 5.7394185 -1.9164857
-11.224395 8.0418053 -2.186954
-0.71154249 0.50997788 0.10748877
-5.2786288 3.784704 -0.79751301
-21.215385 15.216745 -2.2841778
-6.529983 4.7043753 -2.1564806
-7.3331075 5.2868571 -2.087096
-8.1144867 5.8523507 -1.9447254
-11.205867 8.0878706 -2.1888313
-0.70332015 0.50781053 0.10651381
-5.2396379 3.7845099 -0.7936132
-21.181522 15.304705 -2.2862694
-6.5088296 4.7237382 -2.1549275
-7.3477206 5.3364711 -2.0965438
-7.9881678 5.8058724 -1.9195386
-11.179164 8.1280985 -2.1891441
-0.71117544 0.51726848 0.10797625
-5.2071347 3.7887604 -0.7906884
-21.12528 15.382242 -2.2862694
-41.353569 30.133436 -2.6815901
-6.4914737 4.7475605 -2.1549275
-7.3564181 5.3840828 -2.1046422
-8.014349 5.8699155 -1.9309872
-11.154078 8.1725206 -2.1900828
-0.70607275 0.5175243 0.10748877
-5.1772041 3.7960837 -0.78825098
-21.078402 15.466634 -2.2873154
-40.840393 29.989265 -2.655422
-6.4678092 4.7667375 -2.1528571
-7.3648643 5.4318295 -2.1127403
-8.1312551 5.9992595 -1.964188
-11.124047 8.2133503 -2.1900828
-0.71694529 0.52954388 0.10943868
-5.1504836 3.8055949 -0.78630108
-21.024282 15.540124 -2.2873154
-41.127251 30.421448 -2.6809618
-6.4449258 4.7846789 -2.1507864
-7.3880939 5.4888825 -2.1248875
-8.162262 6.0662522 -1.9767814
-11.095311 8.2521286 -2.1900828
-5.1307988 3.8188093 -0.78532612
-20.969912 15.613413 -2.2873154
-6.4343734 4.8117747 -2.1528571
-7.3891721 5.5298181 -2.1307364
-11.060115 8.2860708 -2.1888313
-5.0895143 3.8143742 -0.78093886
-20.93441 15.700862 -2.289407
-6.4183817 4.833086 -2.1528571
-7.4003634 5.5765743 -2.1392844
-8.9359951 6.7362008 -2.1752226
-11.029422 8.320323 -2.1882055
-5.0483155 3.8097069 -0.77655149
-20.904486 15.787008 -2.2918475
-6.4115543 4.8613462 -2.1559627
-7.4066696 5.6199312 -2.1464829
-8.8745127 6.7361221 -2.1656821
-6.0152655 4.5691452 -1.1964109
-5.034987 3.8273046 -0.77655149
-20.826645 15.836948 -2.2890584
-6.3868718 4.8778338 -2.1533747
-7.3947482 5.6516681 -2.1487324
-8.8478279 6.7646728 -2.1649189
-5.9898663 4.5829129 -1.1945337
-5.0026822 3.8303764 -0.77362669
-20.787052 15.921665 -2.2908015
-6.3682747 4.8989205 -2.1528571
-7.3780651 5.6798224 -2.1496322
-8.8241606 6.7955165 -2.1649189
-10.943162 8.4334526 -2.1882055
-4.9892807 3.8478158 -0.77362669
-20.740816 16.001427 -2.2918475
-6.3526626 4.9223037 -2.1533747
-7.3551135 5.7031541 -2.1487324
-8.8096943 6.833497 -2.1672087
-10.924581 8.4800806 -2.1903956
-4.9632783 3.8554647 -0.77167672
-20.687983 16.076174 -2.292196
-6.3461018 4.9527683 -2.1569982
-7.3320889 5.7263942 -2.1478326
-8.7814941 6.8633223 -2.1664453
-10.904249 8.5254631 -2.1922729
-4.9216485 3.8507485 -0.76728946
-20.622644 16.146978 -2.2914989
-6.314239 4.9652476 -2.1523392
-7.3141146 5.7556396 -2.1487324
-8.7470255 6.888175 -2.1641557
-10.879135 8.570261 -2.1935244
-4.8919125 3.8564715 -0.76485211
-20.585224 16.239733 -2.2939391
-6.2884274 4.9823589 -2.1497512
-7.3067141 5.7933035 -2.1527817
-8.7290812 6.9235458 -2.1656821
-10.836818 8.6014833 -2.1913342
-4.8777447 3.8743756 -0.76485211
-20.519047 16.304058 -2.2928932
-6.2770362 5.009099 -2.1518216
-7.2742639 5.8090477 -2.1491826
-8.7048597 6.9539742 -2.1656821
-10.799015 8.6330891 -2.18977
-4.8579912 3.8864172 -0.76387709
-20.471348 16.383049 -2.2939391
-6.2565031 5.0285583 -2.1507864
-7.2524233 5.8331823 -2.1487324
-8.69277 6.9941607 -2.168735
-10.767274 8.6694937 -2.1894569
-4.8227539 3.8859155 -0.76046479
-20.438854 16.474413 -2.2967281
-6.2494226 5.0588751 -2.1544099
-7.2199049 5.8486481 -2.1451333
-8.6667786 7.0232258 -2.1683536
-10.741552 8.7107563 -2.1903956
-4.7906632 3.8877161 -0.75753987
-20.399786 16.560726 -2.2988198
-6.2287307 5.0782194 -2.1533747
-7.2054853 5.8787427 -2.1469328
-8.640687 7.0521975 -2.1679718
-10.712609 8.7494488 -2.1907084
-4.7678418 3.896878 -0.75607747
-20.35111 16.639395 -2.2998657
-6.2049942 5.0950246 -2.151304
-7.1979976 5.9124999 -2.150532
-8.6129847 7.079823 -2.1672087
-10.683536 8.7849245 -2.1907084
-4.7518268 3.9101443 -0.75559002
-20.283672 16.70274 -2.2988198
-6.1865754 5.1143432 -2.1507864
-7.1788163 5.9388323 -2.1509819
-8.5955076 7.1133523 -2.168735
-10.637591 8.8095636 -2.1875796
-4.7228651 3.9140399 -0.75315261
-20.228176 16.769907 -2.2988198
-6.174624 5.140852 -2.1528571
-7.1700206 5.9738326 -2.1545811
-8.5645952 7.1382837 -2.1672087
-10.614358 8.852972 -2.1891441
-4.7000299 3.9228699 -0.75169015
-20.193979 16.860851 -2.3016088
-6.1566415 5.162374 -2.1528571
-7.1028461 5.9599948 -2.1406343
-8.5396261 7.1681366 -2.1672087
-10.583393 8.889966 -2.1891441
-4.6711121 3.9264791 -0.7492528
-20.128906 16.926105 -2.3009117
-6.1297293 5.1763535 -2.1497512
-7.0939054 5.9948149 -2.1442335
-8.5055561 7.1902971 -2.1649189
-10.559837 8.9332342 -2.1907084
-4.6513171 3.9376302 -0.74827784
-20.109232 17.029743 -2.3054438
-6.1042647 5.1914606 -2.1471629
-7.0640326 6.0119629 -2.1415341
-8.477417 7.2173958 -2.1641557
-10.52859 8.9700413 -2.1907084
-4.6148844 3.9345236 -0.74462175
-20.022375 17.076561 -2.3023059
-6.0919738 5.2177658 -2.1492336
-7.0351777 6.0277472 -2.1388347
-8.4521704 7.2469459 -2.1641557
-4.5761633 3.9250181 -0.95487607
-4.6018119 3.9498057 -0.74462175
-19.944513 17.130768 -2.3002143
-6.0804896 5.2429829 -2.151304
-7.0096693 6.0484471 -2.137485
-8.4310665 7.2774982 -2.1649189
-4.5474858 3.9280541 -0.95174736
-19.90267 17.215927 -2.3023059
-6.0597744 5.263968 -2.1507864
-6.9929256 6.0767131 -2.1388347
-8.3984098 7.3031979 -2.1633925
-4.5434885 3.9537735 -0.95393753
-4.5651426 3.9740155 -0.74315935
-19.833441 17.277445 -2.3012602
-6.0399084 5.2838163 -2.1502688
-6.966208 6.0984526 -2.137485
-8.3699121 7.3298826 -2.1626294
-4.5014338 3.9448712 -0.94799298
-13.633725 11.956458 -2.226553
-19.764029 17.338684 -2.3002143
-6.0185289 5.3023133 -2.1492336
-6.9488702 6.1240969 -2.1383848
-8.3442745 7.3590546 -2.1626294
-4.4853644 3.9571633 -0.94736725
-13.592513 12.00029 -2.2263095
-19.709356 17.412846 -2.3009117
-5.9879041 5.3107057 -2.1445746
-6.9259934 6.1470227 -2.1379349
-8.3198252 7.3866854 -2.1626294
-4.4538031 3.957052 -0.94361275
-13.559445 12.055574 -2.2277718
-19.627615 17.462997 -2.2984712
-5.9784837 5.3416271 -2.1481981
-6.9059467 6.1724601 -2.1383848
-8.2897692 7.4145117 -2.1618662
-4.4319105 3.9667623 -0.94204849
-13.508408 12.094889 -2.2263095
-19.554667 17.520767 -2.2970767
-5.9655457 5.3676324 -2.1502688
-6.8832765 6.1977305 -2.1383848
-8.2609186 7.4407749 -2.1611028
-4.4062986 3.9716284 -0.93954557
-13.443354 12.125702 -2.2228971
-19.511137 17.604937 -2.2991683
-5.946774 5.388422 -2.1502688
-6.8616009 6.2217197 -2.1383848
-8.2232628 7.4590125 -2.1580498
-4.3821688 3.9776909 -0.9373554
-13.418573 12.188573 -2.2258217
-19.455463 17.678295 -2.2998657
-5.9193664 5.4013343 -2.1471629
-6.8470378 6.2522016 -2.1406343
-8.1928282 7.4836993 -2.1569052
-4.3595104 3.984966 -0.93547827
-13.387663 12.246057 -2.2277718
-19.393641 17.746096 -2.2998657
-5.9033194 5.4245796 -2.1481981
-6.8219619 6.2709165 -2.1392844
-8.1680975 7.5135832 -2.1572866
-4.3390036 3.992713 -0.93391389
-13.341139 12.285008 -2.2267969
-5.883882 5.4428134 -2.1476805
-6.7957411 6.2907209 -2.1379349
-8.1402578 7.5379591 -2.1565235
-4.3076525 3.9917228 -0.93015939
-13.298178 12.331499 -2.2267969
-5.8695464 5.4696107 -2.1497512
-6.7708893 6.3117461 -2.1370349
-8.1154461 7.5704226 -2.1572866
-4.3521962 4.0627518 -0.94298708
-13.257954 12.380553 -2.2272844
-16.459635 15.391882 -1.1810133
-5.8419662 5.4821343 -2.1466453
-6.7576547 6.3458595 -2.1401844
-8.0789547 7.5892954 -2.1546154
-4.349503 4.0887423 -0.94549
-13.218267 12.434506 -2.2282593
-16.318565 15.367088 -1.174733
-42.11673 39.674908 -1.0099708
-5.8185825 5.4985108 -2.1450922
-6.7394052 6.3709106 -2.1410842
-8.0538416 7.6187978 -2.1549969
-13.17696 12.478272 -2.2282593
-16.234879 15.384795 -1.9568207
-16.270412 15.423866 -1.1749424
-5.8017159 5.5191069 -2.1456099
-6.7171254 6.3943968 -2.1410842
-8.028532 7.6454639 -2.1549969
-9.9730768 9.5038729 -2.1819482
-13.133325 12.524189 -2.2282593
-16.202513 15.456426 -1.9590867
-16.225147 15.488839 -1.1755704
-5.794971 5.5513535 -2.1502688
-6.6832209 6.4045014 -2.1370349
-8.0102968 7.6815948 -2.1572866
-9.9301014 9.5259523 -2.1794453
-13.097448 12.573172 -2.2292342
-16.170013 15.533594 -1.9617014
-16.170813 15.539789 -1.1753609
-40.9132 39.344151 -0.99077314
-5.7769465 5.5728908 -2.1507864
-41.435879 39.986206 1.005119
-6.6611056 6.4303064 -2.137485
-7.9777827 7.7040558 -2.15576
-9.9008045 9.5677729 -2.1806967
-13.045569 12.615572 -2.2282593
-41.065735 39.753792 -2.9953964
-5.7647958 5.6021032 -2.1538923
-41.281708 40.116665 1.0047699
-6.6456046 6.4603124 -2.1397343
-7.9480877 7.7318735 -2.1553786
-9.8656673 9.6039991 -2.1806967
-12.99861 12.658259 -2.2277718
-5.7244954 5.6019249 -2.1461277
-41.162964 40.295689 1.005468
-6.6163139 6.4791713 -2.1379349
-7.9196472 7.7581973 -2.1549969
-9.8264427 9.632844 -2.1794453
-12.954961 12.708601 -2.2282593
-40.892982 40.185421 -1.0007559
-5.7104082 5.6272979 -2.1481981
-40.993584 40.411045 1.0047699
-6.5978184 6.5063314 -2.1392844
-7.8981061 7.7913113 -2.1565235
-9.7843237 9.658761 -2.177568
-12.924645 12.767694 -2.2306967
-18.601744 18.382267 -2.2880125
-5.6934743 5.6499176 -2.1492336
-40.852272 40.55389 1.0047699
-6.5640054 6.5183372 -2.1356852
-7.8722558 7.8202162 -2.1569052
-9.7505455 9.6928577 -2.177568
-12.885627 12.818331 -2.2316716
-18.540283 18.449902 -2.2883611
-39.852226 39.713341 -0.98204696
-5.6723509 5.6683917 -2.1487157
-6.538456 6.538455 -2.1347857
-7.8379703 7.8407059 -2.1549969
-9.7054853 9.7156515 -2.175065
-12.835195 12.857614 -2.2306967
-18.489847 18.528606 -2.2901042
-29.334284 29.416321 -2.177176
-5.6606998 5.6963792 -2.1518216
-6.5224581 6.5681524 -2.1370349
-7.8022542 7.8596578 -2.1527071
-9.6909885 9.769105 -2.1794453
-12.79303 12.905157 -2.231184
-18.430666 18.598698 -2.2908015
-5.6312838 5.7064772 -2.1481981
-6.491282 6.5825558 -2.1343358
-7.7747726 7.8868432 -2.1527071
-9.6540565 9.8000593 -2.1788194
-12.739549 12.941249 -2.2297218
-18.340477 18.637358 -2.2876639
-39.994808 40.699001 -0.99600887
-5.6126809 5.7274809 -2.1487157
-6.4614482 6.5982108 -2.132086
-7.7609272 7.9279652 -2.1565235
-9.6115026 9.8252239 -2.1769423
-12.697072 12.988477 -2.2302091
-18.283669 18.709812 -2.2887099
-39.770214 40.739838 -0.99377489
-5.600738 5.7553449 -2.1518216
-6.4300208 6.6098242 -2.1289368
-7.7318373 7.9535999 -2.1561418
-9.5816212 9.8598766 -2.177568
-12.651166 13.027664 -2.2297218
-18.226568 18.782103 -2.2897556
-40.283508 41.525826 -3.0320315
-39.856041 41.113876 -0.99949938
-5.5802789 5.7724967 -2.151304
-6.4163861 6.6420398 -2.132086
-7.7040553 7.9777837 -2.15576
-9.5498886 9.8961058 -2.1781938
-12.602859 13.068884 -2.2292342
-18.15036 18.828093 -2.2880125
-39.999752 41.522339 -3.0215642
-5.5547452 5.7863655 -2.1492336
-6.3931599 6.6643987 -2.132086
-7.6680093 7.9961243 -2.1534703
-9.5152836 9.9293842 -2.1781938
-12.570892 13.127133 -2.2316716
-18.19474 19.006477 -2.3019574
-3.7953444 3.9674385 -0.28774312
-5.526515 5.7973304 -2.1461277
-6.3738918 6.6909056 -2.1334357
-7.6265116 8.0086241 -2.1496544
-3.8047552 3.9981792 -0.87415588
-3.7659783 3.9602001 -0.67101264
-3.7770767 3.9899592 -1.4721627
-3.7832463 3.9992716 -1.2709734
-3.7757764 4.0025563 -0.28837115
-3.7585893 4.001091 -1.2673743
-3.7307787 3.9728737 -1.0593716
-3.7328088 3.9806023 -0.67003769
-3.7464976 3.9979973 -0.47935659
-3.7290125 3.9807286 -0.28585902
-3.7576542 4.026772 -1.4757862
-3.7140272 3.9814112 -1.2570266
-3.7295783 4.0008821 -1.0631877
-3.7256196 3.999434 -0.86570847
-3.695893 3.9689109 -0.66589415
-3.7270901 4.0052147 -0.4786593
-3.7157562 3.9958329 -0.28596368
-3.7291324 4.0242763 -1.4700923
-3.6914644 3.9864187 -1.2543271
-3.7062552 4.0037909 -1.0605165
-3.7089531 4.0095139 -0.86508268
-3.6840165 3.9853463 -0.66638166
-3.7130866 4.0182009 -0.4786593
-3.7031412 4.0102453 -0.28606835
-3.6902082 4.0102592 -1.4602571
-3.6814845 4.0035825 -1.2556767
-3.6683414 3.9906874 -1.0536473
-3.7042899 4.0326185 -0.86727273
-3.6848485 4.0142679 -0.66906273
-3.6747911 4.004714 -0.47552174
-3.6891201 4.0231471 -0.28606835
-3.6761863 4.0231171 -1.4602571
-3.6674869 4.0164094 -1.2556767
-3.6636529 4.0136189 -1.0563186
-3.6728847 4.0265522 -0.86320543
-3.6741917 4.0293989 -0.66955024
-3.6581066 4.0145707 -0.47517309
-3.6750541 4.0360003 -0.28606835
-3.6706161 4.0438676 -1.4633629
-3.6489105 4.0227752 -1.2538772
-3.6661491 4.0431981 -1.0608981
-3.6581855 4.0372462 -0.86289263
-3.6714704 4.0533309 -0.67150015
-3.6501215 4.0325875 -0.47587034
-3.6643295 4.0511279 -0.28627771
-3.6545982 4.0531478 -1.4623276
-3.6394639 4.039197 -1.255227
-3.6612079 4.066184 -1.0635694
-3.6460986 4.0508232 -0.86320543
-3.6705744 4.0808816 -0.6739375
-3.652005 4.063086 -0.47796208
-3.6741896 4.0906391 -0.28816178
-3.655179 4.0837893 -1.4685394
-3.6467195 4.0772028 -1.2628752
-3.6541312 4.0883579 -1.0658592
-3.6654456 4.1024599 -0.87134004
-3.6516273 4.0898643 -0.67320627
-3.6530061 4.0942845 -0.48005384
-3.64588 4.0891714 -0.28711507
-3.6504526 4.1087117 -1.4726803
-3.6459842 4.1065702 -1.2678242
-3.6482422 4.1120033 -1.0685304
-3.6530073 4.1188221 -0.87196583
-3.6366458 4.1235132 -1.4731981
-7.3285751 8.3214149 -2.1553786
-9.1332226 10.374197 -2.1891441
-11.988351 13.626851 -2.228503
-17.144951 19.501949 -2.2718017
-5.2612996 6.005703 -2.1393983
-6.0843358 6.9500771 -2.1325359
-7.3114462 8.3547392 -2.1580498
-9.0896673 10.394018 -2.186954
-11.952239 13.676995 -2.2302091
-17.111126 19.587227 -2.2754622
-5.247911 6.0327768 -2.1425042
-6.0613146 6.9727449 -2.1329858
-7.280951 8.3787289 -2.1576684
-9.046854 10.418226 -2.1853898
-11.875805 13.685645 -2.2248468
-17.037426 19.640816 -2.2747648
-5.2280846 6.0525198 -2.1430218
-6.0433044 7.0012364 -2.1352355
-7.2490935 8.4011211 -2.1569052
-8.9962425 10.433287 -2.1819482
-11.846098 13.748073 -2.2282593
-13.135512 15.249893 -1.7608945
-5.2018943 6.0648665 -2.1409512
-6.0124898 7.0148897 -2.1329858
-7.2120614 8.4174261 -2.1546154
-8.9482079 10.451118 -2.1791322
-11.792877 13.783303 -2.2272844
-5.1794381 6.0815187 -2.1404335
-5.9904933 7.0388007 -2.1338856
-7.1889939 8.4500284 -2.1565235
-8.9103956 10.480783 -2.1788194
-11.757385 13.834438 -2.2292342
-5.1629868 6.1030836 -2.1419864
-5.9696341 7.0616059 -2.1347857
-7.159668 8.4723206 -2.1561418
-8.8947058 10.532915 -2.1835127
-11.708885 13.870316 -2.2287467
-5.1427212 6.1201706 -2.1419864
-5.9361596 7.0694222 -2.1311862
-7.137846 8.5035334 -2.1580498
-8.8584547 10.560842 -2.1831996
-11.647642 13.895892 -2.2263095
-12.875508 15.366211 -1.7539221
-29.327999 35.026176 -2.394161
-5.1250381 6.1425366 -2.1435394
-5.9214287 7.1020765 -2.1347857
-7.0993185 8.5178432 -2.1553786
-8.8265963 10.597769 -2.1844511
-11.604148 13.942567 -2.2272844
-12.824344 15.414122 -1.7542707
-29.15704 35.069969 -2.3901834
-5.0986366 6.1544371 -2.1414688
-5.900331 7.1272049 -2.1361351
-7.0743103 8.5513678 -2.1572866
-8.7945871 10.634602 -2.1857026
-11.550354 13.976865 -2.2263095
-12.775371 15.470243 -1.7553166
-29.076605 35.235146 -2.394161
-5.0699086 6.1656232 -2.1388805
-5.8704557 7.1442671 -2.1347857
-7.0441642 8.5787582 -2.1576684
-8.7405081 10.648444 -2.1819482
-11.50408 14.025247 -2.2272844
-12.746373 15.55086 -1.7591513
-30.053379 36.69191 -2.4856441
-5.0558286 6.1946402 -2.1425042
-5.8430014 7.1642246 -2.1343358
-7.0166593 8.6063356 -2.1584315
-8.7064075 10.686536 -2.1831996
-11.447588 14.061157 -2.2263095
-12.698298 15.602988 -1.760023
-30.003254 36.892654 -2.4921339
-5.0317402 6.2092495 -2.1414688
-5.8118234 7.1770053 -2.132086
-6.9828663 8.6262007 -2.1572866
-8.6715403 10.719932 -2.1838255
-11.398432 14.101033 -2.2263095
-12.624976 15.623972 -1.7574084
-30.037399 37.199177 -2.5057411
-5.0112476 6.2282796 -2.1419864
-5.7916217 7.2033219 -2.1338856
-6.947794 8.6443996 -2.15576
-8.6315947 10.747053 -2.1831996
-11.356582 14.144944 -2.2272844
-29.969839 37.38171 -2.5109746
-4.9785047 6.229774 -2.1368101
-5.770133 7.2255359 -2.1347857
-6.9166389 8.6643257 -2.1549969
-8.5959063 10.77562 -2.1831996
-11.324461 14.201154 -2.2302091
-16.225906 20.362263 -2.2779024
-29.942745 37.602764 -2.5191393
-4.9578199 6.2462478 -2.1368101
-5.7509856 7.2507362 -2.136585
-6.8951888 8.6964426 -2.1572866
-8.5478611 10.788582 -2.1800709
-11.267429 14.231256 -2.2287467
-16.145933 20.400331 -2.2761593
-29.921967 37.833435 -2.5279317
-4.9419661 6.2711015 -2.1393983
-5.7159939 7.2585201 -2.1329858
-6.8623638 8.7173729 -2.1565235
-8.5052614 10.812145 -2.1788194
-11.207869 14.258019 -2.2267969
-16.082005 20.465971 -2.2772052
-29.908125 38.088463 -2.5379801
-4.9200439 6.2883153 -2.1393983
-5.6966252 7.2861037 -2.1352355
-6.8294721 8.7381811 -2.15576
-8.469903 10.844881 -2.1794453
-11.150703 14.287661 -2.2253344
-16.024044 20.546768 -2.2796457
-4.8898554 6.2971497 -2.1362925
-5.6735487 7.3090219 -2.1361351
-6.7901816 8.7538452 -2.1534703
-8.4240427 10.868047 -2.177881
-11.100765 14.326495 -2.2253344
-15.935142 20.580526 -2.2772052
-4.8619452 6.3065314 -2.1337044
-5.6490979 7.3328557 -2.1370349
-6.7619777 8.7806072 -2.1542337
-8.3776245 10.886426 -2.1756909
-11.05302 14.373384 -2.2263095
-15.885066 20.664455 -2.2803428
-4.835206 6.317327 -2.1316338
-5.6259365 7.3530955 -2.137485
-6.7384424 8.8135138 -2.1565235
-8.3414803 10.914145 -2.1756909
-10.998068 14.40049 -2.2248468
-15.793501 20.694435 -2.2775538
-4.8259201 6.3487077 -2.1368101
-5.5931606 7.36338 -2.1347857
-6.7056141 8.8311214 -2.1553786
-8.3033295 10.943198 -2.1756909
-10.93094 14.416651 -2.2214346
-15.728381 20.758968 -2.2785997
-30.015421 39.629963 -2.6053889
-4.801456 6.3648095 -2.1362925
-5.5674253 7.3828573 -2.1347857
-6.6720228 8.8540707 -2.1549969
-8.2596016 10.968822 -2.1747522
-10.88294 14.457888 -2.2219219
-11.307119 15.032323 -1.6456746
-29.965981 39.867428 -2.6137626
-4.7815237 6.384625 -2.1373277
-5.5438323 7.4078927 -2.1361351
-6.6363688 8.8710194 -2.1534703
-8.2177124 10.992843 -2.1738136
-10.829879 14.497676 -2.2219219
-30.065535 40.291924 -2.634697
-4.7557874 6.3990045 -2.1362925
-5.5179381 7.4272003 -2.1361351
-6.6038122 8.8952818 -2.1534703
-8.1655989 11.007021 -2.1706848
-10.788663 14.54815 -2.2238719
-4.7368097 6.4154673 -2.1368101
-5.496747 7.4501638 -2.137485
-6.5735049 8.9128227 -2.1527071
-8.1333208 11.035804 -2.1713107
-10.761552 14.612617 -2.2282593
-4.7212372 6.4413128 -2.1399159
-5.4614968 7.4567266 -2.1338856
-6.5423512 8.9357166 -2.1527071
-8.0854187 11.05137 -2.1688077
-10.733907 14.682144 -2.233134
-11.020019 15.079021 -1.6339959
-4.699862 6.4593148 -2.1404335
-5.4377289 7.4788976 -2.1347857
-6.5203552 8.9712019 -2.15576
-8.0444746 11.076328 -2.1681819
-10.691914 14.732378 -2.2350838
-10.971998 15.123843 -1.634693
-4.6727629 6.4694152 -2.1383629
-5.4115882 7.4978347 -2.1347857
-6.4844084 8.9875383 -2.1542337
-8.0011377 11.097934 -2.1669304
-10.707727 14.863028 -2.2492208
-10.931943 15.179839 -1.6366106
-4.6512756 6.487258 -2.1388805
-5.3944635 7.5293508 -2.1383848
-6.4507074 9.0069275 -2.1534703
-7.9577537 11.119369 -2.165679
-10.900907 15.248697 -1.6399224
-4.6230006 6.4955864 -2.1362925
-5.3692756 7.5497241 -2.1388347
-6.4237761 9.0357924 -2.1549969
-7.9097366 11.134198 -2.1631761
-10.539354 14.84677 -2.2355716
-4.6081023 6.5227284 -2.1399159
-5.33952 7.5636435 -2.137485
-6.3933296 9.059763 -2.1553786
-7.8708258 11.161738 -2.1631761
-10.4646 14.851014 -2.2306967
-4.5897436 6.5450988 -2.1419864
-5.3086095 7.5758529 -2.1356852
-6.3673 9.0900631 -2.1572866
-7.8442726 11.206947 -2.1666176
-10.385386 14.848412 -2.2248468
-29.989731 42.95731 -0.91447121
-4.5591421 6.5499825 -2.1383629
-5.2888112 7.6039357 -2.1383848
-6.3288045 9.1025648 -2.1549969
-7.7949634 11.219659 -2.1638019
-10.317647 14.861743 -2.2214346
-14.811224 21.350285 -2.2733703
-4.5329103 6.5634689 -2.1373277
-5.2688804 7.6319714 -2.1410842
-6.2909417 9.1192341 -2.1534703
-7.7605138 11.257915 -2.165679
-10.22516 14.83882 -2.2126598
-14.74112 21.408422 -2.2740676
-4.5088778 6.5776601 -2.1368101
-5.2386684 7.6480184 -2.1401844
-6.2701607 9.1573381 -2.1572866
-7.7167091 11.278412 -2.1644275
-10.184145 14.895864 -2.2155848
-14.657312 21.446587 -2.2726731
-4.4837179 6.5901632 -2.1357749
-5.2077994 7.65729 -2.1379349
-6.2381587 9.1791677 -2.1572866
-7.6759386 11.299036 -2.1634889
-10.143608 14.942698 -2.2175348
-14.598023 21.5207 -2.2751136
-4.4650822 6.6097989 -2.1373277
-5.1843071 7.6802678 -2.1392844
-6.2032905 9.1932955 -2.15576
-18.564749 27.523373 2.9045522
-7.6375518 11.327401 -2.1638019
-10.110247 15.006 -2.2216785
-14.519895 21.559078 -2.2740676
-4.4387565 6.6205306 -2.1357749
-5.1552992 7.6950798 -2.1383848
-6.1657019 9.2067356 -2.153852
-18.413149 27.505222 2.8958366
-7.6089535 11.370407 -2.1669304
-10.074358 15.065948 -2.2253344
-14.437911 21.599689 -2.2730217
-4.4113369 6.6295519 -2.1337044
-5.1316457 7.7178946 -2.1397343
-6.1346116 9.2298393 -2.1542337
-18.2663 27.492998 2.8878183
-7.5561056 11.377151 -2.1631761
-10.012922 15.087793 -2.2233846
-14.358643 21.652468 -2.2730217
-4.3891382 6.6488986 -2.1347394
-5.1111112 7.7455206 -2.1424339
-6.1050658 9.2588158 -2.15576
-7.5121784 11.401471 -2.1625502
-9.9754839 15.145862 -2.2267969
-14.278596 21.695795 -2.2723243
-4.3669629 6.6657939 -2.135257
-5.0720172 7.7478971 -2.1379349
-6.0716362 9.2784271 -2.1553786
-7.4788227 11.437543 -2.1644275
-9.8873272 15.13247 -2.2194848
-14.20714 21.752174 -2.2730217
-4.3457727 6.684238 -2.1362925
-5.0473557 7.7663088 -2.1383848
-6.0360022 9.2946272 -2.1542337
-7.4408507 11.462282 -2.1644275
-9.8176489 15.135195 -2.2150974
-14.139788 21.815012 -2.2744162
-4.3256798 6.7018576 -2.1373277
-5.0212731 7.7855167 -2.1388347
-6.0062122 9.3162403 -2.1546154
-7.4050756 11.494827 -2.165679
-9.7486439 15.144331 -2.2114413
-14.058749 21.848375 -2.2730217
-4.2970481 6.7087831 -2.1347394
-4.9961653 7.8062811 -2.1397343
-5.9694209 9.3305349 -2.1530888
-7.3712873 11.530594 -2.1675563
-9.6850309 15.161543 -2.2090039
-13.973814 21.883884 -2.2716272
-4.2725687 6.7221107 -2.1342218
-4.9678421 7.8220267 -2.1392844
-27.486706 43.295391 2.6876609
-5.938921 9.3546286 -2.153852
-7.3299322 11.554588 -2.1672435
-9.6224861 15.180166 -2.2068105
-13.893068 21.925802 -2.2709301
-4.2542295 6.7451553 -2.1368101
-4.9373894 7.8343768 -2.1379349
-27.254488 43.26265 2.6797059
-5.9093685 9.3802881 -2.1549969
-7.2906089 11.581774 -2.1675563
-9.5704918 15.215345 -2.2070539
-13.822816 21.984282 -2.2719758
-4.2275848 6.7550502 -2.135257
-4.911047 7.8532147 -2.1383848
-27.09273 43.340584 2.6786592
-5.8817945 9.4091816 -2.1569052
-7.2606039 11.623904 -2.1706848
-9.4847422 15.196454 -2.1994979
-13.752325 22.04254 -2.2730217
-4.2090769 6.7779713 -2.1378453
-4.8846331 7.8719635 -2.1388347
-5.8427076 9.4196434 -2.1546154
-7.2210274 11.650855 -2.1709976
-9.4326801 15.231159 -2.1997418
-13.673196 22.087023 -2.2726731
-4.1762695 6.7778211 -2.1331868
-4.8571229 7.8889675 -2.1388347
-5.8077302 9.4366379 -2.153852
-7.1834159 11.681041 -2.1719363
-9.3462009 15.209868 -2.1919422
-13.583506 22.114243 -2.2705815
-4.1546016 6.7956533 -2.1342218
-4.8275223 7.9025502 -2.1379349
-5.7767992 9.460206 -2.1546154
-7.1405377 11.702675 -2.1713107
-9.2486219 15.169518 -2.1814616
-13.51037 22.168331 -2.2712786
-4.131855 6.8117666 -2.1347394
-4.7968788 7.9143519 -2.136585
-5.7478123 9.4870291 -2.1561418
-7.0975995 11.724146 -2.1706848
-9.1575947 15.138866 -2.1724429
-13.426725 22.205124 -2.2702327
-4.1130347 6.8344235 -2.1373277
-4.7702293 7.9327168 -2.1370349
-5.714663 9.5070324 -2.1561418
-7.0586691 11.752236 -2.1713107
-9.0791521 15.12819 -2.1663496
-13.361438 22.272354 -2.2723243
-4.0881643 6.8470798 -2.1368101
-4.7465014 7.9560151 -2.1388347
-5.6754112 9.5168047 -2.153852
-7.0216441 11.783592 -2.1725621
-8.9805927 15.083035 -2.1553814
-13.291756 22.33256 -2.2737191
-4.0622678 6.8579855 -2.1357749
-4.7226734 7.9792423 -2.1406343
-5.6441541 9.5399389 -2.1546154
-6.9804707 11.808029 -2.1725621
-8.9268808 15.112577 -2.1551375
-13.203595 22.361664 -2.2719758
-4.0373235 6.8704581 -2.135257
-4.6908422 7.9889579 -2.1388347
-5.6147914 9.5663567 -2.1561418
-6.9332118 11.822102 -2.1706848
-8.8710594 15.138513 -2.1544065
-13.11941 22.397305 -2.2709301
-4.0162368 6.8895159 -2.1368101
-4.6629286 8.0052824 -2.1388347
-5.5813665 9.5858965 -2.1561418
-6.8978658 11.856474 -2.1725621
-8.8480949 15.220868 -2.1617186
-13.041154 22.442961 -2.2709301
-3.9921649 6.9034925 -2.1368101
-4.6320295 8.0164499 -2.137485
-5.5498376 9.6087198 -2.1569052
-6.8524847 11.873639 -2.1713107
-8.7820148 15.229307 -2.1585498
-12.964718 22.491802 -2.2712786
-3.9680409 6.917387 -2.1368101
-4.6073613 8.0351467 -2.1383848
-5.5162606 9.6280346 -2.1569052
-6.811111 11.892867 -2.1706848
-15.910991 27.793396 3.9322367
-8.6851273 15.177366 -2.1470942
-8.4813099 14.8332 -1.4948952
-8.4934969 14.860533 -0.8970384
-3.93648 6.9153957 -2.1321514
-4.5821772 8.0562611 -2.1397343
-5.4775124 9.6343269 -2.1542337
-6.769558 11.916569 -2.1706848
-8.4939232 14.964174 -2.1127272
-8.4697838 14.933768 -1.5020421
-8.4691496 14.938741 -0.89996922
-3.9168029 6.9398723 -2.135257
-4.5521107 8.0688133 -2.1388347
-5.4498734 9.6680212 -2.1572866
-6.7180781 11.927533 -2.1681819
-8.4552746 15.017949 -2.1161394
-3.8934996 6.9551878 -2.1357749
-4.5187025 8.078639 -2.1370349
