# .PCD v0.7 - Point Cloud Data file format
VERSION 0.7
FIELDS x y z
SIZE 4 4 4
TYPE F F F
COUNT 1 1 1
WIDTH 1488
HEIGHT 1
VIEWPOINT 0 0 0 1 0 0 0
POINTS 1488
DATA ascii
4.5345049 -7.6309061 -2.0493042
4.0435677 -6.8074365 -1.5390654
8.2754555 -13.942995 -2.5680285
9.6438208 -16.261435 -2.3213673
11.808 -19.918602 -2.0258482
16.356436 -27.613205 -1.6819731
3.9383826 -6.6753855 -2.0767641
4.5117984 -7.6534023 -2.0511036
4.0147972 -6.8130531 -1.5371574
8.2197189 -13.959884 -2.5658383
9.6010942 -16.318953 -2.3247797
11.781361 -20.040754 -2.0338664
16.29435 -27.728678 -1.685532
3.9490092 -6.749804 -2.0953991
4.4791532 -7.6590133 -2.0484045
3.9848464 -6.8192472 -1.5352492
8.2003727 -14.044505 -2.5758502
9.5440712 -16.352367 -2.3247797
11.757505 -20.160929 -2.0418847
16.200655 -27.802019 -1.6863693
3.9050605 -6.7284594 -2.0845287
4.4549613 -7.6821213 -2.0502038
3.9373879 -6.7923508 -1.5260904
8.1710978 -14.107229 -2.5821075
9.4711456 -16.364904 -2.3216112
11.716991 -20.253584 -2.0471141
16.127499 -27.899897 -1.6888814
3.8844414 -6.7470722 -2.0860815
4.4213161 -7.685801 -2.0470545
3.9068041 -6.7941394 -1.523419
8.1916761 -14.257277 -2.6043212
9.4327421 -16.430574 -2.3262422
11.642255 -20.287449 -2.0464168
16.055843 -28.001076 -1.6916029
3.8599076 -6.758913 -2.0855639
4.3944616 -7.7011867 -2.0470545
3.8752828 -6.7940931 -1.5203662
8.1555519 -14.309811 -2.6087015
9.4647207 -16.620375 -2.3484223
11.585165 -20.352205 -2.0488572
15.995527 -28.122923 -1.6955805
3.8420043 -6.7824311 -2.0886698
4.3842621 -7.7428493 -2.0542529
3.8515429 -6.807579 -1.5203662
8.1469517 -14.405554 -2.6212161
9.4642458 -16.748451 -2.3620718
11.531686 -20.423748 -2.0519948
15.923779 -28.214073 -1.6978832
3.8327436 -6.8187108 -2.0959167
4.3552995 -7.7547088 -2.0533531
3.8154919 -6.7963467 -1.5150236
8.0859871 -14.414953 -2.6177747
9.3979597 -16.767532 -2.360122
11.498953 -20.524454 -2.05827
15.854463 -28.32177 -1.7010235
3.8126817 -6.8387966 -2.0979872
4.3253598 -7.7647567 -2.0520036
3.7812386 -6.7907562 -1.5108256
8.0567474 -14.481067 -2.6246576
9.3904915 -16.892191 -2.37304
10.778843 -19.397614 -1.9414812
15.78265 -28.425833 -1.7039543
3.7943952 -6.8622079 -2.1010931
4.3312125 -7.8395081 -2.06775
3.7470717 -6.7850089 -1.5066279
8.025239 -14.543692 -2.6309152
9.3621426 -16.980495 -2.3808398
10.68991 -19.396732 -1.9376464
15.721864 -28.55073 -1.7081411
3.760201 -6.8567786 -2.0953991
4.330977 -7.9041395 -2.0807972
3.7158201 -6.7842727 -1.503575
7.9820099 -14.58548 -2.6334183
9.352335 -17.103642 -2.3935142
10.627871 -19.44442 -1.9386923
15.637427 -28.633484 -1.7098159
3.733474 -6.8647709 -2.0938461
4.3219695 -7.9534554 -2.0897954
3.6874299 -6.7885756 -1.5016669
7.9140873 -14.582003 -2.6277864
9.2906828 -17.132694 -2.3930268
11.310011 -20.86517 -2.0763984
15.552599 -28.71599 -1.7114905
3.7232456 -6.9032664 -2.1016109
4.3209896 -8.0182428 -2.1028426
3.6581252 -6.7910347 -1.4993771
7.8987126 -14.675638 -2.6396754
9.2571459 -17.213972 -2.3998513
11.251259 -20.930847 -2.0790131
15.467388 -28.798262 -1.7131653
3.7027698 -6.9230342 -2.1036813
4.3131819 -8.0710878 -2.1127403
3.6158974 -6.7691293 -1.4917448
7.8502274 -14.708348 -2.640614
9.2287607 -17.305737 -2.4081383
11.178214 -20.978977 -2.0797102
15.411834 -28.936691 -1.7181896
3.6782753 -6.9382658 -2.1041989
4.3187432 -8.149806 -2.1293867
3.5864697 -6.7736621 -1.4898368
7.7805643 -14.707338 -2.6352954
9.2313995 -17.457174 -2.4247127
11.15611 -21.114756 -2.0892975
15.333647 -29.045975 -1.7213298
3.6594272 -6.9613237 -2.1073048
4.3124037 -8.2104368 -2.1410842
3.5527644 -6.7670188 -1.4856389
7.7420244 -14.758898 -2.6396754
9.1572161 -17.47155 -2.4220314
11.132266 -21.248873 -2.0987103
15.263653 -29.159479 -1.7248886
3.6270697 -6.9586372 -2.1026461
4.3067627 -8.2661695 -2.1518817
3.5264015 -6.7741551 -1.4844941
7.691216 -14.780987 -2.6390498
14.46454 -27.80982 3.8488779
9.1697359 -17.63744 -2.4407995
11.094762 -21.358324 -2.1056828
15.150308 -29.17803 -1.7230045
3.6048613 -6.972342 -2.1031637
4.3082929 -8.3400192 -2.1671786
3.4931099 -6.7648783 -1.4799147
7.6386676 -14.805988 -2.6387367
14.289133 -27.70841 3.8279164
9.0808277 -17.616405 -2.4334872
11.056726 -21.458759 -2.1119578
15.097732 -29.32663 -1.7286569
3.5972447 -7.0175471 -2.1129987
4.3360081 -8.4660139 -2.1959722
3.4667907 -6.7717876 -1.4787698
7.640914 -14.938081 -2.6575091
14.22305 -27.818213 3.8362033
9.084322 -17.775269 -2.4510365
11.027979 -21.587713 -2.1208479
15.033404 -29.453867 -1.7330531
3.5727274 -7.0300608 -2.1129987
4.3302517 -8.5280132 -2.2081196
3.4271374 -6.752336 -1.4719007
7.5967641 -14.980518 -2.6603248
14.115088 -27.846445 3.8332787
9.0222206 -17.806868 -2.4510365
10.976863 -21.674065 -2.1255541
14.955749 -29.556065 -1.7359838
3.5603354 -7.0666428 -2.1202457
4.3337522 -8.6092205 -2.2252157
3.4017823 -6.7607498 -1.4711374
7.5417638 -15.00165 -2.6593862
14.016016 -27.891996 3.8327911
8.9698086 -17.857765 -2.4537175
10.706252 -21.324087 -2.0875545
14.875773 -29.654501 -1.7387053
3.5365093 -7.0807557 -2.1207633
4.323688 -8.6644011 -2.2355635
3.3693988 -6.7550149 -1.4673213
7.5201907 -15.089766 -2.6703367
13.780492 -27.663568 3.7947681
8.8755646 -17.824995 -2.444943
10.594466 -21.286415 -2.0802333
14.788177 -29.738443 -1.7405895
3.5160568 -7.1017137 -2.1233516
3.4293764 -6.9327221 -1.7856615
3.3405776 -6.756176 -1.4650315
7.4884706 -15.158426 -2.6778455
13.741854 -27.828976 3.8108549
8.8343763 -17.89859 -2.4507926
10.830396 -21.952206 -2.1415908
14.735497 -29.893784 -1.7466604
3.4167113 -6.9589982 -2.0772817
3.3995018 -6.9300599 -1.7820623
3.3008683 -6.7319613 -1.4573992
7.4538054 -15.215108 -2.6834772
8.8072643 -17.993757 -2.459811
10.772083 -22.027464 -2.1452513
14.652074 -29.974779 -1.7485443
3.3835778 -6.9558396 -2.072623
3.3769946 -6.9453893 -1.7829621
3.2710257 -6.7334185 -1.4551095
7.4135137 -15.274313 -2.6891088
8.7790623 -18.095831 -2.4695606
10.722936 -22.122305 -2.1508293
14.576933 -30.100185 -1.7527313
3.3517251 -6.9519467 -2.0679643
3.3506708 -6.9559641 -1.7825122
3.2423906 -6.7341828 -1.4528197
7.361865 -15.303657 -2.6897345
8.7479315 -18.201242 -2.4795539
10.686198 -22.244007 -2.1590221
14.587584 -30.392164 -1.7667575
3.3865743 -7.0873623 -2.1047165
45.871605 -95.999283 1.8571454
3.3804975 -7.0778198 -1.810856
3.2137916 -6.734828 -1.4505301
7.352747 -15.415353 -2.7050653
8.6926527 -18.240906 -2.4810164
10.635038 -22.336941 -2.1644256
3.3696699 -7.1125212 -2.1088579
45.565334 -96.220261 1.8583323
3.3549368 -7.0878162 -1.8104061
3.1897609 -6.7418995 -1.4497669
7.3064895 -15.456998 -2.707881
13.094458 -27.714052 3.7635694
8.6645279 -18.346527 -2.4912534
10.523847 -22.303652 -2.1576276
10.737356 -22.766455 -1.3191803
3.4051318 -7.2559876 -2.1476805
45.255505 -96.434853 1.8594143
4.3125114 -9.1936903 -2.34444
3.1467006 -6.7144356 -1.4413712
7.2782674 -15.544497 -2.7185183
8.625679 -18.430597 -2.4985654
10.464493 -22.379957 -2.1614623
10.665678 -22.830988 -1.3206457
3.4148118 -7.343153 -2.169939
44.915245 -96.629089 1.8599728
4.3034182 -9.262454 -2.3579369
3.1199367 -6.718256 -1.4398447
7.2455778 -15.616398 -2.7266529
8.593133 -18.537729 -2.5088024
10.446616 -22.546509 -2.1740127
10.538932 -22.766581 -1.314784
3.3964336 -7.3708196 -2.1745977
4.3020287 -9.340395 -2.3741336
3.0767689 -6.6863022 -1.4306859
7.1863241 -15.624187 -2.7238371
8.5274668 -18.557104 -2.5075836
10.369515 -22.586458 -2.1743615
10.455046 -22.783251 -1.3137373
3.3936453 -7.4294853 -2.1885738
4.2960968 -9.4138594 -2.3889804
3.0480618 -6.6821785 -1.4276329
7.1350183 -15.656368 -2.7250886
12.629701 -27.726175 3.7409017
8.4930754 -18.653603 -2.5166023
10.441458 -22.943512 -2.2053888
10.737535 -23.615955 -1.3595836
3.3828239 -7.4747272 -2.1984091
4.8003259 -10.616719 -2.6899645
3.0053129 -6.6498408 -1.4184742
7.0689425 -15.655972 -2.7207084
12.505079 -27.708574 3.7326148
8.4058704 -18.634277 -2.5100212
10.377685 -23.016146 -2.2088752
10.573 -23.471193 -1.3491164
3.3661969 -7.5076427 -2.2046208
4.7576623 -10.620962 -2.6868153
2.9724557 -6.6387882 -1.4138948
7.0118303 -15.675144 -2.71977
8.3812704 -18.754126 -2.5222082
10.311906 -23.084974 -2.2120128
13.841228 -31.015032 -1.7799461
3.8944092 -8.7675686 -2.5705907
4.7055402 -10.603661 -2.6782672
2.9428949 -6.6347675 -1.4108418
6.981082 -15.753704 -2.729156
8.3406687 -18.839537 -2.5297642
10.213527 -23.080744 -2.2081778
13.724805 -31.044895 -1.7788993
3.8544443 -8.7598906 -2.5643792
4.6833978 -10.653917 -2.6868153
2.9141893 -6.6324172 -1.4081705
6.9252543 -15.776167 -2.728843
8.3107309 -18.950346 -2.5407324
10.171288 -23.203848 -2.2165449
13.656412 -31.184088 -1.7841328
3.8199847 -8.7644377 -2.5617912
4.5948319 -10.552278 -2.6571219
2.8925879 -6.6461492 -1.4089336
6.9315815 -15.941545 -2.7532468
12.108282 -27.860445 3.7299333
8.2753782 -19.050247 -2.5502381
10.03786 -23.118591 -2.2050402
13.560196 -31.260885 -1.7858077
3.7610359 -8.7120943 -2.5426383
4.594243 -10.652354 -2.6782672
2.8600435 -6.6345716 -1.4043542
6.8899584 -15.998301 -2.7588787
11.875961 -27.588924 3.6880105
8.2551184 -19.186604 -2.5646186
10.023218 -23.307236 -2.2196825
13.488836 -31.396112 -1.7908319
3.7222486 -8.7056293 -2.5369444
4.5646863 -10.686248 -2.6827662
2.8330135 -6.6354866 -1.4024462
6.8425946 -16.04224 -2.76232
11.832526 -27.754385 3.7045846
8.175643 -19.186083 -2.5607188
9.8723145 -23.17894 -2.2041686
13.413568 -31.523867 -1.7954373
3.6940982 -8.7239065 -2.5384972
4.5296335 -10.7075 -2.6841159
2.8083038 -6.6417189 -1.401683
6.7880945 -16.069668 -2.7629459
11.729392 -27.78089 3.7026348
8.154932 -19.32424 -2.5753434
9.7540092 -23.136023 -2.1966732
13.32206 -31.614672 -1.7979496
3.6240129 -8.6465216 -2.5120978
4.5276213 -10.807724 -2.7052615
2.777879 -6.6374788 -1.39863
6.7024798 -16.030651 -2.7519956
11.610909 -27.770382 3.6958101
8.0920191 -19.363577 -2.5768056
9.657073 -23.131319 -2.1930127
13.224548 -31.707529 -1.8004616
3.6456473 -8.7840195 -2.5483325
4.4693189 -10.779243 -2.6940138
2.7486796 -6.6326256 -1.3955771
6.6774626 -16.128782 -2.7648232
11.408857 -27.570633 3.6636367
8.0521011 -19.468315 -2.5867989
9.572464 -23.155682 -2.1921411
9.6540861 -23.376228 -1.3254606
3.7074847 -9.0218353 -2.613555
4.4335485 -10.794004 -2.6940138
2.7262566 -6.6439958 -1.3959587
6.6067019 -16.108799 -2.757627
11.368565 -27.733212 3.6802108
8.0198584 -19.573895 -2.5972795
9.4976158 -23.203707 -2.1935358
9.5709362 -23.417803 -0.4415808
3.6833732 -9.0483942 -2.6176958
9.5326309 -23.429102 0.44151098
4.4031839 -10.827466 -2.6985128
2.6960773 -6.6329937 -1.3917608
6.5452261 -16.11895 -2.7554369
7.9723802 -19.653278 -2.6041045
9.4378338 -23.27754 -2.1975448
12.973826 -32.030842 -1.8111384
3.6380465 -9.0271511 -2.6078608
4.366818 -10.846387 -2.6994128
2.6707087 -6.6369009 -1.3906161
6.5397615 -16.268166 -2.777025
7.9296203 -19.745459 -2.6126354
9.3795319 -23.367662 -2.2029486
12.885725 -32.135254 -1.8144878
23.483461 -58.623806 -1.1023289
3.5742984 -8.9590511 -2.5845671
4.349133 -10.912251 -2.7120099
2.6424391 -6.6334157 -1.3879447
6.432539 -16.164251 -2.7554369
7.8555136 -19.760107 -2.610929
9.6466293 -24.27791 -2.2855721
12.794108 -32.232018 -1.8174186
3.5635829 -9.0235806 -2.5995786
4.31602 -10.940054 -2.7151592
2.6178284 -6.6389461 -1.3871815
6.3594227 -16.144335 -2.7482409
7.8257442 -19.887156 -2.6240909
9.5873518 -24.376329 -2.2916729
10.221612 -26.015627 -1.4648836
3.5454259 -9.0701513 -2.6094139
4.2693005 -10.93327 -2.7097604
2.5924966 -6.6425571 -1.3860366
6.3439317 -16.271341 -2.7660747
7.7613168 -19.927301 -2.625797
9.5614729 -24.561895 -2.3059666
10.1235 -26.032536 -1.4638368
3.5297751 -9.1239109 -2.6213193
2.5753369 -6.6637483 -1.6493411
2.5685866 -6.6497355 -1.385655
6.2323365 -16.15148 -2.7419839
7.7438326 -20.089485 -2.64359
9.4892836 -24.630447 -2.3092785
10.019657 -26.034163 -1.4619528
3.490308 -9.1163321 -2.6156254
2.5541477 -6.6781578 -1.6506908
2.5376475 -6.6384878 -1.3814572
6.2928991 -16.479473 -2.7939198
7.5279117 -19.734318 -2.5933797
9.3691816 -24.574059 -2.3009117
9.9073896 -26.012985 -1.4588126
22.44112 -58.983601 -1.1015611
3.1395166 -8.2866106 -2.3744061
2.5239239 -6.668807 -1.6461918
2.5123754 -6.6417966 -1.3803123
6.1669111 -16.320251 -2.7632589
7.5823622 -20.087343 -2.6362779
9.3206186 -24.705412 -2.3101499
9.8094864 -26.028721 -1.4577659
22.260456 -59.128948 -1.1028175
3.4008098 -9.0717373 -2.5959551
2.4883275 -6.6447277 -1.6380936
2.4878004 -6.6468487 -1.3795491
6.1258135 -16.384235 -2.7704546
7.5121999 -20.113688 -2.6362779
9.1946068 -24.631403 -2.3002143
9.7674189 -26.193798 -1.4650929
3.3126907 -8.931406 -2.5524735
2.4637644 -6.6497178 -1.6371938
2.4625378 -6.6499691 -1.3784043
6.0308928 -16.303619 -2.7532468
7.4405642 -20.136061 -2.6357903
9.1451569 -24.762403 -2.3094528
9.7519627 -26.433853 -1.4766067
2.4365141 -6.6472988 -1.6344943
2.431881 -6.6382465 -1.3742064
5.9630833 -16.294891 -2.7482409
7.4622416 -20.413609 -2.668695
9.0443058 -24.754877 -2.3057923
9.7445421 -26.700384 -1.4895861
21.835934 -59.896141 -1.1128004
3.222574 -8.878046 -2.5307329
2.4079809 -6.641108 -1.6308951
2.408694 -6.6466947 -1.3742064
5.9438195 -16.419621 -2.7657616
7.4091678 -20.489937 -2.675276
9.080409 -25.125448 -2.3373427
11.961182 -33.132721 -1.8460988
21.67828 -60.114952 -1.1154531
3.1798131 -8.856513 -2.5214152
2.3808377 -6.6384664 -1.6281958
2.3788543 -6.6365809 -1.3703903
5.8371949 -16.302649 -2.7426095
7.3632507 -20.576071 -2.6833196
9.0335579 -25.271437 -2.3479755
11.80113 -33.050129 -1.8391904
21.528549 -60.325878 -1.118036
3.293364 -9.269309 -2.6358132
2.3483818 -6.616941 -1.6209973
2.3607714 -6.6555352 -1.3726799
5.8061905 -16.387085 -2.7535598
7.3440118 -20.738846 -2.7013559
8.9417343 -25.278713 -2.3458838
11.758669 -33.279278 -1.8497622
3.2715778 -9.3056965 -2.6430602
2.3238435 -6.6173377 -1.6191977
2.337388 -6.6596222 -1.3719168
5.75247 -16.408112 -2.7538726
7.2689505 -20.756861 -2.700381
8.8968554 -25.433895 -2.3573885
11.718777 -33.519821 -1.8609622
3.2412529 -9.3285732 -2.6461661
2.2956166 -6.6106815 -1.6155984
2.305886 -6.6477408 -1.3677189
5.7343283 -16.550409 -2.7742093
7.217236 -20.842134 -2.7081807
8.9565172 -25.894106 -2.3971314
11.659109 -33.745667 -1.8711153
3.1854463 -9.2722301 -2.6270134
2.2694743 -6.6135211 -1.6142488
2.2813933 -6.6520357 -1.3669558
5.6611586 -16.525475 -2.7667003
7.1613631 -20.928549 -2.7159805
8.8918667 -26.000618 -2.404104
3.0635941 -9.0198851 -2.5524735
2.2443984 -6.6117845 -1.6119993
2.2568984 -6.6562405 -1.3661925
5.6037903 -16.536673 -2.7654488
7.1428394 -21.102606 -2.7354796
8.739789 -25.850306 -2.3873701
11.454073 -33.898037 -1.8751975
2.8294117 -8.4220133 -2.3806179
2.2144864 -6.5992565 -1.6070504
2.2335644 -6.6599646 -1.3654292
5.5836811 -16.668518 -2.7842209
7.0817313 -21.16506 -2.7403543
8.6919289 -25.992519 -2.3978288
11.336946 -33.941601 -1.875407
2.9308951 -8.8260202 -2.4919097
2.1914363 -6.606946 -1.6070504
2.2078326 -6.6602664 -1.3639028
5.5118012 -16.646654 -2.777338
7.0289998 -21.253731 -2.7486415
8.7349539 -26.42753 -2.4351313
11.240937 -34.04924 -1.8791751
3.0259748 -9.2198219 -2.6000962
2.1659327 -6.6071482 -1.6052507
2.1796799 -6.653008 -1.3608499
5.4278574 -16.586937 -2.7641971
6.9775848 -21.34795 -2.7576597
8.6921463 -26.609373 -2.4490762
11.166617 -34.224983 -1.8867115
3.0682743 -9.4600286 -2.6648009
2.1434577 -6.6165218 -1.6057006
2.1570485 -6.6624436 -1.3612314
5.361414 -16.579472 -2.7598171
6.8969259 -21.353289 -2.7552223
8.6053257 -26.658514 -2.4508195
11.104696 -34.44244 -1.8965507
2.8530502 -8.9022198 -2.5048509
2.1185653 -6.6183963 -1.6043509
2.1325824 -6.6661921 -1.3604681
5.2962947 -16.575504 -2.7560625
6.851315 -21.468004 -2.7669218
8.5800276 -26.900986 -2.4703424
11.027439 -34.616108 -1.9039823
2.8703601 -9.0649891 -2.5478148
2.0866361 -6.5978799 -1.5976024
2.1098917 -6.675468 -1.3608499
5.2282953 -16.561869 -2.7507441
6.8097644 -21.597813 -2.7805712
8.5279856 -27.063791 -2.4825442
10.928128 -34.722973 -1.9077506
2.0624292 -6.6014042 -1.5967026
2.0865777 -6.6827922 -1.3608499
5.1392803 -16.480068 -2.7341619
6.7225275 -21.583544 -2.7756963
8.4358339 -27.101004 -2.4832413
10.842431 -34.875343 -1.9140308
2.8948312 -9.3690519 -2.6275311
2.0382247 -6.6048388 -1.5958028
2.0551372 -6.6637702 -1.3555073
5.0834694 -16.503572 -2.7351005
6.3786421 -20.734102 -2.6635766
8.3482103 -27.153137 -2.485333
10.718282 -34.905342 -1.9136121
2.6501014 -8.6843529 -2.4328992
2.0174303 -6.619369 -1.5976024
2.0347238 -6.6802936 -1.3574153
4.7993145 -15.776608 -2.6118302
6.6161165 -21.776199 -2.7944641
8.3703041 -27.567217 -2.5205441
10.672885 -35.194832 -1.9274288
2.593574 -8.6066132 -2.4085703
1.9920646 -6.618907 -1.5958028
2.0085652 -6.6779552 -1.3555073
4.9681292 -16.53866 -2.7351005
6.5600286 -21.865711 -2.8029952
8.3072157 -27.706955 -2.5306542
10.576317 -35.319885 -1.9322437
2.4648974 -8.284174 -2.3159127
1.9606223 -6.5977998 -1.5890542
1.9841254 -6.6811619 -1.354744
4.9058757 -16.540749 -2.7325976
6.5242548 -22.025517 -2.8205442
8.2511673 -27.873337 -2.5432045
10.498266 -35.509811 -1.9406174
2.5399592 -8.6467543 -2.4147818
1.9392252 -6.6102133 -1.5904039
1.9635531 -6.6974659 -1.356652
4.8608723 -16.601376 -2.7397933
6.4339628 -22.002428 -2.8146946
8.1303473 -27.821648 -2.5358834
10.410064 -35.668945 -1.9473164
2.4387448 -8.4106493 -2.3464534
7.9682226 -27.498432 0.4997322
1.9155974 -6.6150708 -1.589954
3.8066483 -13.153967 -2.6617856
4.7891831 -16.570801 -2.7319717
6.3472085 -21.990425 -2.8103073
7.9260616 -27.478476 -2.5020671
7.9197812 -27.49275 -1.4994253
7.9152374 -27.495001 -0.49941805
2.4795327 -8.6642752 -2.4147818
7.8494811 -27.428579 0.49798697
1.894186 -6.62326 -1.5904039
7.8742614 -27.551523 1.5017282
3.7634046 -13.176613 -2.6636937
7.8662462 -27.559895 2.5074706
4.7125187 -16.510609 -2.7194571
7.8696694 -27.590132 3.5227556
5.9466634 -20.862101 -2.6635766
7.8659463 -27.613615 4.5475507
7.8000917 -27.400579 -2.4924798
7.8698626 -27.645674 5.5872693
7.8034315 -27.430492 -1.4946103
7.7978964 -27.447447 -0.4980568
2.4539387 -8.6836033 -2.4178874
7.7297754 -27.371138 0.49645114
1.8689383 -6.6223297 -1.5886043
7.7780366 -27.578844 1.5017282
3.6951742 -13.102102 -2.6461394
7.7726474 -27.578157 2.5067735
4.6436119 -16.487028 -2.7128868
7.7690105 -27.602148 3.5208056
6.1705046 -21.937571 -2.7981203
7.7684417 -27.637098 4.5469246
7.7253613 -27.483837 -2.4977093
7.7669411 -27.650295 5.5826898
7.7313848 -27.542175 -1.499216
7.7247128 -27.555368 -0.49952278
2.4656403 -8.8428469 -2.4598165
7.6674628 -27.517384 0.49861526
1.8400613 -6.6081629 -1.5836555
7.7170625 -27.732821 1.5086365
3.6636283 -13.165987 -2.6564431
4.6103601 -16.590687 -2.7272787
6.0907078 -21.9475 -2.796658
7.6543989 -27.600872 -2.5059018
7.7207103 -27.858864 5.6193252
7.6490593 -27.619041 -1.5019374
7.6348758 -27.605293 -0.49994165
2.4035044 -8.7377768 -2.4282403
7.5628815 -27.513128 0.4980568
1.8174983 -6.6164246 -1.5841054
3.599458 -13.112433 -2.6430862
4.5252647 -16.507614 -2.7110095
6.0392179 -22.06053 -2.8083572
7.8011785 -28.535864 -2.588177
9.7764301 -35.78569 -1.9441763
1.8826432 -6.9007092 -0.12485451
1.9599566 -7.228797 -2.0068829
1.8639518 -6.8747082 0.12433095
1.7938827 -6.6208482 -1.5836555
1.9413085 -7.17489 -1.4448059
4.5028596 -16.665207 -2.7341619
6.0128865 -22.269291 -2.8322439
7.7513156 -28.747595 -2.6049106
9.7147875 -36.079708 -1.9582022
1.9252307 -7.2001352 -1.9970479
1.7706093 -6.6311436 -1.5845551
1.9182769 -7.1892099 -1.4463322
1.9034022 -7.153511 -0.90890163
1.9055623 -7.1666622 -0.64878732
1.8995112 -7.1539588 -0.38791415
1.746459 -6.6335149 -1.5836555
3.4301839 -13.037991 -2.6205709
1.889282 -7.1912847 -1.1776388
1.881947 -7.1735525 -0.91060776
1.8755389 -7.1644101 -0.38812348
2.2141325 -8.5184689 -2.3583593
1.7169285 -6.6150498 -1.5778067
3.4009171 -13.112597 -2.6331642
4.3543482 -16.812799 -2.7507441
5.7118378 -22.086044 -2.8010452
1.8550105 -7.1883187 -0.38906553
1.8430346 -7.1470661 -0.12883367
2.3028097 -8.9883842 -2.4862161
1.6935327 -6.6150436 -1.576457
3.3512361 -13.109172 -2.6301112
4.2785244 -16.748674 -2.7379162
5.649363 -22.147181 -2.8064075
7.4416361 -29.215998 -2.6376815
9.4110031 -36.974766 -1.9995477
1.8412269 -7.2445455 -0.13047419
2.2720437 -8.9922247 -2.4851806
1.8313125 -7.2532458 0.13057891
1.6713855 -6.6246939 -1.5773568
3.3106253 -13.131636 -2.632401
4.1891732 -16.640909 -2.7178926
5.5565338 -22.105158 -2.7986078
7.459259 -29.696552 -2.6788189
9.3265858 -37.185619 -2.0091777
1.836331 -7.3323998 -0.1319402
2.3008454 -9.2419281 -2.5519559
1.8267418 -7.3430376 0.13207981
1.6501304 -6.6380525 -1.5791564
3.2855916 -13.226948 -2.6491923
4.0877829 -16.480957 -2.6894217
5.4955664 -22.189936 -2.806895
7.3775687 -29.811375 -2.6868372
9.2638063 -37.489395 -2.0238316
2.1654959 -8.8296242 -2.4360051
1.8172827 -7.4154043 0.13326657
1.6227781 -6.6267362 -1.5751073
3.2174685 -13.148707 -2.6312563
4.0274172 -16.483612 -2.6875443
5.4312453 -22.262981 -2.8137197
7.3178215 -30.0189 -2.7032225
9.2150707 -37.859173 -2.0420446
2.0580032 -8.5197735 -2.3485241
1.5946113 -6.6115222 -1.5701584
3.151772 -13.077787 -2.6148465
3.97771 -16.530218 -2.6928632
5.3813267 -22.397614 -2.8283439
7.239038 -30.152756 -2.7129841
9.1629448 -38.225174 -2.0600481
2.1757762 -9.1471119 -2.5193446
1.576025 -6.6360083 -1.5746574
3.111089 -13.109722 -2.6190445
3.8944795 -16.436363 -2.6753426
5.3122544 -22.454897 -2.8332188
7.1511569 -30.25152 -2.7196078
9.0872593 -38.50185 -2.0732367
1.9821758 -8.4643373 -2.3293715
1.5488589 -6.6243906 -1.5706083
3.0724559 -13.15109 -2.6251502
3.8729818 -16.603754 -2.700372
5.1906114 -22.287703 -2.8098199
7.150281 -30.726501 -2.7600479
8.9998188 -38.735661 -2.0841227
1.9526175 -8.4712048 -2.3293715
1.5300963 -6.6487479 -1.5751073
2.9882538 -12.995276 -2.5919495
3.8052754 -16.574816 -2.6934888
5.0710936 -22.123804 -2.7869084
7.0331955 -30.708548 -2.7562132
8.9633923 -39.199078 -2.1073599
1.9798719 -8.7285414 -2.3982174
1.5055871 -6.6483469 -1.5737575
2.9264085 -12.932864 -2.5774479
3.7430422 -16.568731 -2.6903601
5.0261517 -22.284666 -2.804945
6.9671364 -30.915615 -2.7725985
8.8729725 -39.436672 -2.1184549
1.9809493 -8.8768091 -2.4370401
1.4777099 -6.6326385 -1.5688087
2.8936191 -12.998575 -2.588515
3.6774693 -16.546986 -2.6847286
4.7642994 -21.472628 -2.7006249
6.8453784 -30.877501 -2.7670205
8.7922335 -39.724812 -2.1322718
1.5163066 -6.9080534 -1.8950732
1.4553827 -6.6415634 -1.5697085
1.4822701 -6.769917 -1.3471116
3.6104064 -16.517265 -2.6778455
4.6706967 -21.40379 -2.6899004
6.687469 -30.671503 -2.7464516
8.7588634 -40.23925 -2.1582303
1.4946291 -6.9246345 -1.8981789
1.4305483 -6.6389832 -1.5679089
1.4615227 -6.7884841 -1.3497829
3.5772197 -16.643711 -2.6963046
4.6442609 -21.645111 -2.718174
6.6229634 -30.89337 -2.7642314
8.6710129 -40.515659 -2.1714189
1.4660382 -6.9090219 -1.8924849
1.4045383 -6.6305914 -1.5647595
1.4398507 -6.8031478 -1.351691
3.4778576 -16.460894 -2.664705
4.6235747 -21.921465 -2.7508349
6.5167313 -30.924095 -2.7649286
8.6068363 -40.91312 -2.1910973
1.4419113 -6.9140973 -1.8924849
1.3825767 -6.6411767 -1.5661093
1.4184923 -6.819665 -1.3539807
3.4147546 -16.445856 -2.6603248
4.5486374 -21.945248 -2.7518101
6.4321795 -31.059813 -2.775039
8.5513058 -41.365391 -2.2137065
1.4456894 -7.0553503 -1.9297549
1.3589957 -6.6440535 -1.5656594
3.364434 -16.492517 -2.6659565
4.4466553 -21.8365 -2.7362108
6.3316641 -31.121122 -2.7785249
8.4664869 -41.688587 -2.2294073
1.7820346 -8.8538494 -2.4199581
1.3354111 -6.6468458 -1.5652094
2.6196015 -13.050548 -2.5873702
3.2986953 -16.463484 -2.6593862
4.3291402 -21.645557 -2.7103746
6.219873 -31.127407 -2.7771306
8.3826389 -42.027351 -2.2459455
1.7556117 -8.8827591 -2.4261699
1.3137394 -6.6531506 -1.5656594
2.5842824 -13.11162 -2.5976737
3.2349219 -16.427816 -2.6518774
4.287581 -21.813669 -2.7296298
6.0965996 -31.074635 -2.7705069
8.278573 -42.235237 -2.2555754
1.5744134 -8.1072063 -2.2129028
1.2905074 -6.6576953 -1.5656594
2.5318298 -13.073859 -2.588515
3.1955526 -16.532104 -2.6668949
4.1895995 -21.715454 -2.715493
5.9920125 -31.086853 -2.7698095
8.2050447 -42.648293 -2.2760909
1.2676245 -6.6640735 -1.5661093
2.4865458 -13.084546 -2.5888965
3.1323051 -16.514046 -2.6622021
4.1296501 -21.813816 -2.7259738
5.9093804 -31.244619 -2.7820113
8.1020679 -42.920033 -2.2890704
1.2425673 -6.6588793 -1.5638597
2.4343803 -13.058406 -2.5820274
3.0688593 -16.493805 -2.657196
4.0056405 -21.570469 -2.6938002
5.8086205 -31.340511 -2.7886353
8.0082026 -43.250492 -2.3051896
1.6070538 -8.7733889 -2.389935
1.2182634 -6.6574254 -1.56251
2.3928514 -13.102004 -2.5888965
2.9984672 -16.450529 -2.6484358
3.9438317 -21.658533 -2.7030621
5.726263 -31.509577 -2.8018827
7.9601145 -43.888763 -2.3376379
1.4391599 -8.0145655 -2.1818447
1.1931677 -6.6580095 -1.5616102
2.3242671 -12.98273 -2.5637097
2.9424176 -16.468676 -2.6496875
3.8281851 -21.469599 -2.6777134
5.6169333 -31.533295 -2.8022313
7.8488178 -44.152256 -2.3501987
1.1717569 -6.6657677 -1.56251
2.2833462 -13.015903 -2.568671
2.862895 -16.336304 -2.626848
3.7265315 -21.308144 -2.6560206
5.4903874 -31.458498 -2.7938643
7.7668514 -44.547943 -2.3698769
1.1484816 -6.6698174 -1.56251
2.2112162 -12.855073 -2.5354702
2.7971656 -16.295578 -2.6187134
3.6588318 -21.360153 -2.6608956
5.371923 -31.394053 -2.7865434
7.6745014 -44.944912 -2.3895552
1.4965572 -8.8575726 -2.4070172
1.1222768 -6.6564918 -1.558461
2.1943722 -13.029207 -2.5682893
2.7347002 -16.272125 -2.6133945
3.5793259 -21.34343 -2.6572394
5.2471652 -31.322222 -2.7785249
7.6189961 -45.578159 -2.4217942
1.4296966 -8.645462 -2.3480065
1.0974478 -6.6507549 -1.5562114
2.1504726 -13.046473 -2.5701973
2.6823714 -16.308863 -2.6177747
3.4456482 -20.995358 -2.6123915
5.1526241 -31.430792 -2.7865434
7.4901586 -45.789761 -2.4316335
1.3945737 -8.6198864 -2.3397241
1.0754677 -6.6622405 -1.5580109
2.1092958 -13.081036 -2.5755401
2.6370356 -16.390285 -2.6293507
3.3836663 -21.077816 -2.621166
5.0567579 -31.535143 -2.7942131
7.3447905 -45.906345 -2.4364483
1.3321764 -8.4205341 -2.284337
1.0528139 -6.6698036 -1.5589108
2.0590332 -13.059229 -2.5698156
2.5850272 -16.432566 -2.6346695
3.1019976 -19.763807 -2.4563985
4.9404793 -31.513233 -2.7907267
7.2135143 -46.117191 -2.4462874
1.3393803 -8.66187 -2.3485241
1.0295253 -6.6734381 -1.5589108
2.0194163 -13.105144 -2.5774479
2.5282509 -16.445393 -2.6352954
3.2126603 -20.945915 -2.6019106
4.8726835 -31.806009 -2.8151305
7.0778384 -46.307938 -2.45508
1.3472254 -8.9186354 -2.4168522
1.0041914 -6.6635027 -1.5557615
1.9771667 -13.135409 -2.5820274
2.460269 -16.383791 -2.624032
3.1392312 -20.95504 -2.6016669
4.78404 -31.972576 -2.828378
6.923821 -46.383717 -2.4578013
1.2822589 -8.693943 -2.3547359
0.9803586 -6.6631107 -1.5548617
1.9215965 -13.07619 -2.5690525
2.4062173 -16.41378 -2.6274736
3.0445213 -20.818556 -2.5833867
4.5647097 -31.251753 -2.7631857
6.76302 -46.415508 -2.45822
1.1602613 -8.0616198 -2.1823623
0.95709312 -6.6664925 -1.5548617
1.8703682 -13.04395 -2.5614202
2.3444304 -16.390791 -2.6224675
2.9981883 -21.013784 -2.606298
4.4499702 -31.228046 -2.7596993
6.6290641 -46.636574 -2.4686873
7.7353234 -54.555958 -0.96180218
1.0947891 -7.7996998 -2.1104105
0.93246639 -6.6601434 -1.5526122
1.826184 -13.060122 -2.5633283
2.2522755 -16.148451 -2.5824206
2.9297411 -21.059511 -2.6106853
4.3168106 -31.069725 -2.74436
6.4442968 -46.50116 -2.4603136
1.0788149 -7.885778 -2.1326692
0.91105741 -6.6768737 -1.5557615
1.7697157 -12.98666 -2.5476818
2.183923 -16.06813 -2.5683415
2.8391473 -20.943716 -2.5950859
4.2291756 -31.238607 -2.7579563
6.2958403 -46.626297 -2.4657564
6.6560674 -49.424229 -0.87049115
1.1839687 -8.8852568 -2.4018409
0.8864606 -6.6703544 -1.553512
1.7251492 -12.998597 -2.5488267
2.1283376 -16.079576 -2.5689671
2.7561502 -20.878714 -2.5858238
4.1253176 -31.292685 -2.7614424
6.1169028 -46.525215 -2.4592669
6.4627047 -49.28854 -0.86769873
1.144249 -8.8222809 -2.3837235
0.86217201 -6.6656771 -1.5517124
1.6676912 -12.91108 -2.530509
2.0752263 -16.110416 -2.5727215
2.6640308 -20.738571 -2.5672998
4.0059237 -31.227848 -2.7544701
5.9539547 -46.542324 -2.4590576
6.2769561 -49.203682 -0.86581385
1.1214254 -8.8894711 -2.4008055
0.83962792 -6.6744471 -1.5530621
1.6243271 -12.930458 -2.5331805
2.032234 -16.223406 -2.5896165
2.5448759 -20.373484 -2.5209894
3.8618708 -30.960897 -2.7297177
5.8185763 -46.780842 -2.4705713
6.0913801 -49.114162 -0.86385918
1.0840417 -8.8415604 -2.3868291
0.81585228 -6.6734681 -1.5521622
1.5611006 -12.787941 -2.5041773
1.887518 -15.506826 -2.4741678
2.4823508 -20.453186 -2.5297642
3.786376 -31.243185 -2.7534242
5.5800042 -46.178257 -2.4377046
1.0472325 -8.7954149 -2.3733706
0.79209375 -6.6724052 -1.5512625
1.5201501 -12.824508 -2.5102835
1.9256508 -16.294088 -2.5986898
2.4107101 -20.459753 -2.5295203
3.6847391 -31.319532 -2.7590022
5.4234362 -46.237129 -2.4397979
6.5115767 -55.682018 -0.97855645
1.0214028 -8.8412371 -2.3847589
0.76812798 -6.6693215 -1.5499128
1.4917492 -12.972114 -2.5381415
1.8678597 -16.29286 -2.5974381
2.344013 -20.50946 -2.5346386
3.5338299 -30.967966 -2.7269289
5.2601981 -46.239902 -2.4389603
6.272109 -55.307018 -0.97157544
0.9778493 -8.7314777 -2.3542182
0.74462748 -6.6700258 -1.5494629
1.4429789 -12.946022 -2.5320356
1.8077052 -16.269831 -2.5927453
2.2774303 -20.562901 -2.5402448
3.4046907 -30.790003 -2.7101948
5.0567431 -45.876812 -2.4188635
6.0846896 -55.380253 -0.97248304
0.95840454 -8.836628 -2.3816531
0.72196829 -6.6783967 -1.5508126
1.387457 -12.855337 -2.5133362
1.7418144 -16.191589 -2.5792918
2.2088149 -20.60033 -2.5439007
3.3010058 -30.83736 -2.7133327
4.9173422 -46.08881 -2.4291213
5.9281316 -55.747154 -0.97855645
0.94872177 -9.0416565 -2.4360051
0.6980437 -6.6750622 -1.5494629
1.3566405 -12.994835 -2.5396678
1.6822195 -16.168097 -2.5745986
2.1319761 -20.560528 -2.5380511
3.1683178 -30.606916 -2.6920667
4.7543755 -46.085827 -2.4280746
5.7539582 -55.966431 -0.98204696
0.89493686 -8.8258047 -2.3769941
6.8713336 -67.882729 1.1909523
0.67317241 -6.6619468 -1.5458636
1.2927517 -12.815877 -2.5037959
1.6162905 -16.079529 -2.559581
2.0415976 -20.382174 -2.5151396
3.0717673 -30.720877 -2.7011306
4.5776401 -45.943153 -2.4197009
0.88049513 -8.9961472 -2.4220288
0.64915705 -6.656498 -1.544064
1.2384968 -12.72261 -2.4847147
1.560913 -16.092936 -2.5608325
1.9628019 -20.310141 -2.5053902
2.9629815 -30.715548 -2.6997364
4.4222131 -46.01054 -2.4224224
0.83892488 -8.8914604 -2.3930409
0.62609971 -6.6606627 -1.5445139
1.2085668 -12.881274 -2.5148625
1.4925966 -15.968478 -2.5401831
1.9016463 -20.421627 -2.5183084
2.8494799 -30.658253 -2.6938095
2.5468526 -27.506435 -1.4477173
0.81067973 -8.9251194 -2.4013233
0.6040749 -6.676394 -1.5476632
1.1519414 -12.756365 -2.4896758
1.4421558 -16.032614 -2.5495691
1.830883 -20.434069 -2.5190394
2.7296674 -30.525129 -2.6812592
4.0682864 -45.674244 -2.4031627
0.78086424 -8.9432898 -2.4054644
0.58093488 -6.6804032 -1.5481132
1.0938267 -12.603836 -2.4591465
1.3856722 -16.031649 -2.5486307
1.7564787 -20.404737 -2.5146523
2.6138885 -30.427279 -2.6718464
3.8751125 -45.294151 -2.3824377
0.74157548 -8.8497057 -2.3795824
0.55680275 -6.6726804 -1.5458636
1.0568309 -12.691708 -2.4755561
1.3300308 -16.040323 -2.5492566
1.6885085 -20.450314 -2.5195272
2.5063522 -30.420332 -2.6704519
3.668648 -44.718189 -2.3514547
4.7919388 -58.66164 -1.0273533
0.70387727 -8.7675123 -2.3568065
0.53288615 -6.6668134 -1.544064
1.0145509 -12.72076 -2.4805171
1.2723111 -16.023207 -2.5458148
1.6127349 -20.400671 -2.5127022
2.3929427 -30.33753 -2.6624336
3.5181632 -44.802406 -2.3552229
0.66898006 -8.714056 -2.3417947
0.50990814 -6.6725192 -1.5449638
0.97237939 -12.753588 -2.4862413
1.2094951 -15.936944 -2.5314229
1.5286509 -20.235943 -2.4917407
2.2807441 -30.262251 -2.6551125
3.2888365 -43.842484 -2.304143
0.64109975 -8.7510185 -2.3511124
0.48647168 -6.6723146 -1.5445139
0.92486548 -12.715784 -2.4782274
1.1572795 -15.988355 -2.5389318
1.4533002 -20.175817 -2.4836974
2.1448212 -29.84873 -2.6181583
3.1292286 -43.762054 -2.2993281
0.6174044 -8.8514891 -2.377512
0.46474913 -6.6797233 -1.5458636
0.88494581 -12.783569 -2.4908209
1.1102425 -16.078814 -2.5526979
1.3774065 -20.049816 -2.4676106
2.0300188 -29.700991 -2.604562
2.9764824 -43.660603 -2.2934666
0.55181527 -8.3079758 -2.2310205
0.44078717 -6.6715822 -1.5436141
0.8398394 -12.745294 -2.4828069
1.0472604 -15.97812 -2.5361156
1.2977277 -19.905939 -2.4493303
1.7885447 -27.508619 -2.4117737
2.8145266 -43.523239 -2.2857208
0.53785276 -8.5489273 -2.2952073
0.41676602 -6.6614108 -1.5409148
0.80585784 -12.916659 -2.515626
0.98732281 -15.914645 -2.5254784
1.2339766 -20.003468 -2.4607861
2.6567261 -43.437111 -2.2806966
0.51545608 -8.6761017 -2.3288538
0.39385614 -6.6686606 -1.5422645
0.76503652 -12.991908 -2.5297458
0.92830098 -15.858835 -2.5160923
1.1616089 -19.964054 -2.4554236
1.700073 -29.306599 -2.5683055
2.4924433 -43.226784 -2.2691827
0.4880791 -8.7299271 -2.3428299
0.37035859 -6.6661034 -1.5413646
0.71327442 -12.878844 -2.5072303
0.87619358 -15.92115 -2.5254784
1.0855211 -19.851042 -2.4410431
1.5825812 -29.033834 -2.5439017
2.3428333 -43.259151 -2.2704387
0.46245587 -8.8241806 -2.3676767
0.34729049 -6.6712484 -1.5422645
0.66862088 -12.887138 -2.5083752
0.82529092 -16.014856 -2.5398703
1.0255537 -20.0371 -2.4634671
1.4108174 -27.754015 -2.4312966
2.1875713 -43.183289 -2.2660425
2.954226 -58.722786 -1.0263063
0.43114468 -8.8470411 -2.3733706
0.3240957 -6.6743655 -1.5427144
0.62176055 -12.897346 -2.5099015
0.76573783 -16.000017 -2.5370543
0.95087928 -19.941416 -2.4512801
1.3800546 -29.155865 -2.5536633
2.0266566 -43.135155 -2.2631116
2.7520235 -58.792664 -1.0273533
0.39772931 -8.7925253 -2.3583593
0.29919374 -6.6657753 -1.5404649
0.5695473 -12.738612 -2.4786091
0.70638055 -15.923656 -2.5245397
0.87926739 -19.978479 -2.4554236
1.2686641 -29.05722 -2.5445991
1.8684424 -42.966373 -2.2539005
2.5322092 -58.702465 -1.0256082
0.36678386 -8.8248072 -2.3666413
0.27552167 -6.6570435 -1.5382153
0.52253038 -12.732767 -2.4770825
0.65050203 -15.987325 -2.5342386
0.80719322 -19.923908 -2.4483552
1.1587547 -28.850447 -2.5261221
1.7177776 -43.144562 -2.2629023
2.3288734 -58.750904 -1.0263063
0.33965102 -8.8413601 -2.3707826
0.25396326 -6.6715522 -1.5413646
0.48133662 -12.702956 -2.4709766
0.59656888 -15.890589 -2.5185952
0.74407154 -20.005823 -2.4581048
1.0688485 -28.873857 -2.5278652
1.581059 -43.117809 -2.2612276
2.1335979 -58.746319 -1.0260968
0.30656171 -8.778779 -2.3537006
0.23060614 -6.6704502 -1.5409148
0.43679079 -12.698672 -2.4698317
0.54257512 -15.936007 -2.5254784
0.67108852 -19.915054 -2.4466491
0.96458155 -28.773867 -2.518801
1.4264331 -42.999302 -2.2547379
1.93207 -58.861336 -1.0279816
0.27816215 -8.8512383 -2.372853
0.20719926 -6.6673183 -1.5400149
0.38918808 -12.594154 -2.4492245
0.48809049 -15.975319 -2.5314229
0.59791404 -19.796238 -2.4317811
0.83878273 -27.932667 -2.4448929
1.2714741 -42.840321 -2.2461548
1.7263505 -58.859718 -1.027842
0.24764015 -8.8656731 -2.3764765
0.18376413 -6.6621575 -1.5386652
0.34651303 -12.642538 -2.4583833
0.42719328 -15.787358 -2.5013874
0.53204131 -19.919254 -2.4466491
1.1191014 -42.736683 -2.2405024
1.5273943 -59.117268 -1.03224
0.21400212 -8.7564011 -2.3469713
0.1602729 -6.6530175 -1.5364157
0.3000344 -12.545534 -2.4393022
0.36915007 -15.664339 -2.4816766
0.46144655 -19.875343 -2.4410431
0.65431184 -28.395967 -2.4849844
0.96900815 -42.70039 -2.238409
1.3138715 -58.802372 -1.0266553
0.18626811 -8.8922939 -2.3832059
0.13720889 -6.6613297 -1.5382153
0.25519934 -12.495472 -2.4293802
0.31597707 -15.740582 -2.4935656
0.39061922 -19.8034 -2.432025
0.55472267 -28.374176 -2.4828928
0.81833851 -42.619644 -2.2340128
1.1106454 -58.914558 -1.0285401
0.15242741 -8.7325716 -2.3402419
0.1140896 -6.6695619 -1.5400149
0.20985036 -12.394213 -2.4095361
0.25971976 -15.662584 -2.481051
0.32039404 -19.737158 -2.4237378
0.44761249 -27.87392 -2.4389663
0.6688143 -42.574314 -2.2315006
0.90702093 -59.050041 -1.0308439
0.11255831 -8.060832 -2.1601038
0.090806812 -6.669919 -1.5400149
0.16927747 -12.595102 -2.4484613
0.20432112 -15.60809 -2.4722905
0.25260881 -19.825493 -2.4344623
0.35266429 -28.062582 -2.4553516
0.52131939 -42.668259 -2.2363157
0.70263982 -59.200817 -1.0334269
0.091357693 -8.7237635 -2.3376536
0.06740614 -6.6585035 -1.5373155
0.12515324 -12.579912 -2.4454083
0.14955448 -15.57908 -2.4675977
0.18321921 -19.806406 -2.432025
0.25535896 -28.135365 -2.4616268
0.37199149 -42.625874 -2.2340128
0.49558946 -59.154919 -1.0325891
0.059099086 -8.465169 -2.2682903
0.044150107 -6.6567502 -1.5368656
0.080544233 -12.472295 -2.4244192
0.095073588 -15.563704 -2.4650946
0.11363674 -19.729506 -2.422519
0.15720931 -28.148041 -2.4626725
0.22181557 -42.363281 -2.220196
0.28893921 -59.12429 -1.0320306
0.030204676 -8.6527109 -2.318501
0.020937746 -6.6646585 -1.5386652
0.036938541 -12.44894 -2.4198396
0.040943485 -15.639005 -2.4769835
0.044482917 -19.604723 -2.4071634
0.05873058 -28.040829 -2.4532597
0.073658727 -42.204018 -2.2118223
0.08217939 -58.856979 -1.0273533
-3.7391769e-07 -8.5542393 -2.2921014
-0.0023257728 -6.664691 -1.5386652
-0.0064845067 -12.384207 -2.4072464
-0.013531891 -15.508677 -2.4563344
-0.023892948 -19.557114 -2.4013138
-0.036983907 -26.490786 -2.3176455
-0.073552817 -42.1441 -2.2086823
-0.12389314 -59.156864 -1.0325891
-0.029346969 -8.4073677 -2.2527611
-0.025590852 -6.6646423 -1.5386652
-0.049822621 -12.411594 -2.4125891
-0.06776429 -15.530265 -2.4597759
-0.092263319 -19.578749 -2.403995
-0.13504648 -27.634113 -2.4177003
-0.21869786 -41.768105 -2.1890039
-0.32871479 -58.856117 -1.0273533
-0.060474459 -8.6622124 -2.3210893
-0.048796892 -6.6567178 -1.5368656
-0.093441896 -12.45061 -2.4202216
-0.12115093 -15.425242 -2.4431939
-0.15953118 -19.447296 -2.3879082
-0.23016892 -27.474087 -2.4037554
-0.36658713 -42.006752 -2.2015646
-0.53481394 -58.926601 -1.02861
-0.08965914 -8.5614977 -2.294172
-0.072032265 -6.656507 -1.5368656
-0.13690241 -12.450208 -2.4202216
-0.17616193 -15.527438 -2.4594631
-0.2274818 -19.452576 -2.3886392
-0.32394591 -27.293814 -2.3880672
-0.512968 -41.985245 -2.2005179
-0.74171072 -59.020351 -1.0302854
-0.12056798 -8.6345358 -2.3138423
-0.095296234 -6.6581631 -1.5373155
-0.18087165 -12.484988 -2.4270904
-0.23121013 -15.584008 -2.4685361
-0.2953831 -19.451662 -2.3886392
-0.41756228 -27.184942 -2.3786545
-0.6614092 -42.103016 -2.2067981
-0.94707817 -58.977413 -1.0295873
-0.15235969 -8.7287083 -2.3392065
-0.11864045 -6.6636357 -1.5386652
-0.2237826 -12.446984 -2.4198396
-0.28412151 -15.50213 -2.4557085
-0.3595925 -19.434698 -2.3866894
-0.50846976 -26.972164 -2.3601775
-0.80461073 -41.904758 -2.1965404
-1.1430458 -58.993946 -1.0299363
-0.17745204 -8.542738 -2.2895133
-0.14081977 -6.6671023 -1.539565
-0.26409614 -12.40103 -2.4110627
-0.33368927 -15.41618 -2.442255
-0.42066127 -19.278599 -2.3676779
-0.59605622 -26.886669 -2.3528564
-0.9397921 -41.734135 -2.187748
-1.3365718 -58.897869 -1.0283307
-0.20726892 -8.6039038 -2.306078
-0.16264248 -6.6549096 -1.5368656
-0.30512038 -12.396161 -2.4102995
-0.39023256 -15.632214 -2.4766707
-0.48729882 -19.251215 -2.3645091
-0.69113523 -26.932226 -2.3570397
-1.0755998 -41.630959 -2.1825144
-1.5459331 -59.03677 -1.0308439
-0.23698005 -8.5374279 -2.2884779
-0.18587165 -6.6543012 -1.5368656
-0.3494412 -12.355709 -2.402667
-0.44351122 -15.490483 -2.454457
-0.55306673 -19.199791 -2.3584158
-0.78653312 -26.977446 -2.3612232
-1.2262933 -41.562847 -2.1791646
-1.7490289 -58.931076 -1.0290986
-0.2725741 -8.7219162 -2.3381712
-0.2104436 -6.6594181 -1.5382153
-0.39562562 -12.450564 -2.4213662
-0.49390024 -15.374329 -2.4363105
-0.62407839 -19.217474 -2.3608532
-0.87978435 -26.803129 -2.3462327
-1.35938 -41.195015 -2.1601145
-1.9640782 -58.89629 -1.02861
-0.30420166 -8.7112045 -2.3355832
-0.23382492 -6.6625385 -1.5391152
-0.43868217 -12.376436 -2.4072464
-0.5573132 -15.569826 -2.4675977
-0.69978839 -19.455217 -2.3903453
-0.96465933 -26.560966 -2.3253152
-1.5138718 -41.285557 -2.1651387
-2.1699488 -58.897068 -1.0287496
-0.33460784 -8.7100897 -2.3355832
-0.25839388 -6.6655312 -1.5400149
-0.48127052 -12.359136 -2.4041934
-0.59560561 -15.159197 -2.4028337
-0.77234906 -19.484261 -2.3942454
-1.0766557 -26.923557 -2.3573885
-1.6590945 -41.307961 -2.1666043
-2.3866134 -58.908699 -1.0290986
-0.36157352 -8.5910664 -2.3040073
-0.28100124 -6.6490126 -1.5364157
-0.520881 -12.223908 -2.3782434
-0.66065919 -15.377951 -2.437875
-0.83411479 -19.336668 -2.3764522
-1.1703677 -26.913664 -2.3568656
-1.7823207 -40.6591 -2.1328998
-0.39201936 -8.6999607 -2.3335128
-0.30188787 -6.648097 -1.5364157
-0.56063652 -12.298797 -2.3931265
-0.71280885 -15.518 -2.4604015
-0.89375579 -19.310156 -2.3735275
-1.245541 -26.708843 -2.3392601
-1.8967897 -40.521961 -2.1259913
-2.7725427 -58.791698 -1.0273533
-0.42183509 -8.6560135 -2.3221245
-0.32547316 -6.654788 -1.5382153
-0.60454983 -12.273129 -2.3885472
-0.76762533 -15.473852 -2.4538314
-0.95898438 -19.263302 -2.3681653
-1.3411562 -26.752089 -2.3434434
-2.0581875 -40.770061 -2.1393895
-2.9777489 -58.781662 -1.0273533
-0.45547396 -8.7200813 -2.3397241
-0.34996364 -6.6554966 -1.5386652
-0.64997357 -12.319958 -2.3980875
-0.81660825 -15.376393 -2.4388137
-1.0256588 -19.186316 -2.3591471
-1.4206626 -26.488604 -2.3207831
-2.2017772 -40.78656 -2.1406455
-0.39076993 -7.0114002 -1.8816146
-0.37214118 -6.6562452 -1.5391152
-0.3937957 -6.9997125 -1.3627579
-0.8691507 -15.401213 -2.4431939
-1.0842137 -19.093622 -2.3481789
-1.4967488 -26.197048 -2.2956822
-2.327878 -40.619514 -2.1322718
-3.3921866 -58.83131 -1.02861
-0.40593192 -6.8731427 -1.8448622
-0.39491224 -6.6471243 -1.5373155
-0.41104931 -6.8984199 -1.3432955
-0.91557854 -15.27583 -2.4237959
-1.1562325 -19.17889 -2.3591471
-1.5701467 -25.969198 -2.2761593
-2.455833 -40.383877 -2.1203392
-0.43040305 -6.879396 -1.8469328
-0.41823438 -6.6476507 -1.5377654
-0.4333972 -6.8695121 -1.3379527
-0.97639817 -15.390825 -2.4425681
-1.2142001 -19.034079 -2.3418415
-1.6699415 -26.106722 -2.2887099
-2.6013999 -40.446812 -2.1241074
-3.7917261 -58.634583 -1.0256082
-0.45479715 -6.883635 -1.8484857
-0.44182408 -6.6519837 -1.5391152
-0.45580757 -6.8444505 -1.3333733
-1.0254986 -15.31834 -2.4316175
-1.279166 -19.007936 -2.3391602
-1.7589184 -26.068924 -2.2859206
-2.7371602 -40.357777 -2.1199205
-0.47734717 -6.8608065 -1.8427917
-0.4653132 -6.6542888 -1.5400149
-0.47997031 -6.8467345 -1.3341365
-1.076326 -15.277228 -2.425673
-1.2754084 -18.013288 -2.2172909
-1.8513138 -26.0825 -2.2876639
-2.8723354 -40.268284 -2.1157336
-4.1798201 -58.311481 -1.0204421
-0.63943142 -8.7492037 -2.3505948
-0.48853758 -6.6526237 -1.5400149
-0.5045886 -6.8548074 -1.3360447
-1.1149294 -15.074409 -2.3940732
-1.4040385 -18.893625 -2.3262422
-1.9353278 -25.920565 -2.2740676
-3.0081117 -40.194283 -2.1123841
-0.65788931 -8.5695925 -2.3029721
-0.51130909 -6.6450486 -1.5386652
-0.94261205 -12.194699 -2.3774803
-1.1683376 -15.046588 -2.3903189
-1.4733677 -18.932148 -2.3316045
-2.0245543 -25.897762 -2.2726731
-3.1654184 -40.310417 -2.1190832
-0.71083385 -8.854166 -2.3801
-0.53613013 -6.6489577 -1.5400149
-0.98296022 -12.163938 -2.3721375
-1.2186179 -15.014853 -2.3859386
-1.5540372 -19.065119 -2.3486662
-2.1107249 -25.838905 -2.268141
-3.2953269 -40.167747 -2.1121747
-4.8328938 -58.658283 -1.0273533
-0.71092492 -8.4839354 -2.2812312
-0.55982643 -6.6528716 -1.5413646
-1.0240949 -12.144782 -2.3690846
-1.2776874 -15.089241 -2.3984535
-1.629662 -19.166389 -2.3618281
-2.2053022 -25.882996 -2.2726731
-3.4225848 -40.004757 -2.1042197
-0.75061643 -8.5968742 -2.3122892
-0.58321548 -6.6528177 -1.5418144
-1.0630449 -12.102018 -2.3614521
-1.3341693 -15.127979 -2.4053366
-1.693927 -19.13092 -2.3581719
-2.2914126 -25.827511 -2.2684896
-3.5551157 -39.912994 -2.1000328
-0.79984361 -8.8058338 -2.3692296
-0.60580391 -6.6566696 -1.5431641
-1.1074276 -12.121696 -2.3660316
-1.3891885 -15.176585 -2.413784
-1.7517281 -19.063917 -2.350616
-2.3965597 -25.982038 -2.2827833
-3.6874537 -39.900986 -2.1000328
-0.81110871 -8.6127234 -2.3179834
-0.62830377 -6.6467538 -1.5413646
-1.1446559 -12.086685 -2.3599257
-1.4344944 -15.091016 -2.4009564
-1.7960135 -18.824505 -2.3218548
-2.4743657 -25.886683 -2.2751136
-3.8225117 -39.844131 -2.0977299
-0.83722228 -8.5694628 -2.3071132
-0.65150088 -6.6445203 -1.5413646
-1.1881832 -12.096292 -2.3625972
-1.4850302 -15.064294 -2.3975151
-1.8593702 -18.794418 -2.3189301
-3.9623671 -39.838493 -2.0981486
-0.85195512 -8.4165688 -2.2667372
-0.67528075 -6.6480217 -1.5427144
-1.2361637 -12.148713 -2.3736639
-1.5269693 -14.954865 -2.3809328
-1.9164639 -18.704872 -2.3086929
-2.640794 -25.685976 -2.2590768
-4.071938 -39.53833 -2.083076
-0.87876582 -8.3749647 -2.2563846
-0.69990945 -6.6591907 -1.5458636
-1.277387 -12.112863 -2.3675582
-1.6008959 -15.129891 -2.4097166
-1.9836259 -18.715836 -2.3108869
-2.7232759 -25.60924 -2.2531502
-4.2142839 -39.499306 -2.08182
-0.93174142 -8.5907927 -2.3153951
-0.72452205 -6.6585178 -1.5463136
-1.3200881 -12.112232 -2.3683214
-1.63738 -14.974973 -2.3859386
-2.0593202 -18.803514 -2.3225861
-2.7721801 -25.231209 -2.2207284
-4.3578267 -39.535969 -2.0845413
-0.9703142 -8.6778898 -2.3397241
-0.74507821 -6.6425223 -1.5431641
-1.3676977 -12.174122 -2.3812964
-1.6834909 -14.938054 -2.3809328
-2.1225526 -18.804472 -2.323561
-2.8598704 -25.257511 -2.2238657
-4.4866514 -39.501461 -2.0834947
-0.98980266 -8.5940208 -2.3179834
-11.354629 -98.436203 1.7296033
-0.76821917 -6.6496944 -1.5454137
-1.4053537 -12.146115 -2.3767169
-1.7341553 -14.9422 -2.3824971
-2.1934597 -18.8423 -2.3291671
-2.9449971 -25.259764 -2.2249119
-4.5985975 -39.3237 -2.0749116
-0.97037619 -8.1742239 -2.2056561
-0.79165763 -6.6489077 -1.5458636
-1.4449525 -12.117743 -2.3721375
-1.7844285 -14.920364 -2.3799942
-2.2384117 -18.661085 -2.307718
-3.0117629 -25.071295 -2.2092237
-4.7162452 -39.144802 -2.0663285
-1.0467275 -8.5619726 -2.311254
-12.026985 -98.235428 1.7275089
-0.81486124 -6.6461039 -1.5458636
-1.4810219 -12.06196 -2.3622153
-1.8273239 -14.839543 -2.3681052
-2.3013504 -18.635426 -2.3055246
-3.0880086 -24.969673 -2.2012053
-4.8292589 -38.93782 -2.0562799
-1.0553895 -8.3895931 -2.265702
-0.8390305 -6.6509528 -1.5476632
-1.5250859 -12.072301 -2.3652685
-1.8910315 -14.92714 -2.3831229
-2.358629 -18.566231 -2.2979686
-3.2073379 -25.211727 -2.2235172
-4.9626174 -38.900917 -2.0552332
-1.1256129 -8.6785965 -2.3449006
-0.86305422 -6.6360874 -1.5449638
-1.5531743 -11.926185 -2.3377919
-1.9421928 -14.872759 -2.3756142
-2.4351556 -18.622416 -2.3060119
-3.3061924 -25.215031 -2.2249119
-5.0010414 -38.038006 -2.010643
-1.1482692 -8.6288567 -2.3324773
-9.6091833 -72.113525 1.269872
-0.88608748 -6.6409149 -1.5467634
-1.6106542 -12.055241 -2.3641236
-1.9888797 -14.846658 -2.3724854
-2.4823821 -18.506027 -2.2926061
-3.3611062 -24.990669 -2.2060859
-5.2408586 -38.86441 -2.0552332
-1.1523267 -8.445075 -2.2838194
-9.8279686 -71.932671 1.2672542
-0.90784079 -6.6360097 -1.5463136
-1.6335688 -11.925348 -2.3397002
-2.0424032 -14.871294 -2.3774912
-2.5426307 -18.465786 -2.2887065
-3.4352531 -24.916227 -2.2005081
-5.3341541 -38.589619 -2.041626
-1.1791202 -8.4218702 -2.2786431
-10.052341 -71.707809 1.2639034
-0.93424904 -6.6559577 -1.5517124
-1.6852959 -11.991506 -2.3538198
-2.0863073 -14.807347 -2.368418
-2.6040215 -18.435177 -2.2860253
-3.5155072 -24.856737 -2.1963246
-5.3488274 -37.724403 -1.9968263
-1.1983532 -8.3469496 -2.2594905
-13.267902 -92.301071 1.6276813
-0.95719886 -6.6507273 -1.5512625
-1.726584 -11.981664 -2.3530567
-2.1216013 -14.686581 -2.3502717
-2.6660788 -18.410257 -2.2840755
-3.623409 -24.990227 -2.2092237
-5.614347 -38.626549 -2.0456035
-1.2322619 -8.3752079 -2.2682903
-0.97728163 -6.6261387 -1.5463136
-1.7718394 -11.998871 -2.3576362
-2.1725655 -14.677131 -2.3499587
-2.7035198 -18.22019 -2.2616515
-3.6801713 -24.772469 -2.1910954
-5.7226739 -38.428921 -2.0361829
-1.2537167 -8.3192768 -2.2543139
-13.311702 -88.227844 1.5574528
-1.0012778 -6.6284676 -1.5476632
-1.8142985 -11.996495 -2.3583994
-2.2175663 -14.628444 -2.3433886
-2.739969 -18.032047 -2.2394712
-3.7937424 -24.908508 -2.2043431
-5.8200469 -38.167828 -2.0234129
-1.2909825 -8.3585386 -2.2662196
-12.502131 -80.94574 1.4296663
-1.0258986 -6.6345615 -1.5499128
-1.8495358 -11.933502 -2.3473325
-2.2593415 -14.544091 -2.3311865
-2.8730578 -18.47352 -2.295531
-3.891407 -24.964014 -2.210444
-5.9364691 -37.996269 -2.0154579
-1.3361322 -8.4551134 -2.2936544
-12.781543 -80.790741 1.4277465
