# .PCD v0.7 - Point Cloud Data file format
VERSION 0.7
FIELDS x y z
SIZE 4 4 4
TYPE F F F
COUNT 1 1 1
WIDTH 1491
HEIGHT 1
VIEWPOINT 0 0 0 1 0 0 0
POINTS 1491
DATA ascii
4.3200364 -6.7941756 -1.5650156
8.4884357 -13.360166 -2.507019
9.9490747 -15.671184 -2.2792008
12.26734 -19.337696 -2.0035362
17.00551 -26.817083 -1.664179
11.417012 -18.018126 -0.37232965
4.1092343 -6.5077081 -2.0622702
4.7254643 -7.4865103 -2.0439053
4.286727 -6.7966795 -1.5619626
8.460475 -13.424611 -2.5132763
9.9175873 -15.742767 -2.2845628
12.230546 -19.429295 -2.0085912
16.879461 -26.835276 -1.6614574
34.732716 -55.240112 -1.138979
4.1213675 -6.5776715 -2.07987
11.255643 -17.970888 0.37013063
4.6948915 -7.4988256 -2.0425556
4.2525601 -6.7949586 -1.5581464
8.4491739 -13.511007 -2.5239139
9.8408871 -15.748711 -2.2801757
12.184816 -19.507355 -2.0122519
16.819525 -26.948252 -1.664807
4.1065426 -6.6051426 -2.0840108
11.180149 -17.982641 0.36960706
4.6813126 -7.5325589 -2.0475044
4.2194948 -6.7947512 -1.5547118
8.4064074 -13.542307 -2.5245397
9.8179045 -15.828491 -2.2870002
10.835079 -17.482006 -1.7994175
16.736378 -27.014065 -1.665435
4.0856314 -6.6203685 -2.0845287
4.656013 -7.5505133 -2.0479543
4.184577 -6.788651 -1.5501324
8.4367809 -13.697715 -2.5480049
9.8167 -15.950576 -2.2996747
10.765565 -17.499172 -1.7975
16.681725 -27.136978 -1.6694125
4.0544262 -6.6214099 -2.0803876
11.062687 -18.073898 0.36988628
4.6265783 -7.5617328 -2.0466046
4.1588058 -6.7998676 -1.5493692
8.4332075 -13.799559 -2.5614581
9.783721 -16.022018 -2.305037
11.995755 -19.652199 -2.0143435
16.634739 -27.273478 -1.6742274
4.0282798 -6.630568 -2.0788348
4.5920644 -7.5645099 -2.0430055
4.1268969 -6.8009152 -1.5463161
8.3808908 -13.822157 -2.5602069
9.770936 -16.127378 -2.315274
11.935338 -19.707584 -2.015738
16.547709 -27.345047 -1.6750647
4.0250559 -6.67768 -2.0891874
4.5760055 -7.5947185 -2.0470545
4.1000943 -6.8102331 -1.5451714
8.3584366 -13.8888 -2.5674028
9.7071714 -16.142681 -2.3128366
11.893152 -19.79353 -2.0202701
16.432255 -27.358681 -1.6725527
35.736897 -59.54678 -1.2122092
3.9959476 -6.6793857 -2.0855639
4.557466 -7.6240263 -2.0506537
4.0613751 -6.7968273 -1.5390654
8.2744617 -13.858529 -2.5564523
9.6385584 -16.15601 -2.3099117
11.840314 -19.862309 -2.0230591
16.42049 -27.556564 -1.6811358
3.9645388 -6.6823578 -2.0819407
4.5248609 -7.6298323 -2.0479543
4.0264282 -6.7947783 -1.5352492
8.2759466 -13.977153 -2.5727215
9.6083946 -16.233971 -2.3162489
11.793221 -19.941244 -2.0268939
16.315321 -27.609686 -1.6807171
3.9284499 -6.6745119 -2.0752113
4.5077333 -7.6648421 -2.0529034
3.9987051 -6.8020215 -1.5337228
8.2010927 -13.96167 -2.5645869
9.5990696 -16.354677 -2.3284359
11.763868 -20.051027 -2.0338664
16.269348 -27.752617 -1.6859506
3.9324028 -6.7348957 -2.089705
4.4691658 -7.6603317 -2.0475044
3.9699922 -6.8074589 -1.5318148
8.189106 -14.053363 -2.5761631
9.5319366 -16.37093 -2.3259985
11.749929 -20.188402 -2.043628
16.184422 -27.82996 -1.6872067
3.888536 -6.7134762 -2.0788348
4.4414229 -7.6741996 -2.0470545
3.9324424 -6.7974834 -1.526472
8.1686697 -14.131457 -2.5852363
9.4608326 -16.380037 -2.3225861
11.687356 -20.243097 -2.0450222
16.101149 -27.910505 -1.6886722
3.8814387 -6.7554851 -2.0876343
4.4087863 -7.6795163 -2.0443552
3.9047823 -6.804358 -1.5249456
8.1792316 -14.264419 -2.6043212
9.4499798 -16.493917 -2.3340418
11.629498 -20.306246 -2.0472884
16.049259 -28.046276 -1.693487
3.8444419 -6.7454953 -2.0803876
4.3887029 -7.7067122 -2.0475044
3.8674092 -6.7940598 -1.5196029
8.1538038 -14.335808 -2.6121428
9.4580622 -16.642435 -2.3503723
11.572322 -20.37097 -2.0497289
15.96112 -28.119499 -1.6945338
3.8360844 -6.7857809 -2.0886698
4.3861322 -7.7619419 -2.0583022
3.8369138 -6.7955513 -1.5169315
8.1304951 -14.405776 -2.6199648
9.4467001 -16.751518 -2.3613408
11.517771 -20.440748 -2.0526922
15.920712 -28.266243 -1.700186
3.8230116 -6.8153129 -2.0938461
4.3466249 -7.755106 -2.0524535
3.8114789 -6.8030996 -1.5157868
8.0743694 -14.423727 -2.6180873
9.4094887 -16.822504 -2.3667028
11.482983 -20.537958 -2.0586185
15.862857 -28.394878 -1.7045822
3.8038943 -6.8370571 -2.0964344
4.3261561 -7.7821546 -2.0556028
3.778172 -6.799201 -1.5119705
8.0373964 -14.476003 -2.6224675
9.3930817 -16.931625 -2.3774273
10.754182 -19.393072 -1.9400867
15.769453 -28.460554 -1.7052102
3.7856061 -6.8604426 -2.0995402
4.3243699 -7.8432846 -2.06775
3.7420964 -6.7899961 -1.5070095
7.9953928 -14.519545 -2.6252837
9.370285 -17.030401 -2.3866894
10.676822 -19.413036 -1.9383438
15.70079 -28.571438 -1.7085598
3.7551434 -6.861752 -2.0959167
4.3315578 -7.9215951 -2.0843966
3.7051897 -6.7788987 -1.5016669
7.9768534 -14.606309 -2.635921
9.3374043 -17.111797 -2.3935142
11.355055 -20.817999 -2.0746553
15.612432 -28.64712 -1.7098159
3.7293258 -6.8714228 -2.0948815
4.3252459 -7.9760675 -2.0947442
3.676827 -6.7831607 -1.4997588
7.9032407 -14.592377 -2.628412
9.2851763 -17.158251 -2.3954639
11.296536 -20.883795 -2.07727
15.537028 -28.747126 -1.7125373
3.7181346 -6.9082141 -2.1021285
4.3176827 -8.0288754 -2.1046422
3.6512675 -6.7924957 -1.4989955
7.8709497 -14.654682 -2.6346695
9.2552633 -17.246532 -2.4032638
11.227338 -20.930122 -2.0779672
15.447913 -28.822308 -1.7137934
3.6976361 -6.9279671 -2.1041989
4.308887 -8.0800085 -2.11409
3.6173766 -6.7861423 -1.4947978
7.8364606 -14.713449 -2.6403012
9.2360363 -17.355839 -2.4139881
11.164501 -20.988533 -2.0798845
15.390326 -28.957182 -1.7186083
3.6770461 -6.9476624 -2.1062696
4.3134518 -8.1570158 -2.1302865
3.5753167 -6.7640138 -1.4871653
7.7795191 -14.730235 -2.6384242
9.2235718 -17.479269 -2.4266624
11.1488 -21.136637 -2.0906918
15.307777 -29.046068 -1.7207018
3.6554644 -6.9655871 -2.1078224
4.3102903 -8.2203474 -2.1428835
3.5453053 -6.7642808 -1.4844941
7.7216396 -14.74505 -2.636234
9.1588221 -17.504322 -2.4256876
11.124813 -21.270763 -2.1001048
15.248844 -29.180752 -1.7255167
3.619535 -6.9560261 -2.1010931
4.3085375 -8.2872143 -2.1563809
3.5180507 -6.7696466 -1.4829676
7.6828661 -14.796457 -2.640614
14.421978 -27.787191 3.8440032
9.1488562 -17.634861 -2.439337
11.082598 -21.37137 -2.1062055
15.18181 -29.301189 -1.7294942
3.6040893 -6.9857869 -2.1062696
4.3152986 -8.3714895 -2.174377
3.4836075 -6.7609434 -1.4783882
7.6266489 -14.814405 -2.6390498
14.259496 -27.710278 3.8264539
9.0890589 -17.670219 -2.4398243
11.042552 -21.477259 -2.1128294
15.073959 -29.343344 -1.7288661
3.5928793 -7.0241232 -2.1140339
4.3268442 -8.4663239 -2.1950724
3.4537342 -6.7608237 -1.4757168
7.631465 -14.95178 -2.6587603
14.191549 -27.816469 3.8342535
9.0778255 -17.800873 -2.453474
11.011852 -21.602654 -2.1213708
14.985944 -29.424263 -1.7305409
3.5700855 -7.0400677 -2.1150692
4.3272119 -8.5404797 -2.2103691
3.420357 -6.7535725 -1.471519
7.584579 -14.988906 -2.6606379
14.058529 -27.794981 3.8245041
9.021903 -17.844852 -2.4551802
10.962437 -21.692528 -2.1264257
14.92455 -29.558403 -1.7353557
3.5524313 -7.0662956 -2.1192105
4.3262382 -8.612999 -2.2252157
3.3949995 -6.7619615 -1.4707558
7.5348697 -15.020584 -2.6615763
13.975657 -27.872276 3.8284039
8.9435482 -17.84429 -2.4507926
10.659081 -21.276419 -2.0819762
14.855252 -29.67819 -1.7393333
3.5234349 -7.0700073 -2.1166222
4.3230739 -8.682126 -2.2391627
3.3582535 -6.7474074 -1.4650315
7.508779 -15.099858 -2.6709626
13.766949 -27.696911 3.7976928
8.8547068 -17.822067 -2.4434805
10.57057 -21.284945 -2.0791874
14.767547 -29.762066 -1.7412174
3.4910347 -7.0666752 -2.1119635
3.4219475 -6.9298725 -1.7843118
3.3312066 -6.7520461 -1.4635051
7.4778848 -15.163651 -2.6778455
13.718908 -27.83144 3.8098798
8.8280201 -17.917217 -2.4524989
10.809473 -21.958075 -2.1412423
14.71286 -29.900478 -1.7464511
3.4106376 -6.961977 -2.0772817
3.3968799 -6.9400249 -1.7838619
3.3053458 -6.756001 -1.4619786
7.4353199 -15.210957 -2.6815999
8.7959146 -18.010353 -2.4610295
10.762819 -22.047514 -2.1464715
14.624157 -29.983965 -1.7483351
3.380408 -6.9616752 -2.0736582
3.3717844 -6.9500866 -1.783412
3.2646103 -6.7321677 -1.4543462
7.3976803 -15.268821 -2.6872315
8.7693195 -18.115993 -2.4712667
10.722239 -22.160276 -2.1537926
14.585473 -30.171494 -1.7562902
3.3493853 -6.959507 -2.0695171
3.3441246 -6.9547896 -1.7816124
3.2325859 -6.7258272 -1.4505301
7.3631496 -15.333724 -2.6941147
8.7463865 -18.230614 -2.4827225
10.679282 -22.269426 -2.1607652
3.3832896 -7.0932131 -2.105752
45.786087 -96.035667 1.8570757
3.3810267 -7.094841 -1.8144552
3.2074001 -6.7335258 -1.4497669
7.3409901 -15.425329 -2.7056909
8.6716137 -18.237724 -2.4795539
10.617732 -22.340761 -2.164077
3.3568571 -7.1014857 -2.1047165
45.490738 -96.279877 1.8587162
3.3470855 -7.0872178 -1.8095063
3.1838768 -6.7446804 -1.4497669
7.2854137 -15.447289 -2.7050653
8.6688251 -18.397177 -2.4971032
10.503178 -22.300179 -2.1565816
10.705583 -22.750513 -1.3177148
3.4115384 -7.2828541 -2.1549275
45.175579 -96.48336 1.8595887
4.3028345 -9.1939201 -2.34354
3.1486676 -6.7308564 -1.4444242
7.2649045 -15.544207 -2.7175801
8.615469 -18.450706 -2.5002716
10.45898 -22.408924 -2.1635542
10.595713 -22.722582 -1.3139466
3.4129369 -7.3525438 -2.1720095
44.857868 -96.68219 1.8603916
4.3010516 -9.2742949 -2.3601866
3.1152451 -6.7204328 -1.4398447
7.2379951 -15.628623 -2.7279046
8.5718546 -18.525709 -2.5063653
10.420835 -22.532099 -2.1719213
10.518009 -22.763054 -1.3141559
3.3904808 -7.3714323 -2.1740801
4.299571 -9.3565407 -2.3772829
3.0655448 -6.6741762 -1.4276329
7.1809249 -15.648407 -2.7269659
8.5178909 -18.578974 -2.5095336
10.362042 -22.611805 -2.1761045
10.448461 -22.821421 -1.315412
3.3871601 -7.4324441 -2.1885738
4.2959557 -9.4353399 -2.3934791
3.0389767 -6.6776881 -1.4261066
7.1319828 -15.685966 -2.729156
12.597291 -27.71911 3.7384641
8.471839 -18.641455 -2.5141647
10.441198 -22.996155 -2.2095723
10.722695 -23.63805 -1.3603163
3.3744247 -7.4700441 -2.1963384
4.7913103 -10.616515 -2.689065
3.0071285 -6.666254 -1.421527
7.0572004 -15.659102 -2.7203958
12.477577 -27.699198 3.7301772
8.4034491 -18.654968 -2.5122147
10.371427 -23.045187 -2.2109668
3.3520029 -7.4864821 -2.1978915
4.7353888 -10.586095 -2.6773674
2.9721849 -6.6475129 -1.4154211
7.0060391 -15.684222 -2.7207084
8.369832 -18.754885 -2.5217206
10.294163 -23.08853 -2.2116642
13.81523 -31.000383 -1.7786899
4.7015667 -10.609687 -2.679167
2.9366736 -6.6332293 -1.4100785
6.9820666 -15.785673 -2.7338493
8.3404341 -18.86569 -2.5326889
10.200629 -23.095161 -2.2088752
13.70313 -31.05447 -1.7788993
4.6587334 -10.617924 -2.6769176
2.9119234 -6.6398439 -1.4093152
6.9158244 -15.784616 -2.7294688
8.2951117 -18.950687 -2.5400012
10.141457 -23.190807 -2.214453
13.63144 -31.186296 -1.7837142
3.8131044 -8.7695389 -2.5623088
4.5967841 -10.576931 -2.6625206
2.8836589 -6.6414676 -1.4074073
6.9223843 -15.958461 -2.7551243
12.084093 -27.857964 3.728471
8.260498 -19.052376 -2.5497506
10.000258 -23.08712 -2.2012053
13.551947 -31.3167 -1.7883198
3.767952 -8.7490845 -2.5524735
4.5895658 -10.6671 -2.6809666
2.8550289 -6.6388688 -1.4047359
6.8814521 -16.017012 -2.7610688
11.853445 -27.602928 3.6884978
8.2393703 -19.18689 -2.5638874
10.006019 -23.323298 -2.2203796
13.461434 -31.407871 -1.7908319
3.705555 -8.6833496 -2.5296974
4.5602822 -10.696602 -2.684566
2.8283799 -6.6374631 -1.4024462
6.8430028 -16.074278 -2.7670133
11.810037 -27.755333 3.7036097
8.1725912 -19.206799 -2.5629125
9.8475571 -23.165657 -2.2022512
13.371259 -31.48543 -1.792716
3.6880236 -8.7222815 -2.5374622
4.5232692 -10.708076 -2.683666
2.804826 -6.6431885 -1.401683
6.7689314 -16.047737 -2.7585657
11.690167 -27.728493 3.6948349
8.1502066 -19.341312 -2.5770495
9.7388029 -23.133781 -2.195976
13.300858 -31.610598 -1.7973217
3.6135187 -8.634161 -2.5079567
4.5189524 -10.802903 -2.7034619
2.7713754 -6.6316872 -1.3971035
6.6910424 -16.026869 -2.7507441
11.590249 -27.761803 3.6938601
8.084938 -19.375137 -2.5777805
9.6403618 -23.12534 -2.191967
13.21716 -31.736574 -1.8017179
3.6802452 -8.8805141 -2.5757673
4.4592004 -10.770779 -2.6913145
2.7482095 -6.6413207 -1.3971035
6.663734 -16.119497 -2.7626331
11.412613 -27.62063 3.669486
8.0381184 -19.463354 -2.5855803
9.558816 -23.157007 -2.1917925
9.6517439 -23.405285 -1.3268213
3.7005601 -9.0184116 -2.6120019
4.4352908 -10.814354 -2.6985128
2.7190552 -6.6363392 -1.3940506
6.5967698 -16.108601 -2.7570014
11.355547 -27.742836 3.6806982
8.0103617 -19.579929 -2.5975235
9.4816961 -23.199453 -2.1926641
9.5579185 -23.420958 -0.44154587
3.6669962 -9.0216866 -2.6094139
9.5196114 -23.432238 0.44147608
4.4011788 -10.838798 -2.7007623
2.6918657 -6.6325855 -1.3913792
6.5412402 -16.133362 -2.7573142
7.9717741 -19.681366 -2.6072729
9.424572 -23.291513 -2.1982422
12.96005 -32.045036 -1.8115571
3.630301 -9.0261049 -2.6068256
4.3669529 -10.863136 -2.703012
2.6646116 -6.6351199 -1.3898528
6.5033937 -16.210394 -2.7663872
7.905241 -19.714602 -2.6080043
9.3735867 -23.400099 -2.2053888
12.857357 -32.12941 -1.8136505
3.5701873 -8.9669294 -2.5861201
4.3429527 -10.918905 -2.7129097
2.6392584 -6.6389074 -1.388708
6.4176064 -16.159559 -2.7538726
7.8568845 -19.793737 -2.6148288
9.6289473 -24.282787 -2.285398
12.774543 -32.248367 -1.8178372
3.5652359 -9.0416203 -2.6042373
4.3095775 -10.9405 -2.7147093
2.6121938 -6.6348362 -1.3860366
6.3538613 -16.155016 -2.7494924
7.8209777 -19.895428 -2.6248221
9.5702181 -24.37022 -2.2906272
10.215281 -26.039572 -1.4659303
3.5324223 -9.046196 -2.6021669
4.2591105 -10.918421 -2.7057114
2.5897305 -6.6457429 -1.3864182
6.3353825 -16.266193 -2.7648232
7.7435637 -19.902258 -2.6221409
9.5673761 -24.615181 -2.3104987
10.105531 -26.026661 -1.4632088
3.5277822 -9.132967 -2.62339
2.5760553 -6.6760049 -1.6520406
2.5646498 -6.6533585 -1.3860366
6.2224584 -16.151054 -2.7413578
7.7397304 -20.11021 -2.6457837
9.4735165 -24.640783 -2.3096273
9.9928846 -26.018778 -1.4606967
3.486701 -9.1259842 -2.6176958
2.5467057 -6.6726565 -1.6488912
2.5309134 -6.6347547 -1.3803123
6.2715464 -16.458019 -2.7895398
7.5154572 -19.732693 -2.5926485
9.3711529 -24.630871 -2.3056178
9.8863916 -26.012426 -1.4583939
22.435791 -59.062637 -1.1028175
3.1385934 -8.297287 -2.3769941
2.516299 -6.6591897 -1.6434923
2.5088975 -6.6431108 -1.3803123
6.1360502 -16.264334 -2.7532468
7.5802526 -20.102989 -2.637984
9.3013611 -24.693508 -2.3085814
9.7944498 -26.030113 -1.4575565
22.239807 -59.136715 -1.1028175
3.3671548 -8.9915123 -2.5726614
2.4928367 -6.6638474 -1.6425927
2.4808829 -6.6389551 -1.377641
6.1069641 -16.351212 -2.7645102
7.4906044 -20.07725 -2.6311593
9.1831007 -24.639948 -2.3005631
9.7634525 -26.225117 -1.4665583
3.1664627 -8.5508852 -2.4432518
2.4535215 -6.63273 -1.6326947
2.459255 -6.6553698 -1.3791674
6.0120907 -16.278978 -2.748554
7.4485726 -20.190239 -2.6423714
9.1354437 -24.789347 -2.3113701
9.7500677 -26.48564 -1.4791189
3.2167993 -8.7855654 -2.5069215
2.427856 -6.6380177 -1.6317949
2.4312906 -6.6510062 -1.3764962
5.9550948 -16.308329 -2.7498055
7.4459462 -20.413219 -2.6679637
9.0270195 -24.761187 -2.3057923
9.735466 -26.733454 -1.4910516
21.804571 -59.907562 -1.1128004
3.2275591 -8.9111719 -2.5395324
2.4031768 -6.6387029 -1.6299953
2.4040544 -6.6483746 -1.3742064
5.9499936 -16.463604 -2.7726448
7.4038262 -20.508751 -2.6772258
9.0730057 -25.159897 -2.3399572
11.95467 -33.169044 -1.8477736
21.663063 -60.171452 -1.1162908
3.1764796 -8.8618135 -2.5224504
2.3760478 -6.6360426 -1.6272959
2.3727334 -6.6304317 -1.3688638
5.8386297 -16.333603 -2.7473023
7.3548903 -20.598032 -2.685513
9.0042543 -25.231129 -2.3437922
11.79992 -33.101452 -1.8417026
3.2998016 -9.3080244 -2.6461661
2.3476651 -6.629601 -1.6236967
2.3541586 -6.6516294 -1.3715351
5.802649 -16.413483 -2.7573142
7.3265734 -20.74712 -2.7015998
8.9380083 -25.324406 -2.3495445
11.744069 -33.31197 -1.851123
3.262177 -9.3049011 -2.6420248
2.3154919 -6.6120062 -1.6173981
2.3315752 -6.6616597 -1.3719168
5.7466245 -16.437366 -2.7579401
7.2554135 -20.776318 -2.7020874
8.8896036 -25.4702 -2.3601775
11.692807 -33.539467 -1.8614855
3.2334743 -9.3271828 -2.6451306
2.2872961 -6.6053166 -1.6137989
2.3083072 -6.6697578 -1.3719168
5.7130914 -16.526403 -2.769516
7.2009897 -20.854053 -2.7089119
8.933239 -25.885284 -2.3957369
11.6375 -33.759457 -1.8714294
3.1514096 -9.1940422 -2.6042373
2.2635939 -6.6114173 -1.613349
2.2729347 -6.6424818 -1.364666
5.6457858 -16.518208 -2.7648232
7.1550884 -20.957964 -2.7191489
8.8878641 -26.048304 -2.407939
11.535046 -33.845249 -1.8739415
3.124258 -9.2196236 -2.6083784
2.2386281 -6.6137404 -1.6119993
2.2503638 -6.652235 -1.3650476
5.5887237 -16.539686 -2.765136
7.1263242 -21.114473 -2.7362108
8.7319298 -25.886608 -2.3901591
11.409184 -33.862591 -1.8726853
2.8208354 -8.4208145 -2.3795824
2.2111998 -6.6085787 -1.60885
2.2265058 -6.6581879 -1.364666
5.5660024 -16.664015 -2.7826564
7.0601182 -21.161816 -2.7391357
8.6490803 -25.939611 -2.3922508
11.301007 -33.932529 -1.8743602
2.949909 -8.9092674 -2.5146859
2.1881177 -6.6162567 -1.60885
2.2026355 -6.6640549 -1.3642844
5.4861255 -16.617689 -2.7717061
7.0166678 -21.278709 -2.7510788
8.7143812 -26.442713 -2.4358287
11.211217 -34.05904 -1.8791751
3.0623891 -9.358325 -2.6384015
2.1589549 -6.6053314 -1.6043509
2.1750932 -6.658639 -1.361613
5.4176683 -16.604815 -2.7663872
6.9596071 -21.343382 -2.7564411
8.6652184 -26.605583 -2.4480305
11.151578 -34.2803 -1.8892236
3.058696 -9.4529781 -2.6622128
2.1370394 -6.6124539 -1.6043509
2.1499832 -6.6564746 -1.359705
5.3425627 -16.56065 -2.7560625
6.8753896 -21.324778 -2.7510788
8.6062574 -26.725203 -2.4563975
11.095324 -34.495819 -1.8990628
2.8248425 -8.8301125 -2.4841454
2.1150999 -6.6195049 -1.6043509
2.1273005 -6.6616979 -1.3593234
5.2798119 -16.553808 -2.7519956
6.8466997 -21.492395 -2.769603
8.5768213 -26.939646 -2.47348
11.01113 -34.627586 -1.9042963
2.8359208 -8.9725456 -2.5214152
2.0867012 -6.6101217 -1.6003017
2.1022615 -6.663466 -1.3581785
5.2035904 -16.513735 -2.7422965
6.7978592 -21.59948 -2.7803273
8.5060434 -27.043547 -2.4802783
10.927305 -34.783947 -1.9107859
2.8633132 -9.1704845 -2.5742142
2.060133 -6.6062036 -1.5976024
2.081326 -6.6782608 -1.359705
5.1335869 -16.492189 -2.7357264
6.7070985 -21.573792 -2.7739902
8.416913 -27.106886 -2.4832413
10.829493 -34.898178 -1.9149728
2.8871524 -9.3673782 -2.6264958
2.0336189 -6.60218 -1.594903
2.0562568 -6.6839681 -1.3593234
5.0690441 -16.497675 -2.7335362
6.3672023 -20.735542 -2.6633327
8.3409338 -27.197056 -2.4888194
10.698008 -34.926182 -1.9143449
2.6429133 -8.6825047 -2.431864
2.010541 -6.6133184 -1.5958028
2.0266354 -6.6704412 -1.3551255
5.0309296 -16.579538 -2.7441738
6.6049409 -21.794113 -2.7961702
8.3464375 -27.557798 -2.5191495
10.648887 -35.204185 -1.9275335
2.5781114 -8.5769711 -2.3997703
1.9818711 -6.5975528 -1.5904039
2.0027747 -6.6755953 -1.354744
4.9600363 -16.54315 -2.7354133
6.5445905 -21.855831 -2.8012891
8.3004303 -27.754744 -2.5344889
10.560682 -35.334984 -1.932767
2.4479105 -8.2428694 -2.3040073
1.9616007 -6.6137724 -1.5926535
1.9789525 -6.6765528 -1.3535991
4.8966522 -16.541422 -2.7322848
6.5065322 -22.00799 -2.8178632
8.2399597 -27.889116 -2.5442505
10.48589 -35.536381 -1.9417688
2.5376055 -8.6554966 -2.4168522
8.0559597 -27.495779 0.50011617
1.9341207 -6.6056175 -1.5890542
1.9550842 -6.6815357 -1.3532175
4.8499632 -16.596334 -2.7385421
6.4252224 -22.01532 -2.8159132
8.0789604 -27.699661 -2.5243788
10.393055 -35.680145 -1.9476304
2.4316561 -8.402648 -2.3438654
7.9554873 -27.508364 0.49983692
1.9078052 -6.6010962 -1.5863549
1.9273909 -6.6732297 -1.3501645
4.7733893 -16.548632 -2.7279046
6.3219562 -21.946056 -2.8042138
7.9057746 -27.480171 -2.5017183
7.9092498 -27.51033 -1.500158
7.9004536 -27.5159 -0.49969733
2.460227 -8.6195621 -2.4018409
7.8188024 -27.393671 0.49725395
1.8842165 -6.6058407 -1.585905
7.845716 -27.524363 1.4999486
3.7536674 -13.17735 -2.6633122
7.8513689 -27.580708 2.5088651
4.6959476 -16.507116 -2.7182057
7.8438888 -27.572708 3.5198307
5.9130993 -20.799419 -2.6550457
7.8412657 -27.600098 4.5444217
7.7842236 -27.417519 -2.4935257
7.8435922 -27.644978 5.585743
7.780035 -27.439215 -1.4947151
7.7721915 -27.429796 -0.49763793
2.4468844 -8.687602 -2.4184053
7.7075105 -27.383648 0.49655586
1.862103 -6.6202068 -1.5877045
7.7593236 -27.586189 1.5018327
3.6879911 -13.12044 -2.6491923
7.7496576 -27.588764 2.507122
4.6393657 -16.52721 -2.7188313
7.7470632 -27.616564 3.5217805
6.1497512 -21.937212 -2.797389
7.745944 -27.631104 4.5450473
7.6992226 -27.482895 -2.4970119
7.7480993 -27.675968 5.5865064
7.7046571 -27.539295 -1.4986926
7.7033205 -27.553049 -0.49938318
2.4315426 -8.7500677 -2.4334168
7.6557446 -27.549706 0.49910393
1.8390968 -6.6225896 -1.5868047
3.6442664 -13.140801 -2.6507187
4.5924468 -16.57106 -2.7235246
6.0896788 -22.003403 -2.8032389
7.6281886 -27.599863 -2.5052047
7.6350908 -27.643623 -1.502984
7.6209159 -27.629894 -0.50029069
2.3968918 -8.7375889 -2.4277227
7.5405011 -27.50683 0.49784735
1.8113345 -6.6120539 -1.5827556
3.5809729 -13.080858 -2.6362174
4.5205116 -16.535542 -2.7150769
6.0264306 -22.074316 -2.809576
7.8051119 -28.609142 -2.5944521
9.7540703 -35.802139 -1.9446996
1.8841251 -6.9251771 -0.12527338
1.9576852 -7.2354169 -2.0084357
1.8586309 -6.8740764 0.12429604
1.7877345 -6.6164546 -1.5823058
1.9365282 -7.1721144 -1.4440426
4.4941335 -16.667562 -2.7341619
5.9978523 -22.275398 -2.8324873
7.7424755 -28.774736 -2.6070025
9.6953773 -36.082859 -1.9580977
1.924449 -7.2123413 -2.0001535
1.7671365 -6.6320696 -1.5845551
1.9064302 -7.1598592 -1.4402263
1.895072 -7.1372399 -0.906708
1.9012989 -7.1657333 -0.64861304
1.8916731 -7.1395073 -0.38707677
1.7434808 -6.636313 -1.5841054
3.42535 -13.047381 -2.6220973
1.8890224 -7.2056484 -1.1798289
1.8756765 -7.1649356 -0.90938914
1.8692638 -7.1557288 -0.38760012
2.1956074 -8.4653969 -2.3433478
1.7168851 -6.6291533 -1.580956
3.3847058 -13.078265 -2.6259136
4.3465333 -16.818901 -2.7513697
5.702754 -22.098642 -2.802264
1.838794 -7.1460934 -0.12879875
2.2928402 -8.9690008 -2.4805219
1.825091 -7.139286 0.12862423
1.6915159 -6.6215935 -1.5778067
3.341459 -13.099511 -2.6278214
4.2775612 -16.781538 -2.7429221
5.6372743 -22.148212 -2.8061638
7.4283013 -29.227613 -2.6383786
9.3985262 -37.00679 -2.001013
2.2611957 -8.9690599 -2.4784513
1.8275145 -7.2542033 0.13057891
1.6660138 -6.6180086 -1.5755571
3.3094952 -13.156215 -2.6369805
4.1737204 -16.616276 -2.7135124
5.549789 -22.127319 -2.8010452
7.4456472 -29.708185 -2.6795161
9.3051748 -37.182747 -2.0087588
1.8328004 -7.3291607 -0.13187039
2.2885549 -9.2131338 -2.5436735
1.825143 -7.3475566 0.13214962
1.6445278 -6.6253881 -1.5760071
3.2777197 -13.224854 -2.6484292
4.0848813 -16.493887 -2.6912987
5.488771 -22.195705 -2.8073823
7.3619595 -29.815233 -2.6868372
9.2564573 -37.5159 -2.0250876
1.8220352 -7.3957047 -0.13295244
2.1576583 -8.8176212 -2.4323816
1.8186235 -7.4377222 0.13365053
1.6188458 -6.6256924 -1.5746574
3.2068591 -13.135133 -2.6282034
4.0206575 -16.493395 -2.688796
5.4139552 -22.242678 -2.8107948
7.3058672 -30.038218 -2.704617
9.1943064 -37.860115 -2.0418353
2.0598779 -8.547143 -2.3557711
1.5952518 -6.6294074 -1.5742074
3.1458421 -13.083254 -2.6156096
3.9667492 -16.522696 -2.6912987
5.363121 -22.373402 -2.8249316
7.224174 -30.160418 -2.7133327
9.1531496 -38.272697 -2.062351
2.1629567 -9.1144171 -2.5100274
1.5712024 -6.6311436 -1.5733078
3.1001537 -13.094155 -2.6156096
3.8808742 -16.417252 -2.6719007
5.3050513 -22.476995 -2.8356562
7.1316586 -30.239746 -2.7182133
9.0625219 -38.48716 -2.07219
1.9751071 -8.4540873 -2.3262658
1.5453904 -6.6252007 -1.5706083
3.0686893 -13.16608 -2.6278214
3.8629432 -16.600008 -2.6994333
5.1708546 -22.255611 -2.8054326
7.1332917 -30.72636 -2.7596993
8.9858513 -38.767605 -2.085588
1.9494808 -8.4778748 -2.3309245
1.5248709 -6.6419511 -1.5733078
2.9779363 -12.981531 -2.5888965
3.7957132 -16.572956 -2.6928632
5.0612788 -22.134193 -2.7878833
7.010016 -30.681149 -2.7534242
8.9553003 -39.258286 -2.1102908
1.9642165 -8.6805878 -2.3847589
1.502106 -6.6491342 -1.5737575
2.9205015 -12.938225 -2.5782113
3.7352357 -16.574545 -2.6909862
5.0127406 -22.279547 -2.8039701
6.9448276 -30.892046 -2.7701581
8.8523235 -39.441311 -2.1184549
1.9767213 -8.8797312 -2.4375577
1.4755046 -6.6391187 -1.5701584
2.8812804 -12.975172 -2.583554
3.6632476 -16.523838 -2.6806614
4.756804 -21.474289 -2.7006249
6.8180251 -30.8305 -2.7624884
8.7843513 -39.787918 -2.135412
1.5130682 -6.904808 -1.8940378
1.451815 -6.6363597 -1.5683587
1.4794878 -6.7685156 -1.34673
3.6038005 -16.514664 -2.6772196
4.670342 -21.420124 -2.6918504
6.689476 -30.732239 -2.7516811
8.7583895 -40.30476 -2.1615798
1.4905697 -6.9116759 -1.8945554
1.4285694 -6.6354227 -1.5670091
1.4615757 -6.7944975 -1.3509278
3.5705824 -16.626953 -2.6934888
4.6404829 -21.645922 -2.718174
6.6142373 -30.878937 -2.7628369
8.6672831 -40.532795 -2.1722562
1.4648316 -6.9092779 -1.8924849
1.4029783 -6.6289296 -1.5643097
1.4350071 -6.7861123 -1.3482565
3.4709027 -16.442173 -2.6615763
4.6066504 -21.860113 -2.7430356
6.5064049 -30.901836 -2.7628369
8.6038036 -40.934166 -2.1921442
1.4418876 -6.920022 -1.8940378
1.3806232 -6.6376019 -1.5652094
1.417303 -6.8199124 -1.3539807
3.4114833 -16.444519 -2.660012
4.3588285 -21.047981 -2.6392026
6.4227219 -31.041424 -2.7732956
8.5351944 -41.323853 -2.2114036
1.4432948 -7.0499249 -1.9282019
1.3593967 -6.6519279 -1.567459
3.3619518 -16.495037 -2.6662693
4.4357204 -21.802261 -2.7318234
6.3230619 -31.106607 -2.7771306
8.4735088 -41.760525 -2.2331755
1.3330998 -6.6413474 -1.5638597
2.6153953 -13.04138 -2.5854619
3.2931058 -16.4505 -2.657196
4.3308077 -21.673563 -2.7137868
6.206635 -31.089413 -2.7736442
8.3753042 -42.028816 -2.2459455
1.7563068 -8.8944368 -2.4292758
1.3106633 -6.6497841 -1.5647595
2.5835114 -13.119776 -2.5992002
3.2303305 -16.434759 -2.6528158
4.2784362 -21.807375 -2.7286549
6.0896463 -31.067875 -2.7698095
8.2615252 -42.226368 -2.2549472
1.5675389 -8.0868931 -2.2072091
1.2863333 -6.6485786 -1.5634098
2.5239129 -13.057394 -2.5850804
3.1879108 -16.52352 -2.6653306
4.1730103 -21.670132 -2.7096431
5.9901919 -31.135899 -2.7739928
8.18715 -42.63546 -2.2752535
1.2638437 -6.656858 -1.5643097
2.4816127 -13.083485 -2.588515
3.1287434 -16.526785 -2.6640792
4.1227756 -21.819157 -2.7264612
5.9043875 -31.278004 -2.7848003
8.0900393 -42.938564 -2.2899077
1.5379766 -8.2419682 -2.2465494
1.2395295 -6.6554813 -1.5629599
2.4258718 -13.038023 -2.5778296
3.0555279 -16.45409 -2.6506257
3.9959385 -21.560154 -2.6923378
5.8060555 -31.357195 -2.7900295
7.9916487 -43.24543 -2.3047709
1.5992622 -8.7394648 -2.3806179
1.2152394 -6.6540165 -1.5616102
2.3852789 -13.073451 -2.5831723
2.9920561 -16.43162 -2.6453073
3.9298854 -21.624754 -2.6986749
5.7079477 -31.440001 -2.7956073
7.9560213 -43.909805 -2.3386848
1.4353734 -8.0015078 -2.1782212
1.1902878 -6.6486268 -1.5593606
2.3247666 -12.998596 -2.5667627
2.9367645 -16.45363 -2.6471844
3.821651 -21.454634 -2.6757636
5.6009626 -31.47543 -2.7970021
7.8494883 -44.200821 -2.3527107
1.5539314 -8.8398418 -2.4049468
1.1701037 -6.6700153 -1.5634098
2.2776842 -12.996964 -2.5648546
2.8517478 -16.306168 -2.6218419
3.7088547 -21.250776 -2.6487086
5.3473306 -30.670418 -2.7237911
7.7485623 -44.534908 -2.3690398
1.4981502 -8.7005215 -2.3656061
1.1448326 -6.6625361 -1.5607104
2.2047362 -12.844234 -2.5331805
2.7941437 -16.31213 -2.6212161
3.6500409 -21.353603 -2.6599205
5.3602939 -31.391998 -2.7861948
7.6527696 -44.912151 -2.3876712
1.4902526 -8.8390446 -2.4018409
1.1215698 -6.6664915 -1.5607104
2.1868942 -13.012547 -2.5648546
2.7273867 -16.263338 -2.6118302
3.5689247 -21.327057 -2.6550457
5.237546 -31.331911 -2.7792222
7.6030812 -45.580818 -2.4217942
1.4210173 -8.6116514 -2.3386889
1.0960761 -6.6569061 -1.557561
2.1459191 -13.047223 -2.5701973
2.674439 -16.296152 -2.6155846
3.4389613 -21.000477 -2.6128788
5.1410098 -31.428656 -2.7861948
7.4677401 -45.752949 -2.4295399
1.37771 -8.5345516 -2.3164306
1.0737619 -6.6664634 -1.5589108
2.1016097 -13.062387 -2.5717237
2.6306884 -16.387304 -2.6287251
5.0451207 -31.532969 -2.7938643
7.3268719 -45.897076 -2.4358203
1.3319119 -8.4284 -2.2864075
1.0516491 -6.6699877 -1.5589108
2.0585883 -13.071224 -2.5721054
2.5806239 -16.423258 -2.6331053
3.2670372 -20.83905 -2.5899675
4.9417582 -31.557404 -2.7945619
7.2085485 -46.138184 -2.4473341
1.3304964 -8.6143723 -2.3355832
1.0271735 -6.6659141 -1.5571113
2.0171294 -13.105495 -2.5774479
2.5244811 -16.439974 -2.6343565
3.205996 -20.926855 -2.5994735
4.8653283 -31.795042 -2.8140845
7.0727706 -46.328918 -2.4561267
1.3453797 -8.9169607 -2.4163346
1.0030293 -6.6636777 -1.5557615
1.9731212 -13.124105 -2.5797377
2.4541869 -16.362732 -2.6205904
3.1314614 -20.928102 -2.5982547
4.779635 -31.981295 -2.8290756
6.9180818 -46.400726 -2.4586387
1.2863734 -8.7323914 -2.3650885
0.97636163 -6.644002 -1.5503626
1.9176036 -13.06487 -2.5667627
2.4016337 -16.402472 -2.6255963
3.0431831 -20.834799 -2.5853364
4.5563788 -31.232832 -2.7614424
6.7658434 -46.491795 -2.4621975
1.1574799 -8.0522604 -2.179774
0.95593041 -6.6666594 -1.5548617
1.8689269 -13.050106 -2.5625648
2.3382199 -16.367735 -2.6187134
2.9962013 -21.026098 -2.6077604
4.4456429 -31.236712 -2.7603965
6.6029587 -46.511177 -2.4619884
7.7258019 -54.557308 -0.96180218
1.2334244 -8.7985535 -2.3806179
0.93076432 -6.6564455 -1.5517124
1.8217324 -13.044884 -2.5602751
2.2461851 -16.125366 -2.578666
2.9216974 -21.028564 -2.6067855
4.3108368 -31.066532 -2.7440114
6.4559026 -46.64473 -2.46785
1.0907758 -7.983583 -2.1590683
0.90989131 -6.6770325 -1.5557615
1.7671844 -12.985023 -2.5473001
2.1800539 -16.060682 -2.5670898
2.8349569 -20.940277 -2.5945985
4.226397 -31.259089 -2.7596993
6.281292 -46.579891 -2.4632444
6.6794333 -49.663208 -0.87467974
1.1803794 -8.8701439 -2.3976998
0.88529724 -6.6705084 -1.553512
1.7218471 -12.991113 -2.5473001
2.1232016 -16.062323 -2.5661514
2.7496524 -20.857546 -2.5831428
4.113615 -31.245996 -2.7572591
6.1077433 -46.518364 -2.4588482
6.4857769 -49.531563 -0.87195712
1.1427093 -8.8224802 -2.3837235
0.86100793 -6.6658278 -1.5517124
1.6644332 -12.903583 -2.5289826
2.0711524 -16.100981 -2.5711572
2.6581402 -20.721313 -2.5651062
4.0019884 -31.240402 -2.7555158
5.9417763 -46.511665 -2.4573827
6.3022318 -49.470589 -0.87049115
1.1177008 -8.8724174 -2.3961468
0.83773518 -6.6687922 -1.5517124
1.6206042 -12.919054 -2.5308907
2.0308754 -16.235519 -2.5914936
2.5440204 -20.395596 -2.5236704
3.8530197 -30.933891 -2.7272775
5.8089294 -46.769966 -2.4699435
6.095098 -49.214455 -0.86560446
1.0832019 -8.8475018 -2.3883822
0.81421536 -6.6697421 -1.5512625
1.5588688 -12.788214 -2.5041773
1.8881487 -15.534609 -2.478548
2.480933 -20.471355 -2.5319576
3.7828383 -31.259668 -2.7548187
5.5676441 -46.143539 -2.4358203
5.9280457 -49.275131 -0.86630255
1.0429606 -8.7725773 -2.3671591
0.79184598 -6.6802845 -1.5530621
1.5181426 -12.826721 -2.5106649
1.9218792 -16.286575 -2.5974381
2.4048173 -20.44046 -2.5270829
3.6750925 -31.284554 -2.7558644
5.4065328 -46.162693 -2.4358203
1.0160964 -8.8087893 -2.3759589
0.76807797 -6.6791353 -1.5521622
1.4892612 -12.970423 -2.5377598
1.8636683 -16.28141 -2.595561
2.3413315 -20.517761 -2.5356138
3.5288765 -30.972544 -2.7272775
5.251677 -46.236847 -2.4387512
6.2588506 -55.276321 -0.971017
0.97546661 -8.7239676 -2.3521476
0.74259984 -6.6624084 -1.5476632
1.439415 -12.934567 -2.5297458
1.8033413 -16.256403 -2.5905552
2.2747169 -20.57119 -2.5412197
3.3980017 -30.778715 -2.7091491
5.0504847 -45.893578 -2.4197009
6.0754604 -55.385288 -0.97255278
0.95561457 -8.8252716 -2.3785472
0.7197572 -6.6688352 -1.548563
1.3839514 -12.843867 -2.5110466
1.7379357 -16.182072 -2.5777273
2.2031043 -20.580976 -2.5414634
3.2952006 -30.833975 -2.7129841
4.9050617 -46.049946 -2.4270277
0.94392347 -9.0110798 -2.4277227
0.69708109 -6.6771216 -1.5499128
1.3523391 -12.975544 -2.5358517
1.6775609 -16.150707 -2.5717828
2.1265507 -20.543127 -2.5358574
3.1678913 -30.655031 -2.69625
4.7385631 -46.011162 -2.4240971
5.7441835 -55.967434 -0.98204696
0.89378464 -8.8298054 -2.3780296
6.8604994 -67.893875 1.1911267
0.67416114 -6.683392 -1.5508126
1.2899233 -12.810242 -2.5026507
1.6132851 -16.077845 -2.5592682
2.0366578 -20.368704 -2.5134335
3.0691762 -30.749168 -2.7035711
4.5621099 -45.868423 -2.4157233
5.5290689 -55.788147 -0.97855645
0.87798589 -8.9866877 -2.4194405
0.65026104 -6.6798859 -1.5494629
1.2358967 -12.718918 -2.4839516
1.5577236 -16.089277 -2.5602069
1.9590644 -20.308508 -2.5051465
2.9580028 -30.720032 -2.7000849
4.4095998 -45.963596 -2.4199102
0.83701187 -8.8877611 -2.3920057
0.62584752 -6.6704736 -1.5467634
1.205402 -12.871713 -2.5129547
1.4920118 -15.992341 -2.5439377
1.8956962 -20.396259 -2.5151396
2.8419206 -30.634941 -2.6917179
2.5424194 -27.510855 -1.4479266
0.80877215 -8.9214115 -2.4002879
0.60238391 -6.6706767 -1.5463136
1.1514776 -12.776119 -2.4934921
1.4386513 -16.024998 -2.5483177
1.8269632 -20.430435 -2.5185521
2.7243364 -30.525606 -2.6812592
4.0401487 -45.448162 -2.3912301
0.77662027 -8.9126329 -2.397182
0.57825261 -6.6630316 -1.544064
1.0921367 -12.609895 -2.4602914
1.3818556 -16.020081 -2.5467534
1.7508787 -20.38131 -2.5117273
2.6058552 -30.395971 -2.6690574
3.8566787 -45.171444 -2.375948
0.73922503 -8.840209 -2.3769941
0.55728889 -6.6785064 -1.5472133
1.0541266 -12.686021 -2.4744112
1.3313366 -16.056072 -2.5517592
1.6867117 -20.428549 -2.5168459
2.5007203 -30.416798 -2.6701033
3.6653824 -44.678383 -2.3493614
0.70264047 -8.7521067 -2.3526652
0.53257555 -6.6629281 -1.5431641
1.0134584 -12.707062 -2.4778459
1.2715291 -16.013359 -2.5442502
1.6111705 -20.380882 -2.5102651
2.3920026 -30.325611 -2.6613877
0.66779703 -8.6986465 -2.3376536
0.5107758 -6.6685438 -1.544064
0.97028983 -12.726181 -2.4808986
1.2125759 -15.940672 -2.5320485
2.2777495 -30.222517 -2.6516263
3.2931986 -43.798092 -2.3018403
0.64067626 -8.7452383 -2.3495593
0.48633 -6.6703711 -1.544064
0.92458057 -12.711867 -2.477464
1.1564238 -15.976532 -2.5370543
1.4507331 -20.140179 -2.4793103
2.1442499 -29.840782 -2.6174612
3.1280892 -43.746117 -2.2984908
0.61767322 -8.8553429 -2.3785472
0.46331352 -6.6759162 -1.5449638
0.88440347 -12.775734 -2.4892943
1.107165 -16.075068 -2.5520723
1.3735002 -20.044115 -2.4668794
2.0305624 -29.708942 -2.6052594
2.9699466 -43.677067 -2.2943039
0.55406839 -8.3639727 -2.2460318
0.43962282 -6.6716595 -1.5436141
0.83658493 -12.729767 -2.4797537
1.0446026 -15.980274 -2.5364287
1.291804 -19.868526 -2.4446993
1.7821966 -27.485073 -2.4096818
2.8061545 -43.511772 -2.2850928
0.53406358 -8.5123892 -2.2853725
0.41693825 -6.6828775 -1.5458636
0.80238599 -12.897204 -2.5118098
0.98393542 -15.904959 -2.5239139
1.2300004 -19.995758 -2.459811
2.6435578 -43.345871 -2.2758818
0.51394087 -8.6761923 -2.3288538
0.39246318 -6.6648388 -1.5413646
0.76127177 -12.966563 -2.5247848
0.92610854 -15.868855 -2.5176563
1.1570901 -19.946423 -2.4532301
1.6917373 -29.2512 -2.5634246
2.4887965 -43.295017 -2.2727416
0.48483551 -8.699151 -2.334548
0.36897966 -6.6622767 -1.5404649
0.70983791 -12.857407 -2.5030327
0.8725493 -15.905523 -2.5229752
1.0818383 -19.847267 -2.4405556
1.5801083 -29.081856 -2.5480852
2.332269 -43.203712 -2.2675078
0.4611184 -8.8281193 -2.3687119
0.34602523 -6.6693621 -1.5418144
0.66555917 -12.87157 -2.5053222
0.82229334 -16.011057 -2.5392444
1.0212479 -20.02142 -2.4615173
1.4138517 -27.813709 -2.4365258
2.179028 -43.163727 -2.2649958
2.941968 -58.683353 -1.0256082
0.43123874 -8.8489704 -2.3738885
0.32264835 -6.6685829 -1.5413646
0.62147701 -12.891463 -2.5087569
0.76592672 -16.003963 -2.5376801
0.94702226 -19.933649 -2.4503052
1.3804314 -29.163824 -2.5543604
2.0253441 -43.107224 -2.2616463
2.7417629 -58.793144 -1.0273533
0.39755473 -8.7886667 -2.3573241
0.29945585 -6.6716151 -1.5418144
0.56875807 -12.72096 -2.4751744
0.70646816 -15.92563 -2.5248528
0.87987846 -19.992363 -2.45713
1.2725171 -29.029131 -2.5421586
1.870525 -43.014263 -2.2564127
2.541769 -58.686039 -1.0253289
0.36719504 -8.79772 -2.3593946
0.27692628 -6.662837 -1.539565
0.52491421 -12.7366 -2.4778459
0.65543425 -15.971305 -2.5317357
0.81107396 -19.933683 -2.449574
1.1637933 -28.850245 -2.5261221
1.7318802 -43.12001 -2.2616463
2.3383241 -58.730518 -1.0259572
0.33942848 -8.8355675 -2.3692296
0.25381503 -6.6676579 -1.5404649
0.48126233 -12.700995 -2.4705951
0.59656888 -15.890589 -2.5185952
0.74303865 -19.978052 -2.4546924
1.0679641 -28.849964 -2.5257733
1.5812052 -43.121803 -2.2614369
2.134469 -58.770302 -1.0265157
0.30642685 -8.7749176 -2.3526652
0.23033682 -6.6626601 -1.5391152
0.43679079 -12.698672 -2.4698317
0.5426423 -15.937981 -2.5257909
0.67108852 -19.915054 -2.4466491
0.96511555 -28.789797 -2.5201955
1.4251088 -42.959381 -2.2526445
1.932201 -58.865326 -1.0280515
0.27779806 -8.839653 -2.3697472
0.20719926 -6.6673183 -1.5400149
0.38918808 -12.594154 -2.4492245
0.4886938 -15.995066 -2.5345516
0.59731477 -19.776398 -2.4293437
0.83842379 -27.920715 -2.4438469
1.2711186 -42.828342 -2.2455268
1.7270541 -58.883709 -1.0282609
0.24742441 -8.8579493 -2.3744061
0.18397906 -6.66995 -1.5404649
0.34640545 -12.638613 -2.4576201
0.42692611 -15.777485 -2.4998231
0.53135228 -19.893456 -2.4434805
0.7123118 -26.843977 -2.3493702
1.1186832 -42.720711 -2.2396653
1.522746 -58.937355 -1.0290986
0.21381332 -8.7486763 -2.3449006
0.16036674 -6.6569138 -1.5373155
0.29984665 -12.537684 -2.4377759
0.36975509 -15.690012 -2.485744
0.46126229 -19.867407 -2.4400682
0.65192515 -28.292391 -2.4759202
0.96801132 -42.656464 -2.2361062
1.3136034 -58.790375 -1.0264459
0.18598489 -8.8787737 -2.3795824
0.13704836 -6.6535363 -1.5364157
0.25475842 -12.473881 -2.4251826
0.31573918 -15.728732 -2.4916885
0.39042348 -19.793476 -2.4308062
0.55425537 -28.350271 -2.4808009
0.81826192 -42.615654 -2.2338035
1.1126055 -59.018524 -1.0303552
0.15232624 -8.7267761 -2.3386889
0.11395629 -6.661768 -1.5382153
0.20965093 -12.382434 -2.4072464
0.25935948 -15.640858 -2.4776094
0.32023293 -19.727232 -2.422519
0.44710067 -27.842047 -2.4361773
0.6697554 -42.634224 -2.2346408
0.90609962 -58.990059 -1.0297967
0.1137451 -8.1458244 -2.1828799
0.090753756 -6.6660223 -1.5391152
0.16922472 -12.591178 -2.4476981
0.20424354 -15.602165 -2.4713519
0.25240648 -19.809614 -2.4325123
0.35271436 -28.066566 -2.4557002
0.5212217 -42.660263 -2.2358968
0.70207024 -59.152824 -1.0325891
0.091135159 -8.7025146 -2.3319597
0.0675245 -6.6701956 -1.5400149
0.1251923 -12.583838 -2.4461715
0.14945966 -15.569203 -2.4660332
0.18301721 -19.784569 -2.4293437
0.25510582 -28.107473 -2.4591863
0.37188697 -42.613899 -2.2333848
0.49558946 -59.154919 -1.0325891
0.059530657 -8.5269852 -2.2848547
0.044150107 -6.6567502 -1.5368656
0.080531552 -12.470331 -2.4240377
0.095013261 -15.553827 -2.4635303
0.11359102 -19.721567 -2.4215441
0.15709803 -28.128117 -2.4609296
0.2216901 -42.339317 -2.21894
0.28876331 -59.088299 -1.0314023
0.030197935 -8.6507797 -2.3179834
0.020925503 -6.6607614 -1.5377654
0.036915243 -12.441088 -2.4183133
0.035947729 -13.730798 -2.1747522
0.044496424 -19.610678 -2.4078948
0.058588702 -27.973089 -2.4473333
0.073554151 -42.1441 -2.2086823
0.08217939 -58.856979 -1.0273533
-3.7222878e-07 -8.5156021 -2.2817488
-0.0023257728 -6.664691 -1.5386652
-0.0064845067 -12.384207 -2.4072464
-0.01354568 -15.524481 -2.4588373
-0.023858998 -19.529324 -2.3979013
-0.037033979 -26.526649 -2.3207831
-0.073601611 -42.172062 -2.2101476
-0.123801 -59.112869 -1.0318211
-0.029535782 -8.4614592 -2.2672548
-0.025575887 -6.6607451 -1.5377654
-0.049838383 -12.415521 -2.4133523
-0.067747049 -15.526315 -2.4591501
-0.091963977 -19.515228 -2.3961952
-0.13496858 -27.618174 -2.4163058
-0.21890703 -41.808052 -2.1910973
-0.32871479 -58.856117 -1.0273533
-0.060366571 -8.6467581 -2.3169482
-0.048854031 -6.6645122 -1.5386652
-0.093382955 -12.442757 -2.418695
-0.12127505 -15.441045 -2.4456968
-0.15975915 -19.475088 -2.3913205
-0.23013555 -27.470102 -2.4034069
-0.36679628 -42.030716 -2.2028205
-0.53452355 -58.894604 -1.0280515
-0.086513318 -8.5460739 -2.290031
-0.069770858 -6.6623774 -1.5382153
-0.13243131 -12.438476 -2.4179318
-0.17047964 -15.503796 -2.4557085
-0.22073931 -19.456621 -2.3891268
-0.31894627 -27.273947 -2.3863242
-0.49817601 -41.973438 -2.1998897
-0.72149378 -59.052601 -1.0308439
-0.11935508 -8.6558046 -2.3195364
-0.092917033 -6.6542993 -1.5364157
-0.17866614 -12.483056 -2.4267089
-0.22828764 -15.570222 -2.466346
-0.28850526 -19.44581 -2.3879082
-0.41227332 -27.149155 -2.3755169
-0.65368396 -42.07917 -2.2055421
-0.92637378 -58.969742 -1.0294477
-0.15083633 -8.728735 -2.3392065
-0.1174088 -6.659759 -1.5377654
-0.22111957 -12.419542 -2.4144971
-0.28138202 -15.500204 -2.4553957
-0.35904166 -19.404928 -2.3830333
-0.50384015 -26.976236 -2.3605261
-0.79737335 -41.908894 -2.1967497
-1.1299021 -58.846188 -1.0273533
-0.17765264 -8.5523949 -2.2921014
-0.13957457 -6.6632295 -1.5386652
-0.26321834 -12.359812 -2.4030488
-0.33138046 -15.434013 -2.445071
-0.42040142 -19.266689 -2.3662152
-0.59561461 -26.866749 -2.3511133
-0.93268704 -41.742283 -2.1881666
-0.2066641 -8.5787964 -2.2993486
-0.16292816 -6.6665983 -1.539565
-0.30502373 -12.392235 -2.4095361
-0.38993677 -15.620364 -2.4747934
-0.48674628 -19.229387 -2.3618281
-0.68501031 -26.876575 -2.352159
-1.075806 -41.638943 -2.1829331
-1.5485505 -59.136723 -1.0325891
-0.23559661 -8.5413313 -2.2895133
-0.18587165 -6.6543012 -1.5368656
-0.3476173 -12.367546 -2.4049568
-0.44024587 -15.470815 -2.4513285
-0.5526666 -19.185902 -2.3567097
-0.78170943 -26.973598 -2.3608747
-1.2212698 -41.638927 -2.1831422
-0.27057081 -8.7065153 -2.3340304
-0.20909777 -6.6536117 -1.5368656
-0.39332721 -12.44671 -2.420603
-0.48907229 -15.307284 -2.425673
-0.62059629 -19.213614 -2.3603656
-0.87315291 -26.743542 -2.3410032
-1.353632 -41.239166 -2.1624172
-1.9547347 -58.92461 -1.0290986
-0.30241305 -8.703536 -2.3335128
-0.23252614 -6.6586838 -1.5382153
-0.43679902 -12.384361 -2.4087729
-0.55424619 -15.560053 -2.4660332
-0.69582498 -19.439472 -2.3883955
-0.96146631 -26.600954 -2.3288014
-1.504627 -41.229935 -2.1622081
-2.1567388 -58.817505 -1.0273533
-0.33338201 -8.7178698 -2.3376536
-0.25708029 -6.6616817 -1.5391152
-0.47880942 -12.351373 -2.402667
-0.59450418 -15.198779 -2.409091
-0.76887023 -19.482412 -2.3940015
-1.0655187 -26.880133 -2.3535538
-1.645506 -41.148598 -2.1582303
-2.3723023 -58.809208 -1.0273533
-0.35672295 -8.5467978 -2.2921014
-0.28033173 -6.6607437 -1.5391152
-0.51520646 -12.190743 -2.3717558
-0.65436465 -15.356471 -2.4344335
-0.83039695 -19.328882 -2.3754773
-1.1607192 -26.908098 -2.3563426
-1.7636168 -40.555962 -2.1274569
-2.5719604 -58.672714 -1.0251194
-0.39336309 -8.6960316 -2.3324773
-0.30322635 -6.6519375 -1.5373155
-0.56331992 -12.310466 -2.3954163
-0.71551895 -15.517876 -2.4604015
-0.89749426 -19.317932 -2.3745024
-1.2442415 -26.680979 -2.3368199
-1.9042364 -40.52961 -2.12641
-2.7828031 -58.791214 -1.0273533
-0.42174104 -8.6540842 -2.3216069
-0.32644349 -6.6508384 -1.5373155
-0.60454983 -12.273129 -2.3885472
-0.76791888 -15.47977 -2.4547698
-0.96214825 -19.259169 -2.3676779
-1.3405577 -26.74015 -2.3423977
-2.0589931 -40.786015 -2.1402268
-2.9880075 -58.781139 -1.0273533
-0.45567557 -8.7239418 -2.3407595
-0.34965664 -6.6496582 -1.5373155
-0.64914608 -12.304274 -2.3950348
-0.81776059 -15.398091 -2.442255
-1.0241753 -19.158564 -2.3557348
-1.4197022 -26.470697 -2.3192141
-2.2024231 -40.798527 -2.1412735
-0.39076993 -7.0114002 -1.8816146
-0.37330362 -6.6561804 -1.5391152
-0.39291352 -6.9840317 -1.359705
-0.87295496 -15.420781 -2.4463224
-1.0882232 -19.105322 -2.3496411
-1.4965214 -26.193068 -2.2953336
-2.3349717 -40.61911 -2.1322718
-3.3983045 -58.758846 -1.0273533
-0.40724567 -6.875 -1.8453798
-0.39676696 -6.6587267 -1.5400149
-0.91753155 -15.26384 -2.4219186
-1.1592201 -19.172741 -2.3584158
-1.5768495 -26.004721 -2.2792969
-2.4645829 -40.411358 -2.1218047
-0.43136257 -6.8754649 -1.8458976
-0.41811198 -6.6457052 -1.5373155
-0.43608272 -6.8929486 -1.3425322
-0.97664833 -15.394769 -2.4431939
-1.2131891 -19.01823 -2.3398917
-1.6729705 -26.082569 -2.286618
-2.6008873 -40.438839 -2.1236887
-3.7981784 -58.734356 -1.0273533
-0.45428768 -6.8759241 -1.8464152
-0.44156578 -6.6480947 -1.5382153
-0.45672074 -6.8581629 -1.3360447
-1.0251027 -15.312428 -2.4306791
-1.2782331 -18.994074 -2.3374541
-1.7634649 -26.068617 -2.2859206
-2.7371602 -40.357777 -2.1199205
-0.479083 -6.8684316 -1.8448622
-0.4653132 -6.6542888 -1.5400149
-0.48116603 -6.8466506 -1.3341365
-1.0791315 -15.27901 -2.4259858
-1.2805959 -18.086555 -2.2263095
-1.8553033 -26.074228 -2.2869668
-2.8773687 -40.239895 -2.1142683
-4.1798201 -58.311481 -1.0204421
-0.63756973 -8.7028513 -2.3381712
-0.48969939 -6.6525383 -1.5400149
-0.50564051 -6.8527613 -1.3356631
-1.1162475 -15.056484 -2.3912575
-1.4016848 -18.861952 -2.3223424
-1.9308774 -25.86096 -2.2688382
-3.0103502 -40.13002 -2.1090345
-0.51205659 -6.6547637 -1.5409148
-0.93821937 -12.165502 -2.3717558
-1.1626617 -15.007401 -2.3840616
-1.4697561 -18.928446 -2.3311169
-2.0175555 -25.866331 -2.2698841
-3.1555753 -40.275127 -2.1171989
-0.70635796 -8.8370829 -2.3754413
-0.5342772 -6.6549716 -1.5413646
-0.97887182 -12.166238 -2.3725193
-1.2124205 -15.003464 -2.3840616
-1.5444942 -19.030045 -2.3442788
-2.1023521 -25.847586 -2.2688382
-3.2813113 -40.168892 -2.1121747
-0.7129426 -8.5438643 -2.2972779
-0.55701613 -6.6472402 -1.5400149
-1.0214972 -12.164703 -2.3729007
-1.2712587 -15.075907 -2.3962634
-1.6211272 -19.145199 -2.3591471
-2.1928988 -25.844061 -2.269187
-3.4099731 -40.02187 -2.105057
-5.0004482 -58.447552 -1.0239327
-0.74259585 -8.5393991 -2.2967603
-0.58021528 -6.6452556 -1.5400149
-1.0567688 -12.078919 -2.3568728
-1.3269857 -15.106799 -2.401895
-1.6875981 -19.135466 -2.3586593
-2.275382 -25.748922 -2.2615173
-3.535183 -39.846592 -2.0964739
-0.79398471 -8.7753305 -2.3609476
-0.60464221 -6.656775 -1.5431641
-1.1017716 -12.106441 -2.3629787
-1.3849243 -15.159122 -2.4109683
-1.7505765 -19.087946 -2.3535409
-2.3856678 -25.963032 -2.28104
-3.6738858 -39.830029 -2.0962646
-0.8040446 -8.5377131 -2.2977955
-0.62903732 -6.6545143 -1.5431641
-1.1435454 -12.074958 -2.3576362
-1.4333729 -15.079217 -2.3990791
-1.7952596 -18.816603 -2.3208799
-2.4717119 -25.858917 -2.2726731
-3.8282337 -39.903774 -2.1008701
-0.8270787 -8.4656372 -2.2791607
-0.65072012 -6.6485133 -1.5422645
-1.1866478 -12.080661 -2.359544
-1.4827878 -15.068483 -2.3981407
-1.856673 -18.800669 -2.3196611
-2.5698187 -25.929438 -2.2796457
-3.9561992 -39.847137 -2.0985675
-0.8574782 -8.4859133 -2.2853725
-0.67372811 -6.6442618 -1.5418144
-1.2344387 -12.152835 -2.3744273
-1.5233595 -14.945305 -2.3793685
-1.9113817 -18.687433 -2.3064992
-2.6338699 -25.662651 -2.2569852
-4.0691228 -39.578773 -2.0851693
-0.88354343 -8.434679 -2.2724314
-0.69915318 -6.6631894 -1.5467634
-1.2744508 -12.105274 -2.3660316
-1.5959728 -15.108562 -2.4062753
-1.981406 -18.726051 -2.3121052
-2.7139688 -25.564144 -2.249141
-4.203155 -39.460323 -2.0797265
-0.92961818 -8.5851936 -2.3138423
-0.72357041 -6.6605821 -1.5467634
-1.3171234 -12.104655 -2.3667948
-1.6351953 -14.979186 -2.3865645
-2.0582397 -18.793648 -2.3213673
-2.7608213 -25.168314 -2.2151504
-4.357481 -39.596291 -2.0876815
-0.97009963 -8.675971 -2.3392065
-0.74522018 -6.6542721 -1.5458636
-1.3650675 -12.150709 -2.3767169
-1.6800004 -14.930495 -2.3796813
-2.1214397 -18.794611 -2.3223424
-2.8589737 -25.249592 -2.2231686
-4.4784117 -39.490334 -2.0828664
-0.96217304 -8.354125 -2.2532787
-11.357836 -98.464005 1.7300919
-0.76754826 -6.643887 -1.544064
-1.4053537 -12.146115 -2.3767169
-1.7323335 -14.926503 -2.3799942
-2.1934597 -18.8423 -2.3291671
-2.9461675 -25.231544 -2.2224715
-4.5981331 -39.319729 -2.0747023
-0.97431159 -8.1951561 -2.21135
-0.79073602 -6.6411672 -1.544064
-1.4479985 -12.125289 -2.3736639
-1.785621 -14.908285 -2.3781171
-2.2343924 -18.627579 -2.3035746
-3.0128064 -25.043074 -2.2067833
-4.7225986 -39.140015 -2.066119
-1.0477523 -8.5579548 -2.310219
-12.043643 -98.229362 1.7274392
-0.81625861 -6.6478958 -1.5463136
-1.4812104 -12.046114 -2.3591626
-1.8265308 -14.811776 -2.3637249
-2.2969708 -18.599964 -2.301137
-3.0923693 -24.969131 -2.2012053
-4.83605 -38.936977 -2.0562799
-1.0578007 -8.4087591 -2.2708783
-0.83854276 -6.6470861 -1.5467634
-1.5250859 -12.072301 -2.3652685
-1.8870592 -14.895784 -2.3781171
-2.3496428 -18.521349 -2.2923627
-3.2018061 -25.168245 -2.2196825
-4.9595847 -38.87714 -2.0539773
-1.120079 -8.6715212 -2.3428299
-0.8615821 -6.651999 -1.548563
-1.5454148 -11.915316 -2.3355021
-1.9333849 -14.865939 -2.3743625
-2.4268589 -18.609488 -2.3043058
-3.2968714 -25.212233 -2.2245631
-4.9811249 -38.040619 -2.010643
