# .PCD v0.7 - Point Cloud Data file format
VERSION 0.7
FIELDS x y z
SIZE 4 4 4
TYPE F F F
COUNT 1 1 1
WIDTH 1560
HEIGHT 1
VIEWPOINT 0 0 0 1 0 0 0
POINTS 1560
DATA ascii
17.928577 32.026909 -1.923556
3.8885937 6.9180694 -2.1264575
4.4763198 7.9571791 -2.1077914
5.2755837 9.3741236 -2.0908849
10.176395 18.074938 1.8147568
6.4863815 11.516183 -2.0934062
8.2467327 14.629621 -2.0620294
8.5829945 15.219952 -1.5287117
18.148256 32.155457 -1.9350699
10.753875 19.030653 5.8570752
3.9098597 6.8994117 -2.1249044
4.5011859 7.9364181 -2.1064417
5.3053689 9.3505268 -2.0897403
6.5119123 11.467703 -2.0887132
8.356596 14.704299 -2.0766537
8.6616764 15.234928 -1.5332438
18.290012 32.143986 -1.9382099
3.9320011 6.8823676 -2.1238692
4.5278931 7.9189668 -2.1059918
5.3408942 9.3370667 -2.0908849
10.15192 17.740604 1.7882615
6.5617204 11.462044 -2.0918419
8.4039297 14.668148 -2.0756788
8.7504749 15.266827 -1.5395191
10.08707 17.591667 3.9417324
18.367331 32.019306 -1.9345465
10.954782 19.074055 5.8938274
3.9588957 6.8736224 -2.1254222
4.5496702 7.8929815 -2.1032922
5.3754187 9.3217678 -2.0916483
6.603662 11.442492 -2.0924675
8.4620199 14.650764 -2.0773852
8.8395948 15.298295 -1.5457941
10.087503 17.450964 3.918072
18.424004 31.859898 -1.9287894
11.01797 19.037624 5.8938274
3.9760733 6.8480668 -2.1217985
4.5758181 7.877852 -2.1032922
31.535618 54.270706 3.2895246
5.4168024 9.318223 -2.0950828
31.497631 54.161861 5.4815731
6.6306448 11.401749 -2.0890262
8.5075655 14.617472 -2.0766537
8.9551191 15.374084 -1.5566015
18.455122 31.670942 -1.9210438
4.0036368 6.8431821 -2.1243868
31.743614 54.235729 1.0969186
4.6052604 7.8651934 -2.104192
5.4367557 9.2815762 -2.0908849
6.6853924 11.404095 -2.0937192
8.5575371 14.58597 -2.0764101
9.0363045 15.395853 -1.5618308
18.539267 31.561546 -1.9183224
31.889225 54.245369 -1.0983497
4.0216131 6.81918 -2.1212809
4.6307044 7.845715 -2.1032922
5.4661293 9.2574682 -2.0897403
6.7251568 11.38069 -2.0937192
8.6073933 14.5543 -2.0761664
9.146801 15.460246 -1.5715923
18.655439 31.506948 -1.9189503
4.0394673 6.7951374 -2.118175
4.6520867 7.8194532 -2.1005929
5.501421 9.2433939 -2.0908849
6.7506919 11.333384 -2.089339
8.6591578 14.525872 -2.0764101
9.0027409 15.096247 -1.5377759
18.6742 31.289005 -1.9096346
9.9950628 16.740292 4.5012703
4.0691218 6.7909374 -2.1212809
4.6733379 7.7931395 -2.0978935
5.5346656 9.2258167 -2.0912669
6.7932601 11.314833 -2.0902774
8.7016287 14.481949 -2.0744603
9.3509979 15.55653 -1.5879776
18.755501 31.177425 -1.9068084
9.9851036 16.591764 4.4706774
4.0928035 6.776691 -2.1212809
4.6984987 7.7734432 -2.0969937
5.5709014 9.2131596 -2.0927932
6.8337407 11.292738 -2.0905905
8.7572641 14.459975 -2.0756788
9.4981642 15.677155 -1.6036657
18.852819 31.092981 -1.9056571
4.1164322 6.7623639 -2.1212809
4.7205338 7.7486744 -2.0947442
5.5989389 9.1869526 -2.0912669
6.8813443 11.282309 -2.0930934
8.8087244 14.431011 -2.0759225
9.6296644 15.769739 -1.6165646
18.958124 31.021868 -1.9053431
9.9441557 16.265604 4.401392
4.1299119 6.7314868 -2.1161046
4.7506104 7.7371325 -2.0960939
5.6391964 9.1807346 -2.0943196
6.9030967 11.229612 -2.0877745
8.8632097 14.406937 -2.0768976
9.7974319 15.919283 -1.6353903
19.057922 30.941891 -1.9045057
4.1564269 6.721961 -2.1176574
4.7755399 7.7171869 -2.0951941
5.6577682 9.1392965 -2.0893586
6.9339337 11.192013 -2.0852716
8.9113493 14.372537 -2.0764101
9.9621639 16.061069 -1.6535187
19.153166 30.854818 -1.9032495
4.1778245 6.7041316 -2.1166222
4.7890415 7.6789756 -2.0893452
5.6927552 9.1244869 -2.0905035
6.9896951 11.194551 -2.0902774
8.9614687 14.34134 -2.0764101
10.144897 16.228937 -1.6744362
19.190849 30.676016 -1.8963412
4.2001753 6.6878705 -2.1161046
4.8175879 7.668004 -2.0906951
5.730844 9.1145306 -2.0927932
7.0120525 11.147902 -2.0858974
9.0121469 14.316587 -2.0771413
11.819963 18.76252 -1.9400867
19.228571 30.510828 -1.8900609
4.2223315 6.6739044 -2.1161046
4.8411994 7.6462002 -2.0893452
34.514103 54.490536 3.3803797
5.767343 9.1054268 -2.0950828
7.0678477 11.15005 -2.0909033
9.0609989 14.283367 -2.0768976
13.179217 20.767134 -2.1518753
19.352081 30.470501 -1.8917356
4.238328 6.6477256 -2.1124811
4.8720517 7.6358271 -2.091145
5.7969732 9.081934 -2.0943196
7.1056647 11.123645 -2.0905905
9.1182909 14.263358 -2.0786037
13.173271 20.598471 -2.1391504
19.473408 30.426315 -1.8932011
4.2604647 6.6312642 -2.1119635
4.8955164 7.6138554 -2.0897954
5.821208 9.0500832 -2.0916483
7.1230636 11.065556 -2.0843329
9.1680212 14.231444 -2.0786037
13.180332 20.451881 -2.1286919
19.497236 30.230589 -1.885246
9.841464 15.247581 4.8626924
4.2804341 6.6114874 -2.1104105
4.9164991 7.5910373 -2.0879958
5.8570323 9.0362997 -2.0931747
7.1801372 11.073366 -2.0902774
9.2097578 14.192638 -2.0773852
13.203901 20.33222 -2.121022
19.56036 30.108833 -1.8816872
33.825668 52.027294 -1.0832011
9.8661871 15.169415 4.8487163
4.3065586 6.6037288 -2.1124811
4.9397731 7.5689316 -2.0866458
5.8848209 9.0135384 -2.0924115
7.2176685 11.04658 -2.0899646
9.2614193 14.163724 -2.0778725
13.251617 20.258314 -2.1178844
19.647844 30.013626 -1.8800124
33.998001 51.914845 -1.0832011
9.8486862 15.03319 4.8155875
4.3285217 6.5870423 -2.1119635
4.9659185 7.5541363 -2.087096
5.9108515 8.9847403 -2.0905035
7.2542644 11.022583 -2.0899646
9.3083344 14.132936 -2.0778725
13.282773 20.15205 -2.1116092
19.756058 29.961655 -1.8808498
9.8478832 14.918109 4.7897053
4.3451691 6.5598578 -2.1083403
4.986268 7.5220218 -2.0834966
5.9480848 8.9695597 -2.09203
7.3052697 11.007815 -2.0924675
9.3581429 14.090473 -2.0768976
13.321268 20.050123 -2.1060314
19.879808 29.898876 -1.8816872
9.8810959 14.849746 4.7793527
4.3680396 6.5446515 -2.1083403
5.0285006 7.5313759 -2.0906951
5.9749932 8.9422131 -2.0905035
7.3197756 10.950686 -2.0862103
9.4070225 14.062666 -2.0773852
13.349053 19.94059 -2.0994074
19.943291 29.779678 -1.8783377
10.1007 15.065476 4.8601046
4.3886423 6.5285254 -2.1078224
5.0177779 7.4588013 -2.0753984
6.0122895 8.9337511 -2.0931747
7.3656836 10.936536 -2.0884004
9.4660339 14.044559 -2.0795786
13.390605 19.859867 -2.0955727
20.044867 29.706579 -1.8781283
4.4114022 6.5131669 -2.1078224
5.0503421 7.4509201 -2.0780978
6.0357227 8.9013367 -2.0905035
7.4015989 10.907487 -2.0877745
9.5049686 13.99665 -2.0773852
13.462092 19.816296 -2.0959213
20.157431 29.649641 -1.8789656
35.132786 51.638168 -1.0901821
4.4330239 6.4961324 -2.1073048
5.0851102 7.4461207 -2.0816972
6.0645447 8.8769693 -2.0897403
7.4429646 10.886481 -2.0887132
9.5515299 13.960107 -2.0768976
13.519916 19.75275 -2.0941782
20.247269 29.559319 -1.8777096
4.4458175 6.4662948 -2.1026461
37.366634 54.328167 1.1509514
5.1121783 7.4299293 -2.0821469
6.0899224 8.8476648 -2.0878322
7.4831648 10.863686 -2.089339
9.6024523 13.929952 -2.0773852
13.582003 19.695593 -2.0931323
20.357128 29.498329 -1.8783377
4.4738641 6.4586759 -2.1052344
5.1414104 7.4168439 -2.0834966
6.1263657 8.8344173 -2.0897403
7.5030179 10.811534 -2.0843329
9.651022 13.896345 -2.0773852
13.643846 19.638248 -2.0920866
20.537506 29.538591 -1.8854553
4.4997005 6.4477711 -2.1067872
5.1592827 7.3901677 -2.0807972
6.1571689 8.8129768 -2.0897403
7.5422225 10.791452 -2.0852716
9.7038746 13.874026 -2.0788474
13.703176 19.57744 -2.0906918
20.596394 29.414705 -1.8818964
4.5166154 6.4264898 -2.1047165
5.1794453 7.3641434 -2.0785477
6.1999192 8.8117771 -2.0943196
7.5923576 10.782825 -2.0887132
9.7442379 13.828712 -2.0771413
13.758835 19.518866 -2.0892975
20.613743 29.221865 -1.8741508
4.5401325 6.4122653 -2.1052344
5.2039948 7.3444266 -2.0780978
6.2215514 8.7772722 -2.0912669
7.6185246 10.740143 -2.0855846
9.8004961 13.805943 -2.0788474
13.792283 19.421982 -2.0840681
20.653152 29.061811 -1.8684986
4.5546374 6.3853679 -2.1016109
5.2341266 7.332562 -2.0798974
6.2384639 8.7363281 -2.0866873
7.6594119 10.718307 -2.0865231
9.8440132 13.765187 -2.0778725
13.839124 19.344557 -2.0809305
20.834702 29.101589 -1.8757207
4.5746422 6.366293 -2.1005754
5.258554 7.3126636 -2.0794475
6.2735047 8.7208738 -2.0882137
7.6967821 10.691503 -2.0865231
9.8885193 13.725911 -2.0771413
13.89492 19.279964 -2.0791874
20.899933 28.978472 -1.872476
4.6013699 6.3565445 -2.1026461
5.2817607 7.2911086 -2.0785477
6.3050623 8.70051 -2.0885954
7.7317338 10.661374 -2.0858974
9.952692 13.713803 -2.0805535
13.95745 19.224897 -2.0784903
20.921125 28.795471 -1.8653584
4.6223941 6.338882 -2.1021285
39.573853 54.249447 1.1721036
5.3094783 7.2757735 -2.0794475
39.559883 54.190502 3.5162439
6.3562331 8.7069883 -2.0954645
7.7758961 10.643888 -2.0877745
10.014556 13.698212 -2.0834785
14.010363 19.156759 -2.0763984
20.950731 28.62557 -1.859078
4.6467781 6.3258224 -2.1031637
5.3313789 7.2524867 -2.0780978
6.3691392 8.661025 -2.0897403
7.8141708 10.618274 -2.0880876
10.068201 13.67116 -2.0846972
14.053508 19.075655 -2.072912
21.057644 28.561903 -1.859706
4.6596398 6.2971392 -2.0990226
5.3555012 7.2322674 -2.0776479
6.3934922 8.6308508 -2.0878322
7.8547158 10.595695 -2.0890262
10.121778 13.643901 -2.0859158
14.110506 19.013687 -2.0715177
21.214382 28.565182 -1.8647302
4.6792793 6.2777405 -2.0979872
40.467312 54.271294 1.1816674
5.3900371 7.2260246 -2.0812473
6.4294448 8.6163521 -2.0897403
7.8881097 10.563462 -2.0880876
10.183599 13.62757 -2.0888407
14.164865 18.948355 -2.0697746
21.402491 28.609306 -1.872476
4.7011657 6.2613673 -2.0979872
5.4092903 7.2018757 -2.0794475
6.4759994 8.6158266 -2.0950828
7.9230995 10.537244 -2.0880876
10.222763 13.585796 -2.0876222
14.221329 18.886065 -2.0683799
21.451576 28.47756 -1.8684986
4.7207398 6.2442012 -2.0974696
5.42381 7.1689677 -2.0753984
6.5045376 8.5943022 -2.0950828
7.961019 10.511104 -2.0884004
10.262933 13.540534 -2.0861595
14.276653 18.829279 -2.0673342
21.558102 28.412046 -1.8691264
34.999725 46.110489 -1.0104594
4.741333 6.226151 -2.096952
5.4593639 7.1664419 -2.0798974
6.5154552 8.5465622 -2.0889771
7.9982295 10.487785 -2.0890262
10.315009 13.515891 -2.0876222
14.332623 18.766659 -2.0659397
21.625534 28.305481 -1.8668238
35.143478 45.965782 -1.0099708
4.7560778 6.2027273 -2.0943637
5.4914665 7.1566167 -2.0825968
6.5437555 8.5249138 -2.0889771
8.0311823 10.4551 -2.0880876
10.357278 13.473517 -2.0866473
14.37535 18.693752 -2.0631506
21.74124 28.251995 -1.8682891
35.295723 45.848984 -1.0099708
4.7765212 6.1845574 -2.0938461
5.508018 7.1291146 -2.0798974
6.5842838 8.5159969 -2.0924115
8.0585556 10.419036 -2.0862103
10.406763 13.445372 -2.0876222
14.425872 18.624559 -2.061059
21.829922 28.173424 -1.8678705
4.7993751 6.1717358 -2.0948815
5.5256877 7.1006188 -2.077198
6.6064548 8.4863701 -2.0905035
8.0948734 10.390844 -2.0862103
10.449975 13.404264 -2.0868907
14.472847 18.55777 -2.0589671
21.933054 28.103342 -1.8682891
34.930149 44.740768 -0.99077314
4.8196988 6.1534224 -2.0943637
5.5540137 7.0883908 -2.0789976
6.634829 8.4617119 -2.0901217
8.1353855 10.371714 -2.0877745
10.49314 13.367978 -2.0866473
14.527696 18.4946 -2.0575728
21.952082 27.936235 -1.8620089
35.061401 44.58712 -0.99007505
4.8456836 6.1379051 -2.0953991
5.6017499 7.0905051 -2.0861959
6.658751 8.4253893 -2.0874505
8.1671486 10.32658 -2.0852716
10.550409 13.33042 -2.0873783
14.576335 18.410564 -2.054435
22.049156 27.829109 -1.8607527
35.277382 44.493015 -0.99112213
4.8586645 6.1103668 -2.0917757
5.630106 7.0754848 -2.0875459
6.6930099 8.4082403 -2.0889771
8.2068357 10.302645 -2.0862103
10.591932 13.2873 -2.0864034
14.628096 18.343992 -2.0526922
22.230885 27.858124 -1.8678705
35.544777 44.510242 -0.99426359
4.8739247 6.0858312 -2.0891874
5.6389279 7.0360184 -2.0816972
6.7235456 8.3863592 -2.0893586
8.2365704 10.266229 -2.0846457
10.630969 13.245908 -2.0854285
14.669577 18.26486 -2.0495543
22.305466 27.752338 -1.8659865
35.629524 44.314213 -0.99251837
4.8965063 6.0726414 -2.0902226
5.6585598 7.0127292 -2.0803473
6.7525539 8.3655434 -2.0897403
8.2767782 10.24654 -2.0862103
10.669842 13.204406 -2.0844533
14.72506 18.209913 -2.0488572
22.432547 27.721697 -1.8689172
4.9141803 6.0533724 -2.0891874
5.6768675 6.9878774 -2.0785477
6.7827368 8.3461504 -2.0905035
8.3019848 10.208311 -2.0840201
10.708349 13.157845 -2.0829911
14.765236 18.136265 -2.0460682
22.524359 27.647148 -1.8689172
4.9609585 6.0675902 -2.1000578
5.7135634 6.9831014 -2.0830467
6.7981448 8.3057165 -2.0863059
8.3463326 10.189964 -2.0862103
10.7517 13.117314 -2.0825036
14.793086 18.041471 -2.0411875
22.600462 27.54364 -1.8672425
4.9440408 6.004004 -2.0840108
5.7391453 6.9646168 -2.0834966
6.8347845 8.2883186 -2.0882137
8.3931627 10.174484 -2.0890262
10.807522 13.091956 -2.0844533
14.833729 17.956411 -2.0377011
22.708895 27.469864 -1.8678705
9.7432232 11.785911 3.5303819
35.643265 43.100636 -0.97625273
4.9573779 5.9754362 -2.0803876
5.7795696 6.9615293 -2.0888956
6.8739052 8.273778 -2.0908849
8.4139824 10.123906 -2.0849588
10.855444 13.052249 -2.0844533
14.879046 17.877424 -2.0349123
22.786411 27.358829 -1.8659865
9.7663975 11.726165 3.5231833
35.83683 43.012733 -0.97723007
4.9891558 5.9690862 -2.0845287
5.7825427 6.9133916 -2.0807972
6.8964391 8.2422094 -2.0889771
8.4637146 10.108142 -2.0880876
10.900658 13.009335 -2.0839658
14.931125 17.813158 -2.0335178
22.874077 27.269934 -1.8653584
9.761713 11.633559 3.5060871
37.840439 45.080505 -1.0273533
9.8575439 11.739444 4.1074586
5.0124507 5.9545889 -2.0855639
5.8028722 6.8886948 -2.0794475
6.9239049 8.2165823 -2.0885954
8.4925785 10.070989 -2.0865231
10.948566 12.974235 -2.0844533
14.962364 17.724396 -2.0293343
22.966555 27.186861 -1.8651489
9.8085489 11.606858 3.5083365
37.659321 44.548046 -1.0182083
9.8448257 11.64153 4.0851998
5.0382013 5.9429512 -2.0876343
5.8369699 6.8802834 -2.0830467
6.9487352 8.187871 -2.0874505
8.5276833 10.041281 -2.0865231
10.978358 12.917789 -2.0815284
15.006081 17.650803 -2.0268939
23.074251 27.121746 -1.8661957
9.8502712 11.574031 3.5087864
37.436188 43.987373 -1.0082256
9.8896351 11.616177 4.0877881
5.0463734 5.9106345 -2.0824583
37.441605 43.853996 1.0065151
5.8597522 6.8608909 -2.0830467
6.9708939 8.156105 -2.0855424
8.5673513 10.020454 -2.0880876
11.028876 12.890366 -2.0829911
15.065015 17.595284 -2.0265453
23.153666 27.032951 -1.8653584
9.9126863 11.569422 3.5173347
37.441158 43.683334 -1.0042464
9.9250917 11.57572 4.0857177
5.0583925 5.885076 -2.0793524
37.398907 43.495586 1.0012795
5.8811231 6.8374419 -2.0821469
46.493732 54.034863 3.7358456
7.0017471 8.1374073 -2.0866873
8.589386 9.9755211 -2.0849588
11.080288 12.859305 -2.0842097
15.100318 17.512417 -2.0230591
23.211369 26.909611 -1.8624276
9.9835625 11.570162 3.5281324
9.9805918 11.558548 4.091929
5.0837202 5.8708787 -2.0809052
5.8934727 6.8036122 -2.0780978
7.0340943 8.1146574 -2.0874505
8.6271868 9.9454622 -2.0852716
11.125105 12.820552 -2.0842097
15.148289 17.444559 -2.0213161
23.288874 26.800241 -1.8607527
10.054031 11.565845 3.5380301
10.072849 11.583409 4.1131525
5.1105328 5.8603764 -2.0834932
37.709198 43.226852 1.0012795
5.9196501 6.7834358 -2.0785477
7.0649614 8.0930109 -2.0882137
8.6657467 9.9197512 -2.0862103
11.145891 12.749797 -2.0793347
15.195969 17.376577 -2.0195727
23.392815 26.730803 -1.8615903
10.120013 11.560007 3.5470283
10.132316 11.569975 4.1209168
5.1373281 5.8497629 -2.0860815
5.9511166 6.7740145 -2.0816972
47.320709 53.845089 3.7567801
7.0840921 8.0579805 -2.0855424
8.6920748 9.8835411 -2.0846457
11.211716 12.739593 -2.0837224
15.248635 17.314455 -2.018527
23.470758 26.641098 -1.8607527
10.1982 11.563512 4.1312699
5.1490226 5.8240099 -2.0829759
5.9850578 6.7648745 -2.0852964
7.1211824 8.0462074 -2.0885954
8.7317638 9.8590527 -2.0858974
11.249531 12.692952 -2.0825036
15.276895 17.230991 -2.0146921
23.590115 26.588892 -1.8628463
5.1577606 5.7930136 -2.0783172
5.9930739 6.7264853 -2.0798974
7.1413903 8.0125055 -2.0863059
8.7542849 9.8152514 -2.0830817
11.309634 12.671375 -2.0854285
15.339591 17.180542 -2.0150406
23.6269 26.443825 -1.8584501
5.1818209 5.7792878 -2.07987
6.0061078 6.6939197 -2.0762982
7.1811199 8.0006752 -2.0897403
8.7832155 9.7787523 -2.08183
11.340524 12.617059 -2.0829911
15.386151 17.112072 -2.0132976
23.662951 26.298841 -1.8540539
5.212316 5.7726388 -2.0840108
6.0294394 6.6729116 -2.0762982
7.203732 7.969739 -2.0882137
8.7947712 9.7231274 -2.0765114
11.371178 12.562675 -2.0805535
15.411026 17.019857 -2.0087655
23.773388 26.236794 -1.8555192
5.2350359 5.757267 -2.0850463
6.067121 6.6676807 -2.0812473
7.2249031 7.937284 -2.0863059
8.8659029 9.7332602 -2.0852716
11.417639 12.525837 -2.0810411
15.459599 16.954184 -2.0073709
23.859446 26.147739 -1.8551005
5.2511854 5.7346849 -2.0834932
6.0877271 6.6435871 -2.0803473
7.2565432 7.9163585 -2.0874505
8.9038315 9.7066174 -2.0862103
11.453229 12.477139 -2.0795786
15.50791 16.888372 -2.0059764
23.966772 26.081961 -1.8563565
5.2580771 5.702117 -2.0783172
6.1055932 6.6165695 -2.0785477
7.2894611 7.896749 -2.0889771
8.9336376 9.6711273 -2.0852716
11.496716 12.43708 -2.0795786
15.537004 16.801958 -2.0021417
24.046825 25.98641 -1.8555192
5.2740068 5.6794791 -2.0767641
6.1180377 6.583797 -2.0749483
7.3303504 7.885633 -2.0927932
8.9646482 9.6369934 -2.0846457
11.537352 12.393971 -2.0790913
15.587408 16.738874 -2.0010958
24.093813 25.85556 -1.8521698
5.3033643 5.6732497 -2.0809052
6.1518207 6.5762792 -2.0789976
7.3457265 7.8498154 -2.0897403
8.9952078 9.6057673 -2.0843329
11.559388 12.335361 -2.0756788
15.64011 16.684183 -2.0007472
24.190357 25.787165 -1.8530071
5.3284307 5.6603308 -2.0829759
6.1800814 6.5604405 -2.0807972
7.3596163 7.8098397 -2.0859239
9.0286865 9.5743074 -2.0843329
11.59148 12.283383 -2.0737288
15.670903 16.600506 -1.9972609
24.244572 25.664814 -1.8502855
5.3468289 5.6402931 -2.0824583
6.1948991 6.5303435 -2.0780978
7.3814297 7.7784038 -2.0843976
9.077013 9.5584917 -2.0877745
11.626074 12.234221 -2.0722666
15.698553 16.513939 -1.9934262
24.306475 25.551092 -1.8481922
48.0214 50.445072 -1.2156998
5.35848 5.6132116 -2.0793524
6.2136202 6.5044508 -2.0767481
7.4248114 7.7696242 -2.0889771
9.0857515 9.5010481 -2.0821428
11.664594 12.189258 -2.0715353
15.745084 16.447521 -1.9920316
24.412088 25.4834 -1.8494482
48.473946 50.565861 -1.2226808
5.3740263 5.5902939 -2.0777996
6.2281761 6.4742994 -2.0740488
7.4464436 7.737999 -2.0874505
9.1270752 9.4778194 -2.0840201
11.697433 12.138458 -2.0698292
15.791327 16.380997 -1.9906371
24.475941 25.372152 -1.8475641
48.71962 50.468269 -1.2244259
5.4042583 5.5826035 -2.0819407
6.2588754 6.460916 -2.0767481
7.4706793 7.7091379 -2.0866873
9.1656075 9.4515724 -2.0852716
11.710698 12.067638 -2.0647106
15.828985 16.305756 -1.9881967
24.556002 25.277969 -1.846936
5.4237084 5.5637093 -2.0819407
6.2841096 6.4418201 -2.0776479
7.4975386 7.6830187 -2.0866873
9.1888857 9.409626 -2.0830817
11.740269 12.013907 -2.0625172
15.880241 16.244701 -1.9874995
24.644096 25.192095 -1.846936
5.4485102 5.5502553 -2.0840108
6.2999744 6.4153852 -2.0758483
7.5545864 7.6876044 -2.0950828
9.218646 9.3776999 -2.0827687
11.780042 11.974912 -2.0625172
15.90889 16.160774 -1.9840133
24.693861 25.076082 -1.8444239
49.49778 50.228844 -1.2309183
5.4587402 5.523911 -2.0809052
6.3237014 6.3947392 -2.0762982
7.5565677 7.6387806 -2.0885954
9.258275 9.3524799 -2.0843329
11.813383 11.925258 -2.0610545
15.953976 16.099442 -1.9829674
24.845932 25.054976 -1.849239
49.895023 50.29726 -1.2366426
5.4725347 5.4993491 -2.0788348
6.3462496 6.3751135 -2.0767481
7.5887232 7.6179256 -2.0901217
9.2697201 9.3021355 -2.079953
11.841654 11.874769 -2.0591044
16.004452 16.03801 -1.9822702
24.97686 25.020494 -1.8527976
5.5003133 5.4907236 -2.0824583
6.3657064 6.3501678 -2.0758483
7.6264567 7.6051931 -2.0935564
9.2993383 9.2669296 -2.0793271
11.877402 11.827762 -2.0581295
16.046255 15.973598 -1.9808756
25.030058 24.899357 -1.8502855
50.525749 50.226845 -1.2435538
5.5235624 5.4755688 -2.0840108
6.3850608 6.3251696 -2.0749483
7.63901 7.5647087 -2.0897403
9.3625164 9.2649832 -2.0862103
11.904505 11.772268 -2.0556922
16.090578 15.906287 -1.9794812
25.062834 24.75849 -1.846308
5.5426412 5.4562559 -2.0840108
6.4057126 6.3014746 -2.0744987
7.6611676 7.5338702 -2.0885954
9.3962088 9.2336311 -2.0865231
11.937025 11.7223 -2.0542297
16.109034 15.813739 -1.9749491
25.060701 24.584143 -1.8398185
51.160793 50.152832 -1.2505348
5.5561295 5.4314728 -2.0819407
6.4360328 6.2872486 -2.077198
7.6916351 7.5111947 -2.0897403
9.4001055 9.1731863 -2.0802658
11.972192 11.675014 -2.0532548
19.079979 18.599895 4.2202892
16.147013 15.740726 -1.9728574
25.054808 24.407312 -1.8331194
5.5764403 5.4133916 -2.0824583
6.457942 6.2647424 -2.077198
7.7361274 7.5020695 -2.0947013
9.4420004 9.1499376 -2.0824559
11.992904 11.613821 -2.0498426
19.079508 18.469973 4.2058978
16.193274 15.675946 -1.9718114
25.036491 24.219727 -1.8255829
5.6064281 5.4046206 -2.0865991
6.4811754 6.2435117 -2.0776479
7.7396393 7.4532318 -2.0885954
9.4810019 9.1237698 -2.0840201
12.034803 11.573259 -2.0500863
19.101145 18.362186 4.1965117
16.233536 15.605515 -1.9700685
25.051756 24.065767 -1.8205588
5.6210742 5.3810081 -2.0850463
6.4972963 6.2154636 -2.0758483
7.7656107 7.4261675 -2.0885954
9.5027933 9.081068 -2.08183
12.056464 11.513361 -2.0469177
16.276379 15.537751 -1.9686739
25.048903 23.895449 -1.8142784
5.6286206 5.3507071 -2.0809052
6.5118899 6.1860332 -2.0735989
7.7815189 7.389554 -2.0859239
9.530138 9.0437593 -2.0808916
12.087934 11.463012 -2.0454552
16.304491 15.456163 -1.9655364
25.048046 23.728216 -1.8082075
52.754387 49.939682 -1.2679873
5.6514797 5.3350039 -2.0824583
6.5504498 6.1793165 -2.0789976
7.8258367 7.3798547 -2.0908849
9.5530167 9.0023165 -2.0790143
12.122993 11.420137 -2.0449677
16.335123 15.377316 -1.9627472
25.037622 23.553047 -1.8015084
5.6620927 5.3096271 -2.07987
6.563797 6.1508956 -2.0767481
7.8345041 7.3391008 -2.0866873
9.5683975 8.9570847 -2.0758855
12.157897 11.377164 -2.0444803
16.38312 15.320336 -1.9623986
25.033878 23.39352 -1.7956468
5.6853256 5.2960877 -2.0819407
6.5784512 6.123786 -2.0749483
7.8702979 7.3237762 -2.0897403
9.6197443 8.9454861 -2.0805786
12.18009 11.318438 -2.0415554
16.410475 15.244232 -1.9596097
25.020555 23.226133 -1.7891572
5.7293024 5.2998238 -2.0912578
6.6026511 6.1034293 -2.0758483
7.8857198 7.2869349 -2.087069
9.6610737 8.9212303 -2.0827687
12.216603 11.273162 -2.0410681
16.446016 15.170641 -1.957518
25.02511 23.068268 -1.7837142
54.164738 49.89431 -1.2854396
5.7349625 5.2680321 -2.0865991
6.6339636 6.0895705 -2.0789976
7.9111066 7.2593656 -2.087069
9.6761379 8.8727684 -2.0793271
12.25003 11.225082 -2.0400932
16.478302 15.094303 -1.9550776
25.008253 22.891762 -1.7768059
54.486084 49.839943 -1.2889301
5.7476087 5.2427726 -2.0845287
6.6537418 6.0650625 -2.0785477
58.58976 53.387409 4.1541142
7.9233398 7.2198038 -2.0836341
9.6866055 8.8203173 -2.0749471
12.274452 11.168896 -2.0376556
16.522051 15.028644 -1.9540318
25.005238 22.729101 -1.7709442
54.881771 49.851109 -1.2941658
5.7615776 5.2187881 -2.0829759
6.6676493 6.0352588 -2.0762982
7.9732399 7.2144971 -2.0901217
9.7173376 8.7864485 -2.0749471
12.307469 11.120659 -2.0366805
16.541883 14.941493 -1.9501969
24.98658 22.553349 -1.7640359
55.195263 49.802788 -1.2976563
5.7754521 5.1947675 -2.081423
6.6876221 6.0131192 -2.0762982
7.9969158 7.1853065 -2.0897403
9.78022 8.7845373 -2.0821428
12.32951 11.066523 -2.0342433
16.605803 14.894305 -1.9515913
24.986877 22.403708 -1.7588024
55.592159 49.809994 -1.302892
5.8113732 5.1923203 -2.0881522
6.7027574 5.9845448 -2.0744987
8.0045862 7.1443691 -2.0855424
9.797554 8.738513 -2.0793271
12.353242 11.010212 -2.031806
16.631296 14.817954 -1.9488024
24.999296 22.257904 -1.7541968
55.915096 49.748543 -1.3063824
5.8179002 5.1617475 -2.0840108
6.7440228 5.9792085 -2.0807972
8.0250673 7.1124802 -2.0843976
9.8206072 8.6977091 -2.0777628
12.391603 10.967021 -2.031806
16.662033 14.741323 -1.946362
25.013988 22.114948 -1.7498006
56.385101 49.815243 -1.3132936
5.8373342 5.1426835 -2.0845287
6.7677774 5.9582086 -2.0816972
8.0557423 7.0896101 -2.0859239
9.8390388 8.6529417 -2.0752599
12.414903 10.910592 -2.0293684
16.713385 14.683074 -1.946362
24.997982 21.945797 -1.7433108
5.8465276 5.1146431 -2.081423
6.7753315 5.9230032 -2.0776479
8.0774851 7.0588613 -2.0851607
9.87216 8.6211405 -2.0758855
12.449912 10.864587 -2.0288811
21.252337 18.539595 4.4668303
16.758535 14.619402 -1.9456648
25.029251 21.819046 -1.7401706
5.8701773 5.0992723 -2.0834932
6.7930179 5.8967667 -2.0767481
8.1020756 7.0306244 -2.0851607
9.9051809 8.5892134 -2.0765114
12.469761 10.805459 -2.0259562
21.257204 18.413557 4.4543157
16.815493 14.566027 -1.946362
25.053926 21.687098 -1.736612
57.508636 49.745335 -1.3272555
5.8923316 5.0825338 -2.0850463
6.8179898 5.8768334 -2.0780978
8.119132 6.9958892 -2.0832527
9.9246187 8.5455704 -2.0743213
12.501382 10.756689 -2.0249813
21.249453 18.277428 4.4392977
16.848099 14.491663 -1.9442703
25.074953 21.552635 -1.7328436
5.9085665 5.0606828 -2.0845287
6.8517885 5.8644013 -2.0821469
8.147974 6.9713411 -2.0843976
9.9468832 8.5044537 -2.072757
12.541876 10.715563 -2.0254686
16.859196 14.399117 -1.9397382
25.128759 21.446829 -1.7313782
5.9320831 5.0450315 -2.0865991
6.8633065 5.8328781 -2.0794475
8.1767492 6.9466677 -2.0855424
9.9689779 8.4632902 -2.0711925
12.576179 10.669146 -2.0249813
16.91847 14.347915 -1.9407841
25.173002 21.333149 -1.7292848
5.9422784 5.0180597 -2.0840108
6.8761802 5.802599 -2.077198
8.1964483 6.9142838 -2.0843976
9.9863777 8.4182529 -2.0686896
12.608788 10.621348 -2.02425
16.959309 14.281066 -1.9397382
25.183125 21.191145 -1.7248886
5.9567976 4.9948058 -2.0829759
6.8968768 5.7810178 -2.0776479
8.2160158 6.8818502 -2.0832527
10.009694 8.3812876 -2.0677509
12.624146 10.562919 -2.0210814
17.006002 14.219219 -1.9393896
25.191959 21.05629 -1.7207018
5.9792647 4.9799719 -2.0850463
63.994591 53.280445 1.4535062
6.9319921 5.7693763 -2.0821469
8.2433224 6.8583322 -2.0843976
10.038887 8.3462982 -2.0677509
12.660943 10.518785 -2.0210814
17.03466 14.147483 -1.9372978
25.225351 20.935055 -1.7179801
5.9981017 4.960299 -2.0855639
6.9550939 5.7476244 -2.0830467
8.264183 6.8270159 -2.0836341
10.072533 8.3149748 -2.0686896
12.689924 10.468212 -2.0198627
17.077795 14.082862 -1.9366006
25.242783 20.801155 -1.7142121
47.44191 39.066406 -1.0727296
6.0198579 4.9430108 -2.0871167
6.9630637 5.7134209 -2.0794475
8.2925158 6.8018641 -2.0847793
10.087749 8.2684927 -2.0658739
12.724854 10.422591 -2.019619
17.12377 14.020635 -1.936252
25.234861 20.647141 -1.7087691
6.0295906 4.9158626 -2.0845287
6.982964 5.6890817 -2.0794475
8.3177328 6.7741146 -2.0851607
10.101227 8.2207623 -2.0627451
12.741138 10.361831 -2.0164504
17.16642 13.95575 -1.9355546
25.247868 20.511078 -1.7047915
6.049715 4.8972173 -2.0855639
6.999752 5.662219 -2.0785477
8.329114 6.7351651 -2.0821078
10.129864 8.1854496 -2.0627451
12.763325 10.306069 -2.0142565
17.218136 13.898243 -1.9359034
25.269562 20.3827 -1.7014421
6.0773149 4.8845401 -2.0891874
65.254547 52.428509 1.4611155
7.0346637 5.6499586 -2.0830467
8.3449202 6.6999021 -2.0801997
10.153745 8.1463375 -2.0618064
12.796127 10.258968 -2.0137691
17.254097 13.8281 -1.9345088
25.324972 20.281876 -1.7003953
48.170094 38.55014 -1.0769181
6.0897989 4.8596802 -2.0876343
7.0421553 5.6156468 -2.0794475
8.3774691 6.678072 -2.0824895
10.175942 8.1059198 -2.060555
12.831859 10.214242 -2.0137691
17.286673 13.755376 -1.9327657
25.364346 20.168497 -1.6983019
6.1127791 4.8431959 -2.089705
65.681679 52.021332 1.4625117
7.0769949 5.603126 -2.0839467
8.4130402 6.6585417 -2.0855424
10.197979 8.0654449 -2.0593035
12.861207 10.164461 -2.0127943
17.328333 13.690005 -1.9320685
25.343676 20.008049 -1.6922308
6.1175017 4.8122721 -2.0855639
7.0980415 5.5795946 -2.0843966
8.4300585 6.62428 -2.0840161
10.218301 8.0237007 -2.0577393
12.896612 10.119502 -2.0127943
17.379147 13.631898 -1.932417
25.394505 19.904671 -1.690975
9.8094053 7.6805 3.3382483
6.1464415 4.8004031 -2.089705
7.099041 5.5403943 -2.0789976
8.4531288 6.5948153 -2.0840161
10.257154 7.9964824 -2.0599291
12.909926 10.057352 -2.009382
17.423485 13.568698 -1.9320685
25.425985 19.786484 -1.6884627
9.7781916 7.6011643 3.318578
6.1540022 4.7718143 -2.0865991
7.1137137 5.5120001 -2.0776479
8.468338 6.5592542 -2.0821078
10.283441 7.9594221 -2.0596163
12.938678 10.007367 -2.0084071
23.621019 18.262991 4.7290144
17.473892 13.510235 -1.932417
25.453812 19.665855 -1.6857414
48.329033 37.312534 -1.0657487
9.7740793 7.5433774 3.3082252
6.1537838 4.737339 -2.0809052
7.1607132 5.5085244 -2.085746
8.4974098 6.5344391 -2.0836341
10.301762 7.9162588 -2.0577393
12.962506 9.95368 -2.0067008
23.656418 18.158783 4.7233829
17.492495 13.427325 -1.9292796
25.509621 19.567165 -1.6849039
9.8080177 7.5150905 3.3108134
6.5190077 4.1706858 -2.0736582
7.5872402 4.8503752 -2.0789976
9.0193367 5.7636757 -2.0805814
10.863497 6.9368129 -2.0414701
13.625348 8.6936903 -1.9845206
18.427444 11.753144 -1.9121969
26.657162 16.989025 -1.6566426
6.5433135 4.1541157 -2.0767641
7.5999904 4.8231015 -2.0780978
9.0211649 5.7205906 -2.0763836
10.886438 6.9007521 -2.0414701
13.664168 8.654829 -1.985983
18.471724 11.690884 -1.9125456
26.703224 16.894131 -1.6560146
6.5684929 4.139606 -2.0803876
7.6398654 4.8110828 -2.0843966
9.04673 5.6948285 -2.0779099
10.912131 6.8637638 -2.0417829
13.68085 8.5986242 -1.9840331
18.510387 11.629568 -1.9125456
26.751888 16.794437 -1.6553864
6.5927296 4.1227994 -2.0834932
67.568382 42.237812 1.390887
7.6400871 4.7740564 -2.0798974
9.0632219 5.6611371 -2.0771468
10.922619 6.8172603 -2.0392799
13.692253 8.5392647 -1.981352
18.574543 11.579637 -1.9149859
26.806953 16.698849 -1.6551771
6.6120067 4.1028156 -2.0850463
67.589668 41.923676 1.388304
7.6550479 4.7463331 -2.0794475
9.0795927 5.6273952 -2.0763836
10.94131 6.7759748 -2.0383413
13.718604 8.4893265 -1.9808645
18.618238 11.516829 -1.9153346
26.88887 16.619867 -1.6566426
6.6032581 4.0655289 -2.0777996
67.565269 41.582726 1.3848137
7.6699109 4.7185602 -2.0789976
9.107543 5.6008062 -2.0782917
10.958165 6.7336011 -2.0370898
13.743072 8.4382801 -1.9801333
18.631159 11.435088 -1.9125456
26.926277 16.513393 -1.6553864
6.6207056 4.0444698 -2.0788348
67.542763 41.244473 1.3813928
7.6780195 4.6866803 -2.0767481
9.1186581 5.5638704 -2.0763836
10.979918 6.6942782 -2.036777
29.34046 17.881397 4.218873
13.779226 8.3943834 -1.9811082
18.66954 11.364656 -1.9121969
26.976936 16.415144 -1.6549678
6.6387882 4.0221801 -2.07987
67.515289 40.90485 1.3779024
7.705997 4.6669211 -2.0798974
9.1339512 5.5273595 -2.0752387
11.004379 6.6539917 -2.036777
13.799952 8.3410959 -1.9798895
18.709099 11.299414 -1.9121969
27.026655 16.309971 -1.6543397
6.6710019 4.0099282 -2.0855639
67.534492 40.578827 1.3752496
7.7230492 4.6386476 -2.0798974
9.1616049 5.5004969 -2.0771468
11.027534 6.6155462 -2.036777
13.81681 8.2823 -1.9779397
18.727922 11.221745 -1.9101051
27.100565 16.225784 -1.6553864
6.6733456 3.9796894 -2.0819407
67.507393 40.242512 1.3718289
7.7626324 4.6256247 -2.0861959
9.1858101 5.4714952 -2.0782917
11.047166 6.5749893 -2.0361512
13.840515 8.2309771 -1.9772084
18.76697 11.156317 -1.9101051
27.167337 16.137213 -1.6560146
6.6938438 3.9603097 -2.0840108
7.7485375 4.5806475 -2.0780978
9.1862612 5.4284124 -2.0740941
11.068351 6.5353799 -2.0358384
13.865745 8.1805944 -1.9767209
18.80237 11.08871 -1.9097565
27.247595 16.056473 -1.6574799
30.82584 18.150568 -0.62441218
6.6926336 3.9281175 -2.0793524
30.749111 18.040388 0.62228304
7.76616 4.5545602 -2.0785477
30.723093 18.010731 1.8664051
9.2237816 5.4072371 -2.0782917
30.651331 17.961454 3.1081481
11.084277 6.4927139 -2.0345869
30.672071 17.959248 4.3641415
13.890792 8.1301346 -1.9762335
18.837521 11.021002 -1.909408
30.540529 17.860762 6.8771377
27.310377 15.965285 -1.6578985
30.004618 17.533297 8.0231037
6.743032 3.9261179 -2.0907402
30.804979 17.928925 0.62214339
7.7634835 4.5166411 -2.0735989
30.78956 17.912758 1.8668238
9.2392082 5.3730307 -2.0775285
30.762068 17.882395 3.1130288
11.105166 6.4529872 -2.0342741
30.686514 17.824146 4.357317
13.924541 8.0880175 -1.9772084
18.855202 10.943173 -1.9073162
30.602694 17.754038 6.8771377
27.365936 15.869863 -1.6578985
30.914072 17.920265 -0.62371415
6.7275805 3.8873038 -2.0819407
7.7851686 4.494771 -2.0753984
9.2569733 5.3423648 -2.0775285
11.129926 6.4181013 -2.0348997
13.920327 8.0239563 -1.9728212
18.908649 10.890535 -1.9090594
27.43572 15.788996 -1.6589453
6.7370815 3.8630519 -2.0809052
67.418983 38.642464 1.356401
7.8051047 4.4718337 -2.0767481
9.2746372 5.3116403 -2.0775285
11.146006 6.3782115 -2.0339613
13.951698 7.977283 -1.9733087
18.937744 10.823812 -1.9083622
27.501806 15.705844 -1.6597826
6.7454882 3.8366446 -2.0793524
7.8308311 4.4503403 -2.0794475
9.3136082 5.2908678 -2.0821078
11.166484 6.3382931 -2.0336483
13.988092 7.933434 -1.9745274
18.978874 10.75961 -1.9087107
27.577312 15.621568 -1.6610388
6.7571578 3.8121243 -2.0788348
67.411896 38.015686 1.3508861
7.8429246 4.4210629 -2.0785477
9.306366 5.243866 -2.0763836
11.169607 6.2886124 -2.0302067
31.037029 17.46706 4.3729157
14.012237 7.8826141 -1.9740397
19.030212 10.701103 -1.9101051
27.669979 15.546741 -1.6633415
6.8091974 3.8102126 -2.0907402
67.394096 37.696171 1.3478843
7.8412957 4.3841538 -2.0740488
9.3297529 5.2142239 -2.0775285
11.200113 6.2544031 -2.0317712
14.027534 7.826879 -1.9723336
19.067453 10.634604 -1.9101051
27.717104 15.446162 -1.6629229
6.785296 3.7657948 -2.0793524
7.8650742 4.3614793 -2.0762982
9.3547668 5.18543 -2.0790551
11.21669 6.2124004 -2.0308325
14.054768 7.7778687 -1.9723336
19.099325 10.560796 -1.909408
27.788336 15.358972 -1.6639695
6.8142848 3.7492828 -2.0840108
67.424362 37.097511 1.3432769
7.8751287 4.3311791 -2.0749483
9.3530626 5.1397643 -2.0744755
11.230726 6.1664968 -2.0292683
31.524479 17.309263 4.4158139
14.074874 7.7249379 -1.9713587
19.139561 10.495991 -1.9097565
27.896986 15.285818 -1.6671097
6.806983 3.7143681 -2.0777996
7.8977938 4.3060193 -2.0767481
9.3743944 5.1089611 -2.0752387
11.25392 6.1281981 -2.0295811
14.085654 7.6638145 -1.9689212
19.165585 10.423402 -1.9087107
27.971231 15.199796 -1.6683658
6.80971 3.6850729 -2.0746937
67.315872 36.427971 1.3360167
7.9291711 4.2890754 -2.0812473
9.4025307 5.0818143 -2.0775285
11.260277 6.0833297 -2.0270779
14.110989 7.6170659 -1.9689212
19.198347 10.354541 -1.9083622
28.056639 15.125917 -1.6704592
6.8304033 3.6670375 -2.0772817
67.329872 36.13224 1.3337827
7.9217696 4.2493978 -2.0753984
9.3933792 5.0366879 -2.0718043
11.281444 6.0439839 -2.0270779
14.128742 7.5630741 -1.9677025
19.225554 10.287054 -1.9076648
28.119839 15.033532 -1.6710873
6.853395 3.648618 -2.0803876
67.38578 35.874916 1.3325262
7.9375367 4.2240214 -2.0758483
9.4317064 5.0149264 -2.0763836
11.297933 6.004694 -2.0264523
14.148488 7.5133834 -1.9669714
19.247259 10.212425 -1.9062704
28.173071 14.942063 -1.6712966
6.8791223 3.6330903 -2.0845287
67.333748 35.546135 1.3290356
7.9539571 4.197196 -2.0762982
9.4500198 4.9845395 -2.0767653
11.320573 5.9661379 -2.0267651
14.178141 7.4658036 -1.9674588
19.295126 10.155961 -1.9076648
28.271013 14.867807 -1.6740181
6.8814931 3.6036797 -2.081423
67.280251 35.218155 1.3255452
7.9616537 4.1657896 -2.0744987
9.4517031 4.9433355 -2.0733306
11.350085 5.9311571 -2.0283296
14.197077 7.4125881 -1.966484
19.326929 10.086698 -1.9073162
28.379417 14.798577 -1.6773677
6.8871727 3.5760739 -2.0793524
67.26078 34.909374 1.3227527
7.9692268 4.1343856 -2.0726991
9.4793596 4.9157329 -2.0756204
11.346163 5.8787813 -2.0239494
14.20876 7.3556876 -1.964534
19.365557 10.021008 -1.9076648
28.484119 14.726947 -1.6805077
6.8996129 3.5520127 -2.0793524
7.9680142 4.0985174 -2.0686498
9.5226507 4.8960819 -2.0813446
11.366616 5.8391371 -2.0239494
14.234349 7.3060479 -1.964534
19.396875 9.9515247 -1.9073162
28.457148 14.587349 -1.6759022
6.9395013 3.5419569 -2.0876343
67.289108 34.329903 1.3185642
7.9822698 4.0706849 -2.0686498
9.5116968 4.8485432 -2.0752387
11.393967 5.8030186 -2.0252008
14.245613 7.2491102 -1.962584
19.415459 9.8713388 -1.905573
29.440886 14.96207 -1.7307502
6.9317503 3.5060372 -2.081423
67.265778 34.022621 1.3157719
8.008605 4.0489492 -2.071799
9.5381651 4.8180771 -2.0771468
11.394001 5.7505298 -2.0214465
14.260196 7.1939783 -1.9611217
19.460474 9.8088827 -1.9066191
29.513363 14.863053 -1.7317969
6.923224 3.4714267 -2.0752113
8.0286188 4.0221896 -2.073149
9.547905 4.7812343 -2.0756204
11.421068 5.7142658 -2.0226979
14.293571 7.1452098 -1.9620966
19.473202 9.7302189 -1.9045273
29.643694 14.799187 -1.7364025
6.9543285 3.4566958 -2.0809052
8.0384235 3.9938073 -2.0722492
9.5680552 4.7496204 -2.0763836
11.42226 5.6675777 -2.0195692
14.302961 7.0907145 -1.9601468
19.514191 9.6657181 -1.9052244
29.71767 14.713202 -1.737868
6.9657512 3.43362 -2.0809052
8.0470705 3.9631381 -2.0708995
9.5960798 4.7239413 -2.0790551
11.434885 5.6241813 -2.0183177
14.324056 7.0390034 -1.9596591
19.549715 9.602704 -1.905573
29.801111 14.625237 -1.7397519
7.0141463 3.4270921 -2.0917757
67.18441 32.811592 1.305091
8.0591021 3.9341753 -2.0704496
9.6089821 4.6886911 -2.0782917
11.463325 5.5885625 -2.019882
14.337834 6.9837408 -1.9581968
19.590282 9.5378981 -1.9062704
29.877129 14.533345 -1.7412174
55.522621 26.984304 -1.0775465
6.9808607 3.380693 -2.0783172
67.186943 32.522873 1.3029269
8.0640154 3.9017739 -2.0681999
9.6323614 4.6585379 -2.0798182
11.475646 5.5450783 -2.0186305
14.354973 6.9302006 -1.9572219
19.627043 9.4711933 -1.9066191
29.981649 14.454996 -1.7443576
55.770317 26.876442 -1.0806181
7.0048099 3.3621578 -2.0819407
67.204285 32.256607 1.3011816
8.1155653 3.8935537 -2.0780978
9.6166964 4.6096134 -2.0729489
11.485066 5.5027227 -2.0170662
14.377877 6.882556 -1.9572219
19.631227 9.3888655 -1.9038301
30.022219 14.352041 -1.7439389
6.998476 3.33061 -2.0767641
67.17923 31.956556 1.2985289
8.1220684 3.8618519 -2.0762982
9.6461134 4.5844412 -2.0760019
11.498853 5.4600539 -2.0161276
14.398225 6.830627 -1.9567344
19.655054 9.3202934 -1.9031327
30.126274 14.272814 -1.747079
6.9960823 3.299566 -2.072623
67.120338 31.641722 1.2952478
8.1231594 3.8276644 -2.073149
9.6691637 4.5540862 -2.0775285
11.503541 5.4131556 -2.0136247
14.421983 6.7803226 -1.9567344
19.687468 9.2516317 -1.9031327
30.175915 14.167559 -1.747079
7.0215573 3.2816703 -2.0767641
67.139801 31.364901 1.2935026
8.1241093 3.7935162 -2.0699997
9.6743259 4.5153265 -2.0752387
11.524157 5.373805 -2.0139375
14.431166 6.7232356 -1.9547845
19.734089 9.1895857 -1.9045273
30.265022 14.080681 -1.7493819
7.0382299 3.2595742 -2.0783172
67.103706 31.063124 1.2907101
8.1319942 3.762681 -2.0686498
9.677557 4.4757581 -2.0725675
11.542843 5.3335481 -2.0139375
14.450945 6.6711526 -1.9542971
19.762426 9.1189804 -1.9041786
30.335758 13.984977 -1.7506379
7.0565872 3.2382107 -2.0803876
67.099022 30.777021 1.2885461
8.1415377 3.732646 -2.06775
9.6895504 4.4403162 -2.0718043
11.541634 5.2841749 -2.0104959
14.463308 6.6157169 -1.9528345
19.7579 9.0333662 -1.9006923
30.351685 13.864068 -1.7487538
7.0783987 3.2183578 -2.0834932
8.1598415 3.7066197 -2.0690999
9.7157164 4.4113383 -2.0740941
11.556413 5.2422194 -2.0098703
14.493548 6.5684648 -1.9538096
19.774796 8.9577618 -1.899298
30.367146 13.743206 -1.7468698
7.0666924 3.1833134 -2.0767641
67.075195 30.201136 1.2840085
8.1656208 3.6749165 -2.0673003
9.7238941 4.3741732 -2.0725675
11.56563 5.1978021 -2.0083058
14.505525 6.5129504 -1.952347
19.805943 8.8886852 -1.899298
30.352976 13.609331 -1.7433108
7.0865817 3.1625645 -2.0793524
67.052383 29.909775 1.2815652
8.1908588 3.6519434 -2.0704496
9.7337246 4.3378081 -2.0714226
11.583706 5.1573954 -2.0083058
14.510028 6.4542184 -1.9499096
19.844133 8.8227272 -1.8999952
30.316324 13.466022 -1.7384959
7.1364498 3.1549916 -2.0907402
67.086884 29.644804 1.2802387
8.1892939 3.6170368 -2.0668504
9.7398272 4.2998376 -2.0695145
11.608864 5.1201262 -2.0095575
14.543371 6.408329 -1.9513721
19.841982 8.7389622 -1.8968576
30.374119 13.364935 -1.7391241
7.1049504 3.1114607 -2.0783172
67.043404 29.346315 1.2774464
8.1982994 3.5868642 -2.0659504
9.7547779 4.2658105 -2.0695145
11.619426 5.076406 -2.0083058
14.543818 6.3479981 -1.9484472
19.883326 8.6744232 -1.8979034
30.556067 13.317885 -1.7468698
7.1139936 3.0858769 -2.0777996
67.108742 29.096184 1.2767483
8.2393808 3.5706213 -2.073149
9.7678051 4.2309604 -2.0691328
11.6262 5.0311055 -2.0064287
14.573177 6.3003383 -1.9494221
19.906168 8.6017971 -1.8972062
30.661049 13.236467 -1.7502192
7.1335974 3.0648365 -2.0803876
67.033501 28.78602 1.2733974
8.2267227 3.5310793 -2.0668504
9.789732 4.1999321 -2.0706592
11.645506 4.9912729 -2.0067415
14.602384 6.2525525 -1.9503973
19.928743 8.5291271 -1.8965088
30.865007 13.19688 -1.7592211
7.1478076 3.0414314 -2.081423
66.993713 28.492388 1.2707447
8.2282391 3.4977651 -2.0641508
9.7916842 4.1603622 -2.0679879
11.662859 4.9505892 -2.0067415
14.602186 6.192245 -1.9474722
19.969404 8.4641714 -1.8975549
31.043303 13.145141 -1.7667575
7.1797433 3.0254624 -2.0876343
67.06572 28.260733 1.2703258
8.2631388 3.4802947 -2.0699997
9.8025284 4.1246319 -2.0672247
11.668284 4.9072933 -2.0048645
14.61898 6.1422539 -1.9469848
20.013523 8.4005871 -1.8989493
31.153021 13.069946 -1.7705256
59.674591 25.0114 -1.129415
7.1505165 2.9852645 -2.0762465
67.042168 27.975616 1.2680221
8.2842293 3.4551823 -2.0722492
9.8089046 4.0890784 -2.0656981
11.68899 4.8680549 -2.0054901
14.647664 6.094233 -1.9479598
20.022873 8.3265276 -1.8972062
31.132059 12.93353 -1.7667575
7.1698194 2.9639781 -2.0788348
67.002647 27.684929 1.2654392
8.2674208 3.4143398 -2.0650506
9.8231173 4.0548162 -2.0656981
11.69313 4.821949 -2.0033
14.654161 6.0370193 -1.9460098
20.044449 8.2535439 -1.8965088
30.874088 12.700177 -1.7495911
7.1729708 2.9360034 -2.0767641
8.2774849 3.3847246 -2.0646007
9.8426628 4.0227327 -2.0668433
11.713546 4.7825985 -2.0039258
14.678824 5.9873261 -1.9464973
20.069448 8.1820154 -1.8961602
30.762857 12.529039 -1.7407987
7.184967 2.9116707 -2.0772817
8.2892504 3.355808 -2.0646007
33.636864 13.610666 1.9016795
9.8548269 3.9876122 -2.0664616
11.733832 4.7431593 -2.0045516
14.677542 5.9271412 -1.9435725
20.094189 8.1104231 -1.8958117
30.813805 12.424588 -1.7412174
7.195086 2.8865743 -2.0772817
8.3081503 3.3297503 -2.0664005
9.854105 3.9473493 -2.0634086
11.735647 4.6962972 -2.0020485
14.705517 5.8788142 -1.9445474
20.105276 8.0293341 -1.8940685
30.864408 12.319906 -1.741636
7.2253699 2.868022 -2.0829759
8.3251543 3.302891 -2.06775
9.8648567 3.9097564 -2.0626454
11.75278 4.653255 -2.0020485
14.72595 5.8274431 -1.9445474
20.133184 7.9590998 -1.8940685
30.898214 12.202307 -1.7410082
7.2191544 2.8364267 -2.0783172
8.335392 3.271637 -2.0673003
9.8820992 3.876734 -2.0634086
11.759757 4.6085944 -2.0004842
14.747208 5.7734337 -1.9445474
20.153423 7.8858643 -1.8933713
30.933182 12.09146 -1.7405895
7.2308125 2.811908 -2.0788348
8.3498259 3.2453957 -2.0681999
9.8955717 3.8422127 -2.0634086
11.771289 4.568151 -1.9998584
14.766274 5.7244945 -1.9445474
20.169676 7.8111649 -1.8923255
30.984283 11.993132 -1.7412174
7.254519 2.7934694 -2.0829759
8.3629236 3.2169268 -2.0686498
9.9064255 3.8086741 -2.0630269
11.792696 4.5291553 -2.000797
14.771338 5.6672301 -1.9425975
20.195469 7.7442307 -1.8923255
30.999844 11.874907 -1.7397519
7.2660303 2.7688189 -2.0834932
66.755348 25.424683 1.2468697
8.3668175 3.1849401 -2.0668504
9.9013109 3.7670922 -2.0592108
11.810282 4.4886618 -2.0011098
14.787318 5.6142282 -1.9421101
20.222382 7.6736832 -1.8923255
31.056049 11.772297 -1.7405895
7.2792678 2.7448001 -2.0845287
8.4252996 3.1735768 -2.0785477
9.9162378 3.733196 -2.0595925
11.827725 4.4481068 -2.0014229
14.806827 5.5625725 -1.9421101
20.211739 7.5890441 -1.8888392
31.055811 11.648378 -1.7382866
7.2707033 2.7126226 -2.0793524
66.698891 24.871389 1.2425416
8.4071074 3.1332605 -2.0713491
9.9292088 3.6985567 -2.0595925
11.815411 4.3964629 -1.9967299
14.826152 5.5108562 -1.9421101
20.238104 7.5184498 -1.8888392
31.152456 11.560756 -1.7414268
50.585835 18.752419 -0.941697
7.2910032 2.6912384 -2.0824583
8.4033661 3.0985036 -2.06775
9.9512701 3.6672711 -2.0615005
11.839952 4.3586068 -1.998294
14.856479 5.4631767 -1.9435725
20.275448 7.4518785 -1.8898852
31.151379 11.436793 -1.7391241
49.54705 18.170883 -0.92117292
7.2967229 2.6644483 -2.081423
8.3958244 3.0624716 -2.0632513
9.9621639 3.6318419 -2.0611188
11.858808 4.3186002 -1.9989198
14.867994 5.4085732 -1.9425975
20.301334 7.3810635 -1.8898852
31.153561 11.314354 -1.7370306
49.486111 17.952799 -0.9188692
7.2896256 2.6330562 -2.0767641
8.4137955 3.035789 -2.0650506
9.9600058 3.5917192 -2.0580659
11.873812 4.2771759 -1.9989198
14.875578 5.3526044 -1.941135
20.338226 7.3141928 -1.890931
31.162792 11.194725 -1.7353557
49.496437 17.771038 -0.91796172
7.2733035 2.5984933 -2.0695171
8.4274864 3.0091836 -2.0659504
9.9743328 3.5575876 -2.0584474
11.876767 4.2337942 -1.9970427
14.893245 5.3032489 -1.941135
20.341106 7.2351465 -1.8888392
31.143288 11.071262 -1.7322158
49.769218 17.673111 -0.92187101
7.3019171 2.5814414 -2.0752113
8.4471254 2.9829941 -2.0681999
9.9805222 3.5225291 -2.0573027
11.89147 4.1923189 -1.9970427
14.922902 5.2551818 -1.9425975
20.364985 7.1676579 -1.8888392
31.268419 10.992948 -1.7370306
47.80426 16.787659 -0.88438326
7.3291178 2.5623174 -2.0803876
8.4648476 2.9560575 -2.0699997
9.9964619 3.4889696 -2.0580659
11.902303 4.1494808 -1.9964169
14.926157 5.1978393 -1.9406476
20.378593 7.0925922 -1.8877934
31.208498 10.849635 -1.7315876
7.3489728 2.5405035 -2.0834932
8.4769554 2.9271297 -2.0704496
10.004869 3.4527705 -2.0573027
11.922316 4.1098423 -1.9973555
14.94421 5.1457019 -1.9406476
20.403227 7.021419 -1.8877934
31.246185 10.740623 -1.7315876
48.192635 16.547047 -0.88940954
7.3468285 2.5110846 -2.0803876
8.4705248 2.8918529 -2.0664005
10.007571 3.4146535 -2.0553946
11.930982 4.0662861 -1.9964169
14.962078 5.0935159 -1.9406476
20.416294 6.9462996 -1.8867475
31.272135 10.627654 -1.7309595
48.598522 16.496981 -0.895832
7.3610396 2.4872811 -2.0819407
8.5138025 2.8734825 -2.0744987
10.023149 3.3809571 -2.0561578
11.946976 4.0252419 -1.9967299
14.976006 5.0399871 -1.9401602
20.432865 6.8724451 -1.8860502
31.293894 10.513331 -1.7301222
7.3641801 2.459733 -2.0803876
8.5071421 2.8382015 -2.0704496
10.034892 3.3459463 -2.0561578
11.944082 3.9779048 -1.9939139
14.993508 4.9876761 -1.9401602
20.45295 6.7998266 -1.8857017
31.330406 10.404023 -1.7301222
7.3947349 2.4412811 -2.0865991
8.4984913 2.8023839 -2.0659504
10.046509 3.3108997 -2.0561578
11.954144 3.9349496 -1.9932882
15.018369 4.9377923 -1.941135
20.499271 6.7358589 -1.8877934
31.336168 10.284638 -1.7284474
7.3848453 2.4094634 -2.081423
8.4984751 2.7711635 -2.0637012
10.054273 3.2745919 -2.0553946
11.978398 3.8989518 -1.9951655
15.023335 4.8842754 -1.9396726
20.511288 6.6605735 -1.8867475
31.30551 10.159697 -1.7248886
7.3817639 2.3814003 -2.0783172
8.5080957 2.741483 -2.0637012
10.050125 3.2364206 -2.0523417
11.999457 3.8595376 -1.9964169
15.028951 4.8281646 -1.9382101
20.525677 6.5900779 -1.8860502
31.340782 10.050364 -1.7248886
7.3900323 2.3556166 -2.0783172
8.5231848 2.7135386 -2.0650506
10.065103 3.202507 -2.0531049
12.012857 3.817625 -1.9964169
15.057065 4.7792811 -1.9396726
20.548555 6.518384 -1.8860502
31.375671 9.9409103 -1.7248886
7.3945236 2.3286471 -2.0772817
8.5511932 2.6896238 -2.0695498
10.085586 3.1703 -2.0550129
12.003493 3.7685709 -1.9926625
15.085023 4.7302527 -1.941135
20.590197 6.4525785 -1.8877934
31.360628 9.8158092 -1.7221671
7.4118309 2.3056884 -2.07987
8.5437803 2.6545517 -2.0655005
10.096591 3.1350725 -2.0550129
12.022234 3.728406 -1.9936011
15.105234 4.6787453 -1.9416226
20.58214 6.3712435 -1.8850043
31.333643 9.6873941 -1.7188177
46.240326 14.278399 -0.84473133
7.4272199 2.2820771 -2.0819407
46.692806 14.337824 0.85258496
8.5716257 2.6304271 -2.0699997
10.103717 3.0986655 -2.0542498
12.031399 3.6852577 -1.9929754
15.091104 4.616694 -1.9377227
20.611877 6.3016844 -1.8857017
31.351982 9.5732994 -1.7179801
46.228664 14.098268 -0.8436144
7.4314432 2.2550132 -2.0809052
8.5844841 2.6016226 -2.0708995
10.112594 3.0628064 -2.0538683
12.042297 3.6426682 -1.9926625
15.114729 4.5662808 -1.9386977
20.645191 6.2331562 -1.8867475
31.385212 9.4637938 -1.7179801
39.074314 11.767485 -0.71230257
7.4318681 2.2268391 -2.0788348
8.5953817 2.5721979 -2.0713491
10.119461 3.0263603 -2.0531049
12.066297 3.6039991 -1.9945397
15.141986 4.5169077 -1.9401602
20.659187 6.1587715 -1.8860502
31.398905 9.3485041 -1.7169335
38.839138 11.548934 -0.70727623
7.4507108 2.2041736 -2.0819407
8.5949621 2.5394237 -2.0690999
