# .PCD v0.7 - Point Cloud Data file format
VERSION 0.7
FIELDS x y z
SIZE 4 4 4
TYPE F F F
COUNT 1 1 1
WIDTH 1458
HEIGHT 1
VIEWPOINT 0 0 0 1 0 0 0
POINTS 1458
DATA ascii
-0.81540489 -0.43191701 0.048358425
-0.80159616 -0.42442343 -0.17630751
-0.81004536 -0.4287158 0.080183282
-0.80494863 -0.42583883 -0.1442326
-0.77732342 -0.41122437 0.10797625
-0.80196297 -0.42408019 -0.11138859
-0.79625142 -0.42070433 -0.078788787
-0.80364347 -0.42425099 -0.047625724
-0.79939216 -0.42182854 -0.015776975
-0.81223977 -0.42697838 -0.2458781
-0.82668012 -0.434385 0.016300548
-0.81086469 -0.42589411 -0.21145399
-0.83989424 -0.44114143 0.049719162
-0.81002593 -0.42527297 -0.17783399
-0.81153679 -0.42588577 0.080183282
-0.79943305 -0.41935593 -0.14298111
-0.77882546 -0.40837234 0.10797625
-0.83164364 -0.43588245 -0.11528841
-0.79771513 -0.41792232 -0.078788787
-0.83697033 -0.43811586 -0.04950982
-0.8221215 -0.4301604 -0.016195834
-0.80687296 -0.42056862 -0.24380755
-0.80506361 -0.41962552 0.015846785
-0.81227255 -0.42320281 -0.21145399
-0.82725745 -0.43082678 0.048881788
-0.82369536 -0.42878872 -0.18050532
-0.82185572 -0.42764878 0.081054844
-0.8446278 -0.43949813 -0.15080284
-0.76432526 -0.39754358 0.1057826
-0.85421985 -0.44411048 -0.11821327
-0.85574752 -0.44452509 -0.084366761
-0.84196371 -0.43717867 -0.049719162
-0.82184315 -0.42636696 -0.01616093
-0.85116464 -0.44007158 -0.2567485
-0.82606483 -0.42691174 0.016230738
-0.81720752 -0.42215383 -0.2123538
-0.83223051 -0.42991444 0.04909113
-0.82860166 -0.42785639 -0.18126856
-0.81972837 -0.42309338 0.080706216
-0.83035713 -0.42839581 -0.14798702
-0.77276558 -0.39851257 0.10675755
-0.83988476 -0.43294013 -0.11601962
-0.8696146 -0.44807306 -0.085586935
-0.83105433 -0.4278377 -0.048986461
-0.82680857 -0.42546943 -0.016230738
-0.85441476 -0.43797901 -0.25726613
-0.81857836 -0.41960901 0.016056214
-0.82727468 -0.42388457 -0.2146033
-0.83017081 -0.42518583 0.048881788
-0.81960469 -0.41959342 -0.17897885
-0.83538949 -0.42749038 0.082100704
-0.82649773 -0.42294025 -0.14704841
-0.78468674 -0.40137169 0.10821999
-0.83601338 -0.42744151 -0.11528841
-0.84810764 -0.4332518 -0.083320886
-0.82314336 -0.41850799 -0.24743101
-0.83251691 -0.42309093 0.016300548
-0.82527435 -0.41922924 -0.2137035
-0.84945846 -0.43132773 0.049928509
-0.82449269 -0.41865093 -0.17974208
-0.82614261 -0.41930735 0.081054844
-0.82973051 -0.42094654 -0.14736128
-0.77191937 -0.39144763 0.10627007
-0.84635341 -0.42900816 -0.1165071
-0.81399405 -0.41242728 -0.079834662
-0.82860148 -0.41946477 -0.048672445
-0.83332765 -0.42149192 -0.016300548
-0.8297745 -0.41824067 -0.24898393
-45.197899 -22.771732 0.88340592
-8.0445442 -4.0512648 -2.0794475
-0.86803561 -0.43695608 -0.18890092
-0.93794793 -0.471944 0.09186215
-0.82060653 -0.41272202 -0.14548407
-0.77860183 -0.39142561 0.10700129
-15.339269 -7.7081442 -2.1078525
-21.628448 -10.863791 -2.1175358
-34.343082 -17.235247 -2.013783
-7.0179262 -3.5066597 -2.1021285
-45.051697 -22.50124 0.87900788
-8.0568943 -4.0222869 -2.0789976
-9.6107845 -4.7959514 -2.0878322
-11.848015 -5.9072013 -2.0968478
-0.77818662 -0.38782015 0.10675755
-15.305669 -7.6244583 -2.0995653
-21.671686 -10.786225 -2.1178844
-34.299328 -17.063658 -2.0077121
-7.0307322 -3.4809124 -2.1021285
-45.000946 -22.279949 0.87649477
-8.0656452 -3.9915469 -2.0776479
-9.6036606 -4.7485089 -2.0824895
-0.9209466 -0.45496032 -0.16269186
-0.76885706 -0.37982598 0.10529512
-15.332191 -7.570981 -2.0995653
-21.709206 -10.710511 -2.1178844
-34.318642 -16.916643 -2.0052001
-7.0306997 -3.4503932 -2.098505
-44.942261 -22.046177 0.8737722
-8.0889692 -3.9662478 -2.0798974
-9.6007843 -4.7054548 -2.0782917
-0.92252922 -0.45174262 -0.16269186
-0.77380997 -0.37875083 0.1057826
-15.388364 -7.5286956 -2.1034651
-21.760782 -10.641664 -2.1192791
-34.205208 -16.712572 -1.9951515
-7.0305405 -3.419915 -2.0948815
-44.92881 -21.855036 0.87209672
-8.1055832 -3.9411058 -2.0807972
-9.6242151 -4.6753445 -2.0798182
-0.78220516 -0.37964982 0.10675755
-15.416819 -7.4793577 -2.1039524
-21.790621 -10.562166 -2.1185818
-34.228088 -16.583374 -1.9932674
-7.0505424 -3.4007778 -2.0974696
-44.857124 -21.62686 0.86923456
-8.1210451 -3.9136362 -2.0812473
-9.6591225 -4.6527753 -2.0840161
-11.886618 -5.7206435 -2.089339
-0.79246998 -0.38121977 0.10797625
-15.485768 -7.4461417 -2.1098022
-21.850668 -10.50193 -2.121022
-34.17054 -16.408463 -1.9865683
-7.0571423 -3.3736465 -2.0959167
-44.793407 -21.40377 0.86654693
-8.1293821 -3.8827424 -2.0798974
-9.6770773 -4.6198764 -2.0843976
-1.0051666 -0.47965556 0.097440116
-11.917212 -5.6842184 -2.0912163
-0.77408528 -0.36905396 0.10529512
-15.490161 -7.3817968 -2.1068773
-21.883596 -10.42388 -2.1206734
-34.242039 -16.295942 -1.9874059
-7.088079 -3.3580918 -2.1016109
-44.752182 -21.192495 0.86431301
-8.1516933 -3.8585107 -2.0821469
-9.6895933 -4.5843911 -2.0836341
-0.93478966 -0.44207263 0.090467662
-11.929837 -5.6392078 -2.0899646
-0.78075337 -0.36889395 0.10602634
-15.494296 -7.3175044 -2.1039524
-21.887419 -10.332118 -2.1175358
-34.215611 -16.137133 -1.9825908
-7.1015062 -3.3341501 -2.1021285
-44.735378 -20.993673 0.86256778
-8.1651125 -3.8300343 -2.0821469
-1.1338414 -0.53161311 0.065629296
-9.7019825 -4.5488734 -2.082871
-11.970914 -5.6075888 -2.0937192
-0.78563184 -0.36784965 0.10651381
-15.537725 -7.2717891 -2.1063898
-21.923349 -10.255659 -2.1175358
-34.217453 -15.992229 -1.9794508
-7.1043444 -3.3052645 -2.0995402
-44.717716 -20.795238 0.8608225
-8.1872673 -3.8056164 -2.0843966
-9.7231445 -4.5174584 -2.0840161
-11.997581 -5.5690942 -2.0949705
-0.79411393 -0.36844695 0.10748877
-15.566613 -7.2191815 -2.1068773
-21.955399 -10.177393 -2.1171873
-34.135326 -15.808908 -1.9714956
-7.1140838 -3.2796381 -2.0990226
-44.597523 -20.550308 0.8571226
-8.2040405 -3.7786438 -2.0852964
-9.7442036 -4.4859557 -2.0851607
-12.015155 -5.5263524 -2.0946577
-0.7953952 -0.36567289 0.10748877
-15.598934 -7.1681151 -2.1078525
-21.990793 -10.100687 -2.1171873
-34.24839 -15.716311 -1.9748452
-7.1360316 -3.2596014 -2.1021285
-44.53801 -20.334707 0.85460943
-8.2029982 -3.743511 -2.0816972
-9.7669487 -4.455174 -2.0866873
-12.036168 -5.4851999 -2.0949705
-0.77679533 -0.35384241 0.10480764
-15.626231 -7.1179929 -2.1083398
-22.025919 -10.023862 -2.1171873
-34.24123 -15.568551 -1.9712863
-7.1432815 -3.2343254 -2.1010931
-44.645279 -20.20504 0.85537732
-8.224246 -3.7203043 -2.0839467
-9.7816687 -4.422761 -2.0866873
-12.061494 -5.4485087 -2.0962222
-0.78520131 -0.35453206 0.1057826
-15.660604 -7.0710354 -2.1098022
-22.040876 -9.9425735 -2.1154442
-34.278099 -15.44836 -1.970449
-7.1486807 -3.2082465 -2.0995402
-44.905441 -20.143635 0.85907727
-8.2329798 -3.6914177 -2.0830467
-9.7962818 -4.3902988 -2.0866873
-12.079494 -5.408484 -2.0962222
-0.79180843 -0.35435894 0.10651381
-15.688817 -7.0179477 -2.1102896
-22.073727 -9.8694267 -2.1154442
-34.321846 -15.331347 -1.9700303
-7.1686625 -3.1871974 -2.1021285
-45.176487 -20.076101 0.86291683
-8.2529402 -3.6658192 -2.0848465
-9.804369 -4.3528895 -2.0851607
-12.092884 -5.3638802 -2.0952835
-0.8093732 -0.35883385 0.10870746
-15.727736 -6.9695783 -2.1122396
-22.100754 -9.789093 -2.114747
-34.331318 -15.192057 -1.9675181
-7.1744394 -3.1598198 -2.1005754
-45.414673 -19.992405 0.86612803
-8.2746048 -3.6409125 -2.087096
-9.8284883 -4.3225932 -2.087069
-12.109724 -5.3208399 -2.0949705
-0.80153304 -0.3520155 0.10748877
-15.75924 -6.9178228 -2.1132145
-22.123842 -9.7070827 -2.1137011
-34.252438 -15.014384 -1.9599817
-7.1995902 -3.1409366 -2.1047165
-45.696808 -19.92646 0.87017697
-8.2693977 -3.6042221 -2.0825968
-9.8597155 -4.2953157 -2.0905035
-12.120979 -5.2753863 -2.0937192
-0.80275697 -0.34921545 0.10748877
-15.783292 -6.8627706 -2.1132145
-22.1649 -9.6329727 -2.1143982
-34.322956 -14.902681 -1.9610285
-7.2069645 -3.1142535 -2.1036813
-45.997398 -19.866743 0.87457502
-8.2926636 -3.5799685 -2.0852964
-9.8728476 -4.2600923 -2.0901217
-12.159274 -5.2416453 -2.0971608
-0.80944037 -0.34876752 0.10821999
-15.8108 -6.8092051 -2.1137023
-22.21303 -9.5618515 -2.1157928
-34.367428 -14.779625 -1.9606098
-7.2124634 -3.0867972 -2.1021285
-46.279736 -19.797293 0.87862396
-8.3069019 -3.5517659 -2.085746
-9.8714113 -4.2186599 -2.0866873
-12.19203 -5.2053742 -2.0996637
-0.81430441 -0.34749818 0.10870746
-15.841774 -6.757092 -2.114677
-22.235277 -9.4795618 -2.114747
-34.393082 -14.648621 -1.9591444
-7.2231951 -3.0616024 -2.1021285
-46.56583 -19.727671 0.8827427
-8.3246336 -3.5250251 -2.087096
-9.8896914 -4.185709 -2.0874505
-12.211946 -5.1635504 -2.0999765
-0.82831192 -0.35006315 0.11041363
-15.876235 -6.7063866 -2.1161394
-22.271902 -9.4034376 -2.1150956
-34.418243 -14.517609 -1.957679
-7.2320566 -3.0356221 -2.1016109
-46.837505 -19.659824 0.88665205
-8.3416662 -3.4996657 -2.0884457
-9.922349 -4.158751 -2.0912669
-12.218069 -5.1184516 -2.0980992
-0.8312993 -0.34808111 0.11065737
-15.909375 -6.6582999 -2.1176019
-22.308266 -9.327179 -2.1154442
-34.410912 -14.38029 -1.9545387
-7.2420835 -3.0116227 -2.1016109
-51.747471 -21.508625 0.97817248
-8.3358374 -3.4630485 -2.0839467
-9.9469643 -4.1303411 -2.0935564
-12.246809 -5.0803094 -2.0999765
-0.83067554 -0.34441689 0.11041363
-15.928853 -6.6012053 -2.1171145
-22.346436 -9.2561989 -2.1161413
-34.442444 -14.252447 -1.953492
-7.2739868 -2.9951525 -2.1078224
-51.700172 -21.288176 0.97593856
-8.3508787 -3.4368713 -2.0848465
-9.9649534 -4.0970874 -2.0943196
-12.265417 -5.0404201 -2.1002893
-0.87955517 -0.36127001 0.11675084
-15.943309 -6.5453305 -2.1161394
-22.389671 -9.1826744 -2.1171873
-34.626274 -14.194212 -1.9612379
-7.2843976 -2.9697433 -2.1078224
-51.65934 -21.050236 0.9737047
-8.3796625 -3.412854 -2.0888956
-9.9682827 -4.0578389 -2.09203
-12.296618 -5.0006399 -2.1024795
-15.985583 -6.4943233 -2.1185768
-22.417896 -9.1029644 -2.1168387
-34.618839 -14.04318 -1.9578884
-7.2857628 -2.9406824 -2.1052344
-51.610107 -20.820404 0.97140098
-8.3915234 -3.3835845 -2.0888956
-9.9860296 -4.0244837 -2.0927932
-12.317661 -4.9591646 -2.1031051
-16.008156 -6.4384828 -2.1185768
-22.442139 -9.0216875 -2.1161413
-34.708424 -13.938625 -1.9601911
-7.2959838 -2.9152305 -2.1052344
-51.519043 -20.574869 0.96832931
-8.4105234 -3.3571615 -2.0906951
-9.9963694 -3.9881458 -2.09203
-12.327558 -4.9132118 -2.1018538
-16.045286 -6.388442 -2.1205268
-22.469793 -8.9418154 -2.1157928
-34.704895 -13.796734 -1.9572604
-7.3133001 -2.8925886 -2.1073048
-51.479137 -20.361254 0.9663049
-8.4089251 -3.3242376 -2.0875459
-10.01936 -3.9568357 -2.0939381
-12.358482 -4.8781071 -2.1043568
-16.077461 -6.3395672 -2.1219893
-22.523115 -8.8720884 -2.1178844
-34.683552 -13.65523 -1.953492
-7.3390422 -2.8746622 -2.1119635
-51.427002 -20.13332 0.96400118
-8.4331799 -3.299835 -2.0906951
-10.030597 -3.9228728 -2.0935564
-12.379115 -4.8363724 -2.1049824
-16.095797 -6.2819638 -2.1215017
-22.530138 -8.788662 -2.1157928
-34.701233 -13.522476 -1.9518174
-7.3400254 -2.8455346 -2.1093752
-51.351521 -19.897326 0.96127856
-8.4428301 -3.2696738 -2.0902452
-10.051553 -3.8906703 -2.0950828
-12.408818 -4.7981215 -2.1071725
-16.143551 -6.235755 -2.1249142
-22.582981 -8.7185783 -2.1178844
-34.792953 -13.418502 -1.9543295
-7.3481102 -2.8192036 -2.1088579
-51.304901 -19.673574 0.95911443
-8.4541922 -3.2401826 -2.0902452
-10.061406 -3.8541553 -2.0943196
-12.427338 -4.7554832 -2.1074855
-16.170782 -6.1814909 -2.1256454
-22.640842 -8.6456995 -2.1203249
-34.850769 -13.30125 -1.9549574
-7.3620057 -2.7936232 -2.1098928
-51.24987 -19.447531 0.95681071
-8.4763842 -3.2147985 -2.0929446
-10.086481 -3.8214259 -2.0966094
-12.433598 -4.7057099 -2.1056082
-16.192261 -6.1250067 -2.1256454
-22.771528 -8.6046448 -2.1297376
-35.003929 -13.212925 -1.9608192
-7.3735209 -2.7685869 -2.1104105
-51.332035 -19.263788 0.95702016
-8.4771614 -3.1796029 -2.0902452
-10.096082 -3.7848153 -2.0958462
-12.453649 -4.6636624 -2.1062338
-16.225754 -6.0697937 -2.1271076
-22.808889 -8.527895 -2.1304348
-35.019897 -13.079483 -1.9591444
-7.3903842 -2.7455244 -2.1124811
-51.590588 -19.16588 0.96065027
-8.5022736 -3.1569023 -2.0938444
-10.109231 -3.7495525 -2.0958462
-12.48942 -4.6298909 -2.1096754
-16.260689 -6.0214686 -2.1290576
-22.845995 -8.4509907 -2.1311321
-35.021866 -12.948044 -1.9568417
-7.3994479 -2.7210014 -2.1124811
-51.976254 -19.102949 0.96658409
-8.5132427 -3.1272023 -2.0938444
-10.117924 -3.7146549 -2.0950828
-12.50736 -4.5869465 -2.1099885
-16.270424 -5.9605742 -2.1275952
-22.885118 -8.3792925 -2.1321781
-35.036842 -12.814731 -1.9551668
-7.4034538 -2.6931744 -2.1109281
-52.230556 -18.989729 0.97007459
-8.5296001 -3.0994649 -2.0951941
-10.149282 -3.6860161 -2.0988991
-12.532579 -4.5466309 -2.1115527
-16.313528 -5.9118547 -2.1305199
-35.077602 -12.690989 -1.9549574
-7.4146276 -2.667969 -2.1114457
-52.605122 -18.918274 0.97579896
-8.5513706 -3.0736268 -2.0978935
-10.162087 -3.6505656 -2.0988991
-12.544655 -4.5015211 -2.1109269
-16.334064 -5.8548775 -2.1305199
-35.069035 -12.549624 -1.9520266
-7.4202552 -2.6407752 -2.1104105
-52.938377 -18.829693 0.98075545
-8.5547037 -3.041147 -2.0960939
-10.172917 -3.614413 -2.0985174
-12.562153 -4.458365 -2.1112397
-16.361887 -5.8004785 -2.131495
-35.146519 -12.439137 -1.9539108
-7.4512959 -2.6225538 -2.1166222
-53.290512 -18.745646 0.98606098
-8.5652657 -3.0112691 -2.0960939
-10.194734 -3.5821347 -2.1004255
-12.590687 -4.4190636 -2.1134298
-16.389526 -5.7459555 -2.1324699
-17.317602 -6.0679283 -1.6054087
-35.197266 -12.319016 -1.9543295
-7.4567561 -2.5952578 -2.115587
-8.5825663 -2.9854093 -2.0978935
-10.207175 -3.5465264 -2.1004255
-12.612735 -4.3798852 -2.1146812
-16.415993 -5.6941757 -2.1334448
-17.331146 -6.0048366 -1.6047115
-35.237923 -12.202228 -1.9543295
-7.458015 -2.5680001 -2.1135163
-8.594779 -2.9560661 -2.0983434
-10.21888 -3.5126581 -2.1004255
-12.63729 -4.339036 -2.1162457
-16.447035 -5.6407061 -2.1349075
-17.350964 -5.9473305 -1.6047115
-35.306755 -12.088206 -1.9557949
-7.4742479 -2.5444429 -2.115587
-8.608736 -2.9272993 -2.0992434
-10.245949 -3.4820223 -2.1034784
-12.652359 -4.2948966 -2.1162457
-16.477903 -5.5870848 -2.1363697
-17.398037 -5.8956795 -1.6071519
-35.31847 -11.954642 -1.9541202
-7.4647746 -2.5121751 -2.1104105
-8.6152067 -2.8959911 -2.0983434
-10.269208 -3.4499872 -2.1057682
-12.659782 -4.2481914 -2.1149943
-16.512365 -5.5345755 -2.1383197
-17.456295 -5.8475699 -1.6106381
-35.420593 -11.851563 -1.9574696
-7.4954953 -2.4934201 -2.1166222
-8.6289616 -2.8671296 -2.0992434
-10.288641 -3.4165947 -2.1072946
-12.687657 -4.2083302 -2.1171842
-16.516508 -5.4719071 -2.1363697
-35.321426 -11.681442 -1.9497238
-7.5041542 -2.4672389 -2.1166222
-8.6481733 -2.8400309 -2.1014926
-10.296776 -3.3794327 -2.1065314
-12.711656 -4.1670928 -2.1187487
-16.554373 -5.4204016 -2.1388073
-35.453106 -11.587869 -1.9547482
-7.5090456 -2.4398372 -2.115587
-8.6673031 -2.8128357 -2.1037421
-10.319714 -3.347106 -2.1088212
-12.748676 -4.1299977 -2.122503
-16.588303 -5.3674712 -2.1407571
-35.390709 -11.430892 -1.9490958
-7.510159 -2.4112484 -2.1135163
-8.6715031 -2.7807767 -2.1023927
-10.336942 -3.31286 -2.109966
-12.751726 -4.0818605 -2.120626
-16.625845 -5.3155789 -2.1431944
-23.41581 -7.4819479 -2.150655
-35.55978 -11.34857 -1.9562136
-7.5258961 -2.3873565 -2.115587
-8.6700096 -2.7469585 -2.0996931
-10.36716 -3.2826834 -2.1137822
-12.769664 -4.0385151 -2.1212516
-16.636728 -5.2551203 -2.1422195
-23.449387 -7.4025645 -2.1513524
-35.644894 -11.238795 -1.9587257
-7.5397129 -2.3628044 -2.1171398
-8.698144 -2.7224987 -2.104192
-10.372933 -3.2447193 -2.1126373
-12.796882 -3.9980392 -2.1234417
-16.65876 -5.1981969 -2.1427069
-23.501711 -7.32897 -2.1537926
-35.683907 -11.114302 -1.9587257
-7.5460706 -2.3358982 -2.1166222
-8.7001467 -2.6898193 -2.1023927
-10.380446 -3.2073295 -2.1118741
-12.820197 -3.9562604 -2.125006
-16.684393 -5.1423535 -2.1436818
-23.561422 -7.2574501 -2.1569302
-35.810299 -11.016687 -1.9635406
-7.5412464 -2.3055894 -2.1129987
-8.7169371 -2.6617098 -2.104192
-10.39158 -3.1710753 -2.1118741
-12.824481 -3.9086025 -2.1234417
-16.725027 -5.091023 -2.1466067
-23.582802 -7.1739955 -2.1565816
-35.825603 -10.884661 -1.9622846
-7.5640426 -2.28372 -2.1171398
-8.7280426 -2.6318264 -2.1046422
-10.419501 -3.1398826 -2.1153085
-12.836156 -3.8632433 -2.1231289
-16.746498 -5.0337529 -2.1470942
-23.630598 -7.0985103 -2.1586735
-35.890167 -10.767565 -1.96375
-7.5756707 -2.2584064 -2.118175
-8.7259693 -2.5980091 -2.1019428
-10.424753 -3.1018126 -2.1141639
-12.847669 -3.8178532 -2.1228158
-16.770714 -4.9804525 -2.1480694
-23.655231 -7.015986 -2.1586735
-35.942852 -10.646755 -1.9645873
-7.5757065 -2.2310889 -2.1161046
-8.7420149 -2.5712576 -2.1037421
-10.4444 -3.0699937 -2.1160717
-12.871631 -3.7785659 -2.1246932
-16.787136 -4.9248104 -2.1480694
-23.705135 -6.9453454 -2.1611137
-35.974121 -10.526382 -1.9643779
-7.6016126 -2.2113502 -2.1212809
-8.7542362 -2.5433409 -2.1046422
-10.446981 -3.0331519 -2.1145453
-12.88409 -3.7358606 -2.1246932
-16.811852 -4.8683906 -2.1490443
-36.127792 -10.44142 -1.9708676
-7.5725274 -2.1728196 -2.1109281
-8.7705526 -2.5149157 -2.1064417
-10.452365 -2.9932222 -2.1134005
-12.905293 -3.6907854 -2.1259446
-16.83256 -4.8107672 -2.1495316
-36.150459 -10.304554 -1.9700303
-7.6079493 -2.1542666 -2.1186929
-8.7872124 -2.4848762 -2.1082413
-10.468419 -2.9583175 -2.1145453
-12.914294 -3.6446447 -2.1253188
-16.861544 -4.7522712 -2.1509941
-20.781929 -5.8454523 -1.1313989
-7.6247244 -2.1302953 -2.1212809
-8.7789402 -2.4494722 -2.104192
-10.490028 -2.9249215 -2.1168351
-12.926939 -3.5995398 -2.1253188
-16.885679 -4.6955152 -2.151969
-20.65979 -5.7333565 -1.1236531
-7.637701 -2.1052089 -2.122834
-8.7930737 -2.4203644 -2.1055419
-10.502067 -2.8888094 -2.1172168
-12.954662 -3.5585797 -2.1278217
-16.901968 -4.6365404 -2.151969
-20.65271 -5.6538167 -1.1221877
-7.6450038 -2.0785353 -2.122834
-8.8010521 -2.3911917 -2.1055419
-10.493138 -2.8469913 -2.1134005
-12.964487 -3.5150838 -2.1275089
-16.91725 -4.5804691 -2.151969
-20.646898 -5.5825648 -1.8712338
-20.667488 -5.5842609 -1.1219784
-7.6387935 -2.0496674 -2.1192105
-8.8168736 -2.3624749 -2.1073413
-10.5139 -2.8152258 -2.1156902
-12.978584 -3.4703207 -2.1278217
-16.959988 -4.528554 -2.1553814
-20.714386 -5.5232921 -1.8755915
-7.6425185 -2.020668 -2.118175
-8.8326035 -2.3336751 -2.1091411
-10.535538 -2.7796764 -2.11798
-12.985487 -3.4212189 -2.1268833
-16.991049 -4.4733677 -2.1573315
-7.647656 -1.9934908 -2.1176574
-8.8354397 -2.2998133 -2.1077914
-10.543278 -2.742389 -2.1175983
-13.006911 -3.3783495 -2.1284475
-17.015015 -4.4130592 -2.1583064
-7.6714082 -1.9711102 -2.1223164
-8.8358631 -2.2670205 -2.1059918
-10.554688 -2.7060568 -2.11798
-13.028192 -3.3353786 -2.1300118
-17.026472 -4.3526516 -2.1578188
-23.047031 -5.8874698 -2.0811048
-7.6744957 -1.9433731 -2.1212809
-8.8569479 -2.2395074 -2.1091411
-10.558359 -2.667757 -2.1168351
-13.041671 -3.2903645 -2.1303248
-17.056959 -4.2970743 -2.1597686
-23.108017 -5.8171988 -2.0847654
-23.174276 -5.8252783 -1.2522949
-7.6756101 -1.915169 -2.1197281
-8.8794518 -2.2138956 -2.1127403
-10.569511 -2.6313591 -2.1172168
-13.054427 -3.2475748 -2.1306376
-17.067263 -4.2395301 -2.1592813
-23.166857 -5.7460928 -2.0882516
-23.276827 -5.7690568 -1.2567958
-7.6725388 -1.8873975 -2.1171398
-8.887126 -2.182889 -2.1127403
-10.585805 -2.5981662 -2.1187432
-13.052254 -3.1986949 -2.1284475
-17.093527 -4.1827593 -2.1607437
-23.329998 -5.7001896 -2.1011508
-25.312763 -6.1799488 -1.3655499
-7.6925483 -1.8624437 -2.1207633
-8.8795385 -2.1481876 -2.1091411
-10.604799 -2.5616522 -2.1206512
-13.073491 -3.1531501 -2.1300118
-17.119602 -4.1258559 -2.1622059
-7.6896067 -1.8333418 -2.118175
-8.9025192 -2.1192362 -2.1127403
-10.607947 -2.5232582 -2.1195064
-13.09595 -3.1102343 -2.1318891
-17.138472 -4.0639973 -2.1626935
-24.210625 -5.7365346 -2.1768019
-25.20085 -5.9618721 -1.3571762
-8.9075994 -2.0892572 -2.1122904
-10.597574 -2.4817374 -2.1156902
-13.108116 -3.067239 -2.1322021
-17.15572 -4.0080485 -2.1631808
-24.222738 -5.6501832 -2.1761045
-25.232151 -5.8809953 -1.3578042
-7.7094369 -1.7826988 -2.1202457
-8.9262314 -2.0607834 -2.1149898
-10.613398 -2.4483457 -2.1172168
-13.124516 -3.0227971 -2.1331406
-17.20056 -3.9552526 -2.1670809
-24.268526 -5.5760717 -2.1785448
-25.260315 -5.794663 -1.3582228
-7.7118454 -1.7549195 -2.1192105
-8.9330158 -2.0311713 -2.1149898
-10.644855 -2.4164984 -2.1217961
-13.126762 -2.9775097 -2.1318891
-17.229069 -3.9017029 -2.1690307
-24.280069 -5.4895668 -2.1778476
-25.374849 -5.7324347 -1.3633518
-7.7289333 -1.7318705 -2.1223164
-8.9286404 -1.9974239 -2.1122904
-10.645561 -2.377614 -2.1202698
-13.148643 -2.9342515 -2.1337664
-17.250336 -3.8432651 -2.1700058
-24.299086 -5.4047794 -2.1778476
-27.20702 -6.0416183 -1.460592
-7.7408881 -1.7047772 -2.1238692
-8.9359016 -1.9646873 -2.1122904
-10.661874 -2.3402638 -2.1217961
-13.159309 -2.8860426 -2.1337664
-17.244913 -3.7757673 -2.1675684
-24.345984 -5.3216391 -2.1802881
-27.219223 -5.9397292 -1.4600686
-7.7395315 -1.6747613 -2.1217985
-8.9506626 -1.9335662 -2.11409
-10.669978 -2.3030348 -2.1217961
-13.185248 -2.8411176 -2.1362693
-17.281925 -3.7175455 -2.1704934
-24.379995 -5.2399716 -2.1816826
-27.257368 -5.8484511 -1.4610107
-7.7396622 -1.6465291 -2.1202457
-8.9611692 -1.9031223 -2.1149898
-10.67027 -2.2641454 -2.1202698
-13.195085 -2.7950778 -2.1362693
-17.298679 -3.6580184 -2.1709807
-24.413729 -5.1581378 -2.1830769
-27.320612 -5.7623363 -1.4633135
-7.7491446 -1.6202912 -2.1212809
-8.9639425 -1.8710337 -2.11409
-10.691562 -2.2296879 -2.122941
-13.197025 -2.7473907 -2.1350179
-17.323006 -3.6000397 -2.1724429
-24.486208 -5.0842276 -2.1879578
-7.7585378 -1.5940111 -2.1223164
-8.9700975 -1.8412977 -2.11409
-10.697356 -2.1919622 -2.1225593
-13.217675 -2.7059894 -2.1368952
-17.330957 -3.5417788 -2.1719556
-24.585798 -5.0154428 -2.1952789
-7.7751436 -1.5705688 -2.1254222
-8.9688292 -1.8084338 -2.1122904
-10.700717 -2.1557004 -2.1217961
-13.22704 -2.6598341 -2.1368952
-17.345161 -3.4816513 -2.1721995
-24.500715 -4.9135137 -2.1862147
-7.7767878 -1.5426669 -2.1243868
-8.9903793 -1.7801436 -2.1158895
-10.721659 -2.1210015 -2.1244676
-13.247872 -2.6159427 -2.1387722
-17.365 -3.4226191 -2.1731744
-24.556812 -4.8356638 -2.1897008
-37.104874 -7.2796922 -0.66001511
-7.7688518 -1.5129262 -2.1207633
-38.048634 -7.4028068 0.67659491
-9.0175819 -1.7528405 -2.1208386
-10.721288 -2.0820656 -2.122941
-13.268559 -2.571938 -2.1406496
-17.392435 -3.3649952 -2.1751244
-24.600927 -4.755208 -2.1921411
-37.200748 -7.1637397 -0.66127169
-7.7835727 -1.4876137 -2.1233516
-8.9930182 -1.7155099 -2.1136403
-10.732347 -2.0453658 -2.1237042
-13.258049 -2.5219147 -2.1375208
-17.411873 -3.3057485 -2.1760993
-24.629122 -4.6715331 -2.193187
-37.909328 -7.1630363 -0.67341858
-7.7906165 -1.4607906 -2.1238692
-9.0008669 -1.6844683 -2.11409
-10.743281 -2.0086095 -2.1244676
-13.278422 -2.477797 -2.1393981
-17.427212 -3.245676 -2.1765866
-24.696209 -4.5950141 -2.1977191
-29.938383 -5.5595627 -1.5958281
-7.8032694 -1.434983 -2.1259398
-9.0083208 -1.654963 -2.1145399
-10.757952 -1.9725121 -2.125994
-13.290452 -2.4344616 -2.1400237
-17.422256 -3.1850109 -2.1746368
-24.731699 -4.5123496 -2.1994624
-7.8098855 -1.4094431 -2.1264575
-9.0197945 -1.6245438 -2.1158895
-10.745111 -1.9333497 -2.1221778
-13.312479 -2.3904984 -2.1422138
-17.4489 -3.1269772 -2.1765866
-24.777905 -4.4359341 -2.2022512
-7.8090506 -1.3811632 -2.1249044
-9.0273304 -1.5933876 -2.1163394
-10.75566 -1.8965145 -2.122941
-13.311015 -2.3423026 -2.1406496
-17.475349 -3.0688007 -2.1785367
-24.79324 -4.3494096 -2.2022512
-7.8195353 -1.3548856 -2.1264575
-9.0366783 -1.5625283 -2.1172395
-10.758347 -1.8582901 -2.1221778
-13.326898 -2.2971625 -2.141901
-17.489868 -3.0084543 -2.179024
-24.820051 -4.2648621 -2.2032971
-41.817455 -7.1705332 -2.2235458
-7.8185024 -1.3266122 -2.1249044
-9.0401564 -1.5306515 -2.1167896
-10.753152 -1.8187603 -2.1198881
-13.334835 -2.2506318 -2.141901
-17.504179 -2.9480395 -2.1795115
-24.850506 -4.1808476 -2.2046916
-42.409504 -7.1197414 -2.2536912
-7.830709 -1.3005801 -2.1269751
-9.0415983 -1.4984484 -2.1158895
-10.778804 -1.7844225 -2.1237042
-13.350406 -2.2053583 -2.1431525
-17.506527 -2.8856328 -2.1785367
-24.876741 -4.0960193 -2.2057374
-33.638813 -5.520628 -0.59502238
-7.8332944 -1.272928 -2.1264575
-9.0445938 -1.4681447 -2.1154397
-10.755898 -1.7420753 -2.11798
-13.361546 -2.1617053 -2.1437781
-17.50816 -2.826297 -2.1775615
-24.930229 -4.0154939 -2.2092237
-43.746605 -7.0384016 -2.3221467
-7.8317485 -1.2460338 -2.1249044
-9.0573635 -1.4377861 -2.1172395
-10.781007 -1.7094748 -2.1217961
-13.37291 -2.1156685 -2.1444039
-17.541451 -2.7688787 -2.1804864
-24.919792 -3.929076 -2.2071321
-7.8322325 -1.2180924 -2.1238692
-9.060401 -1.4058644 -2.1167896
-10.800488 -1.6739335 -2.1244676
-13.372406 -2.0677707 -2.1431525
-17.558857 -2.7088406 -2.1814616
-24.953045 -3.8451052 -2.2088752
-45.938515 -7.062407 -2.4358203
-7.8402567 -1.1913258 -2.1249044
-9.0575457 -1.3730605 -2.1149898
-10.802382 -1.6356344 -2.1237042
-13.389309 -2.0225513 -2.1447167
-17.576056 -2.6487193 -2.1824365
-24.98996 -3.7615316 -2.2109668
-46.824036 -7.0313325 -2.4814572
-7.8539219 -1.1653702 -2.1274927
-9.0601225 -1.3427311 -2.1145399
-10.8022 -1.5970581 -2.1225593
-13.407667 -1.9798739 -2.146594
-17.584743 -2.5904198 -2.1824365
-25.00688 -3.6748559 -2.2113154
-47.732384 -7.0059562 -2.5283504
-7.8596549 -1.1395961 -2.1280103
-9.0743971 -1.3124938 -2.1167896
-10.805493 -1.5609468 -2.1221778
-13.418408 -1.9336203 -2.1472197
-17.587784 -2.5281739 -2.1817052
-25.042595 -3.5953069 -2.2134073
-7.8540215 -1.1108011 -2.1254222
-9.0883465 -1.2837551 -2.1190388
-10.814765 -1.5237664 -2.122941
-13.436482 -1.890767 -2.149097
-17.592138 -2.4692845 -2.1812177
-25.019472 -3.5029023 -2.2102695
-49.195221 -6.8789229 -2.6032953
-7.8676085 -1.0833246 -2.1280103
-9.0777645 -1.2467277 -2.1154397
-10.824167 -1.4846516 -2.1237042
-13.433858 -1.8378217 -2.1475327
-17.617226 -2.4038646 -2.1831677
-25.040041 -3.4122536 -2.2109668
-7.8732567 -1.0561116 -2.1285279
-9.0837793 -1.2168763 -2.1158895
-10.837068 -1.4478987 -2.1252308
-13.439878 -1.7932628 -2.1475327
-17.632971 -2.346477 -2.1841426
-25.0755 -3.3279717 -2.2130587
-7.880547 -1.0304978 -2.1295633
-9.0821762 -1.1844065 -2.1145399
-10.841809 -1.4119534 -2.1252308
-13.448014 -1.7465951 -2.1478455
-17.637117 -2.2844017 -2.183655
-25.106155 -3.2473607 -2.2148015
-7.8898458 -1.0037144 -2.1311162
-9.0862551 -1.1526963 -2.1145399
-10.834986 -1.372619 -2.122941
-13.45207 -1.6993912 -2.1475327
-17.648922 -2.2233226 -2.1841426
-25.085711 -3.1557186 -2.2120128
-7.8741288 -0.97379822 -2.1259398
-9.1095638 -1.1233549 -2.1190388
-10.851402 -1.3362315 -2.1252308
-13.465763 -1.653387 -2.1487842
-17.660517 -2.162185 -2.1846299
-25.096575 -3.0681331 -2.2120128
-7.8947425 -0.94837993 -2.1305985
-9.1114941 -1.0913199 -2.1185889
-10.859899 -1.2988108 -2.125994
-13.471453 -1.6063755 -2.1487842
-17.67584 -2.1014576 -2.1856048
-25.111086 -2.9809861 -2.2123613
-7.9018421 -0.92126352 -2.1316338
-9.1075058 -1.0586081 -2.1167896
-10.860466 -1.2604419 -2.1252308
-13.478939 -1.5595682 -2.149097
-17.694902 -2.0411134 -2.1870675
-25.12134 -2.8933132 -2.2123613
-7.9050097 -0.89367509 -2.1316338
-9.1129026 -1.0286188 -2.1172395
-10.868702 -1.2229627 -2.125994
-13.497778 -1.516405 -2.1512871
-17.701574 -1.9824232 -2.1870675
-25.143167 -2.8069315 -2.2134073
-7.9060092 -0.86724716 -2.1311162
-9.1222486 -0.99743778 -2.1185889
-10.880505 -1.1877686 -2.1275203
-13.495133 -1.4684246 -2.1500356
-17.696541 -1.919336 -2.1856048
-25.184032 -2.7269692 -2.2161963
-7.8955412 -0.83821505 -2.1274927
-9.1276131 -0.96579605 -2.1190388
-10.88068 -1.149366 -2.1267571
-13.500176 -1.4213116 -2.1500356
-17.718929 -1.8592088 -2.1875548
-25.205284 -2.6402946 -2.217242
-7.8984194 -0.81064916 -2.1274927
-9.1348066 -0.93432313 -2.1199389
-10.888532 -1.1117768 -2.1275203
-13.520778 -1.3757747 -2.1525385
-17.741112 -1.7989526 -2.1895049
-25.222279 -2.5530918 -2.2179394
-7.9088902 -0.78383738 -2.1295633
-9.1302547 -0.90166461 -2.118139
-10.900162 -1.0745348 -2.1290469
-13.525498 -1.3285697 -2.1525385
-17.751236 -1.7373958 -2.1899924
-25.250866 -2.4669702 -2.2196825
-7.9211931 -0.75714427 -2.1321514
-9.1333466 -0.86979043 -2.118139
-10.907755 -1.0368508 -2.1298101
-13.533987 -1.2817241 -2.1531644
-17.733475 -1.6731836 -2.1870675
-25.298994 -2.3825488 -2.2231686
-7.9218645 -0.72931218 -2.1316338
-9.1439428 -0.84021139 -2.1199389
-10.895667 -0.99733728 -2.1267571
-13.538163 -1.2368362 -2.1531644
-17.754742 -1.6158068 -2.1890175
-25.283346 -2.2920711 -2.221077
-7.9049973 -0.70133084 -2.1264575
-9.1526432 -0.80880213 -2.1212883
-10.895002 -0.96085501 -2.125994
-13.542397 -1.1895714 -2.1531644
-17.756319 -1.5534747 -2.1885297
-25.291193 -2.2038009 -2.221077
-7.922914 -0.67366207 -2.1305985
-9.1534691 -0.77668357 -2.1208386
-10.90432 -0.92141211 -2.1271389
-13.534857 -1.1389307 -2.1512871
-17.765591 -1.4918201 -2.1890175
-25.286819 -2.114502 -2.220031
-7.9271421 -0.64615858 -2.1311162
-9.1368303 -0.74155259 -2.1163394
-10.927038 -0.88492775 -2.130955
-13.538749 -1.0916811 -2.1512871
-17.774895 -1.427009 -2.1895049
-25.329794 -2.0290906 -2.2231686
-7.9293494 -0.61848539 -2.1311162
-9.1413069 -0.70980531 -2.1167896
-10.941805 -0.84769213 -2.1332448
-13.562172 -1.045934 -2.1544156
-17.779768 -1.3649582 -2.1895049
-25.304939 -1.9382256 -2.2203796
-7.9314599 -0.59080279 -2.1311162
-9.1456728 -0.67803562 -2.1172395
-10.917286 -0.8074652 -2.127902
-13.571651 -0.99902141 -2.1553543
-17.784424 -1.3028864 -2.1895049
-25.355265 -1.8530773 -2.2242146
-7.9257665 -0.56256407 -2.1290457
-9.159647 -0.6469329 -2.1199389
-10.916122 -0.76907301 -2.1271389
-75.105164 -5.2782083 6.5870566
-13.577025 -0.95178235 -2.1556673
-17.816589 -1.2427326 -2.1929171
-25.341703 -1.763182 -2.2224715
-7.9296088 -0.53502434 -2.1295633
-9.1599045 -0.61482286 -2.119489
-10.926575 -0.73148817 -2.1286652
-13.572381 -0.90385526 -2.1544156
-17.820816 -1.1805372 -2.1929171
-25.371561 -1.6762817 -2.2245631
-7.9314284 -0.50734329 -2.1295633
-9.1483812 -0.58197874 -2.1163394
-10.925143 -0.69309658 -2.127902
-13.567569 -0.85597545 -2.1531644
-17.816904 -1.1178217 -2.1919422
-25.381235 -1.5879563 -2.2249119
-7.9370074 -0.47988731 -2.1305985
-9.1523027 -0.55016029 -2.1167896
-10.919657 -0.6544863 -2.1263754
-13.594136 -0.81002343 -2.1569188
-17.820698 -1.0556219 -2.1919422
-25.406509 -1.5005295 -2.2266548
-7.9347768 -0.4519591 -2.1295633
-9.1600037 -0.51853961 -2.118139
-10.927756 -0.61669719 -2.1275203
-13.600826 -0.76278692 -2.1575444
-17.816345 -0.99297148 -2.1909673
-25.423531 -1.4124976 -2.2277007
-7.9226546 -0.42630211 -2.1259398
-9.1576958 -0.48955154 -2.1172395
-10.927679 -0.58225864 -2.1271389
-13.591318 -0.71942782 -2.1556673
-17.839201 -0.9380365 -2.1934047
-25.459908 -1.3298441 -2.2304897
-7.9241633 -0.39726302 -2.1259398
-9.1554556 -0.45738754 -2.1163394
-10.92974 -0.54220259 -2.1271389
-13.591891 -0.6695109 -2.1553543
-17.858229 -0.8765384 -2.1953545
-25.452456 -1.2403818 -2.229444
-67.749664 -3.2779605 -3.5547633
-7.9255023 -0.369598 -2.1259398
-9.1531773 -0.42364982 -2.1154397
-10.935488 -0.50422794 -2.127902
-13.590199 -0.62188452 -2.1547287
-17.845457 -0.81035805 -2.1934047
-25.480516 -1.1526083 -2.2315357
-68.259506 -3.0638373 -3.5809312
-7.926744 -0.34193036 -2.1259398
-9.1486912 -0.39304322 -2.11409
-10.941104 -0.46621975 -2.1286652
-13.604028 -0.57731634 -2.1566057
-17.859945 -0.75167602 -2.1948669
-25.472439 -1.0631585 -2.2304897
-68.369064 -2.841608 -3.5861647
-7.9316945 -0.31579584 -2.1269751
-9.1558485 -0.3613362 -2.1154397
-10.934743 -0.42962644 -2.1271389
-13.615829 -0.5302099 -2.1581702
-17.846592 -0.68872011 -2.1929171
-25.472013 -0.97408354 -2.2301412
-7.9173541 -0.28616613 -2.122834
-9.1628971 -0.32958183 -2.1167896
-10.940168 -0.3896879 -2.127902
-13.605837 -0.47988379 -2.1562929
-17.864756 -0.62697607 -2.1948669
-25.483223 -0.88544577 -2.2308383
-69.585297 -2.3934925 -3.6489677
-7.9260278 -0.25877959 -2.1249044
-9.1523571 -0.2956205 -2.11409
-10.955198 -0.35193822 -2.1305733
-13.619275 -0.4327637 -2.1581702
-17.878841 -0.56186813 -2.1963296
-25.498106 -0.7968601 -2.2318842
-7.9307456 -0.2312234 -2.1259398
-9.1493912 -0.26515529 -2.1131902
-10.958322 -0.31375116 -2.130955
-13.616687 -0.38748527 -2.1575444
-17.872667 -0.50235289 -2.1953545
-25.516666 -0.70829183 -2.2332788
-7.9295373 -0.20487453 -2.1254222
-73.92041 -1.8969458 1.2907101
-9.1502609 -0.23321608 -2.1131902
-10.949491 -0.27716154 -2.1290469
-13.621905 -0.34005001 -2.1581702
-17.870342 -0.43986437 -2.1948669
-25.554728 -0.62454689 -2.2364163
-7.935998 -0.17732136 -2.1269751
-9.1529684 -0.20131907 -2.1136403
-10.934687 -0.23859602 -2.125994
-13.626959 -0.29258627 -2.1587958
-17.867802 -0.37739819 -2.1943796
-25.536833 -0.53491634 -2.2346733
-7.9211168 -0.14932697 -2.122834
-9.1653051 -0.16958188 -2.1163394
-10.943306 -0.20056899 -2.1275203
-13.635798 -0.24515595 -2.1600473
-17.872978 -0.31509939 -2.1948669
-25.534561 -0.44570872 -2.2343247
-7.9254522 -0.1217372 -2.1238692
-9.1638918 -0.13755846 -2.1158895
-10.957681 -0.16257469 -2.1301918
-13.62077 -0.19732735 -2.1575444
-17.897789 -0.25304115 -2.1977918
-25.555883 -0.35685125 -2.2360678
-7.9374194 -0.094208814 -2.1269751
-9.1506767 -0.10541447 -2.1127403
-10.973886 -0.12450213 -2.1332448
-13.629275 -0.14987051 -2.1587958
-17.878714 -0.19035281 -2.1953545
-25.560957 -0.26768342 -2.2364163
-71.616043 -0.7249887 -3.7534304
-7.9319053 -0.066452704 -2.1254222
-9.1451435 -0.073424816 -2.1113906
-10.954622 -0.086038239 -2.1294286
-13.633668 -0.10232384 -2.1594217
-17.871328 -0.12788597 -2.1943796
-25.577673 -0.17857403 -2.2378109
-7.9320893 -0.038764559 -2.1254222
-9.1472921 -0.04151044 -2.1118405
-75.47171 -0.32930109 3.9553425
-10.943076 -0.047747254 -2.1271389
-13.645794 -0.054780029 -2.161299
-17.895487 -0.06559369 -2.1973045
-25.582125 -0.089297302 -2.2381594
-7.9167204 -0.011054363 -2.1212809
-9.1571255 -0.0095879436 -2.11409
-10.94514 -0.0095525151 -2.1275203
-13.64195 -0.0071412856 -2.1606731
-17.899578 -0.00312658 -2.1977918
-25.590252 2.237171e-06 -2.2388568
-7.918642 0.016584482 -2.1217985
-9.1610003 0.022384042 -2.1149898
-10.958849 0.028689492 -2.1301918
-13.645844 0.040486902 -2.161299
-17.89551 0.059346221 -2.1973045
-25.59408 0.089337409 -2.2392054
-7.9243317 0.044256303 -2.1233516
-9.1530714 0.054315764 -2.1131902
-10.974387 0.067039087 -2.1332448
-13.641667 0.088094398 -2.1606731
-17.911074 0.12191719 -2.1992545
-25.673306 0.17923395 -2.2461777
-7.9221978 0.071899801 -2.122834
-9.1606207 0.08633934 -2.1149898
-10.954455 0.10515829 -2.1294286
-13.637327 0.13567325 -2.1600473
-17.902599 0.18435647 -2.1982794
-25.628693 0.26839113 -2.2423429
-7.9257612 0.099603653 -2.1238692
-9.1622324 0.11674175 -2.1154397
-10.94028 0.14321625 -2.1267571
-13.656554 0.18115805 -2.1631761
-17.917768 0.2439395 -2.2002294
-25.671429 0.35846305 -2.2461777
-7.9292507 0.12594566 -2.1249044
-9.1637173 0.1487529 -2.1158895
-10.949559 0.17965619 -2.1286652
-13.651887 0.22875814 -2.1625502
-17.920776 0.3065511 -2.2007167
-25.662132 0.44344777 -2.2454805
-7.9326267 0.15370011 -2.1259398
-9.1553497 0.18058589 -2.11409
-10.966531 0.21822804 -2.1320999
-13.654957 0.27649111 -2.1631761
-17.91563 0.36901891 -2.2002294
-25.688314 0.53360873 -2.247921
-7.9320416 0.18138754 -2.1259398
-9.1566124 0.21259061 -2.1145399
-10.961777 0.25641289 -2.1313365
-13.647984 0.32401708 -2.1622374
-17.934076 0.43203244 -2.2026668
-25.71418 0.62395179 -2.2503612
-7.9448781 0.20943099 -2.1295633
-9.1597099 0.24465396 -2.1154397
-10.956891 0.29456991 -2.1305733
-13.660592 0.37202904 -2.1644275
-17.89674 0.49365094 -2.1982794
-25.719812 0.71392298 -2.2510586
-7.934444 0.23687449 -2.1269751
-9.1568527 0.27656725 -2.1149898
-10.945983 0.332517 -2.1286652
-13.663159 0.41983289 -2.1650534
-17.930622 0.55722535 -2.2026668
-25.717163 0.80369824 -2.2510586
-7.9258451 0.26431018 -2.1249044
-9.1616735 0.3087261 -2.1163394
-10.946719 0.37079042 -2.1290469
-13.661611 0.46752405 -2.1650534
-17.924603 0.61967486 -2.2021794
-25.726151 0.89387888 -2.2521045
-7.9287362 0.29211932 -2.1259398
-9.1585922 0.34063002 -2.1158895
-10.955167 0.40936616 -2.130955
-13.655948 0.51505733 -2.1644275
-17.934231 0.68269312 -2.2036417
-25.746761 0.98458868 -2.2541959
-7.9315281 0.31994995 -2.1269751
-9.1515074 0.37236223 -2.1145399
-10.959556 0.4478451 -2.1320999
-13.669855 0.56337667 -2.1669304
-17.939672 0.74561709 -2.2046165
-25.699373 1.0726286 -2.2503612
-7.9265037 0.34746337 -2.1259398
-9.1559906 0.40456295 -2.1158895
-10.959888 0.48618308 -2.1324816
-13.671752 0.61126679 -2.1675563
-17.929028 0.80788106 -2.2036417
-25.72732 1.1637708 -2.2531502
-7.93682 0.37567812 -2.1290457
-9.1507063 0.43473852 -2.1149898
-10.944397 0.52378064 -2.1298101
-13.677542 0.65698022 -2.1688077
-17.922285 0.86713606 -2.2031541
-25.739021 1.2543393 -2.2545447
-7.9258838 0.40150714 -2.1264575
-9.1608105 0.46727148 -2.1176891
-10.954364 0.56067318 -2.1320999
-13.671221 0.70451355 -2.1681819
-17.935009 0.93051881 -2.2051041
-25.738699 1.3398943 -2.2548933
-7.9244337 0.42917138 -2.1264575
-9.1591234 0.49924606 -2.1176891
-10.95626 0.59912235 -2.132863
-13.664733 0.75201398 -2.1675563
-17.939579 0.99355328 -2.206079
-25.725906 1.4292895 -2.2541959
-7.9344592 0.45749766 -2.1295633
-9.1456528 0.53053749 -2.1149898
-10.965861 0.6380477 -2.1351528
-13.65808 0.79947776 -2.1669304
-17.943928 1.0566354 -2.2070539
-25.744629 1.5204912 -2.2562878
-7.9328141 0.48519152 -2.1295633
-9.1438427 0.56086302 -2.1149898
-10.975326 0.67704743 -2.1374426
-13.663241 0.84525365 -2.1681819
-17.940325 1.1161344 -2.2070539
-25.767002 1.6120961 -2.258728
-7.9311619 0.51149535 -2.1295633
-9.143774 0.59290171 -2.1154397
-10.945592 0.71165633 -2.1320999
-13.668092 0.89345455 -2.1694334
-17.924437 1.1779705 -2.2055917
-25.761515 1.6975224 -2.258728
-7.9216175 0.53865314 -2.1274927
-9.1455374 0.62508184 -2.1163394
-10.95871 0.75093329 -2.1351528
-13.668832 0.9414348 -2.1700592
-17.928135 1.2410758 -2.2065666
-25.719656 1.7849605 -2.2555907
-7.9216166 0.56643754 -2.1280103
-9.1569061 0.65798205 -2.119489
-10.963856 0.78974366 -2.1366794
-13.655611 0.98842955 -2.1684947
-17.947453 1.3053777 -2.2094915
-25.784805 1.8799442 -2.2618659
-7.9292235 0.59480846 -2.1305985
-9.1216373 0.68586028 -2.1118405
-10.961032 0.82801014 -2.1366794
-13.664076 1.0346031 -2.170372
-17.943027 1.3648871 -2.2094915
-25.778086 1.9699394 -2.2618659
-7.9214296 0.62064707 -2.1290457
-9.136673 0.71907061 -2.1158895
-10.973884 0.86558908 -2.1397321
-13.66432 1.0826056 -2.1709976
-17.918364 1.4259416 -2.2070539
-25.731689 2.0522444 -2.2583795
-7.9230657 0.6486097 -2.1300809
-9.1341066 0.7509594 -2.1158895
-10.955142 0.90260047 -2.1366794
-13.668333 1.1309452 -2.1722493
-17.925148 1.4894665 -2.2085166
-25.795847 2.147999 -2.2646549
-7.914978 0.67576772 -2.1285279
-9.1275473 0.78250623 -2.1149898
-10.944099 0.94016105 -2.1351528
-13.672174 1.1793293 -2.1735008
-17.935658 1.5533942 -2.2104664
-25.736586 2.2335522 -2.2601228
-7.9087229 0.70305204 -2.1274927
-9.1247606 0.81436062 -2.1149898
-10.948574 0.97905982 -2.1366794
-13.65617 1.2259874 -2.1716235
-17.930126 1.6159925 -2.2104664
-25.776255 2.3276772 -2.2643061
-7.9100671 0.73101008 -2.1285279
-9.1140995 0.84548938 -2.1131902
-10.958773 1.0185436 -2.1393507
-13.663609 1.2747502 -2.1735008
-17.932283 1.6793113 -2.2114413
-25.771519 2.4225097 -2.2646549
-7.8996439 0.75925606 -2.1264575
-9.1149731 0.87767226 -2.11409
-10.960829 1.0592668 -2.1404953
-13.656877 1.3246307 -2.1731877
-17.922359 1.741513 -2.2109537
-25.818428 2.5178699 -2.2695355
-7.8988676 0.78701991 -2.1269751
-9.1116943 0.91107237 -2.11409
-10.949251 1.0967411 -2.1389689
-13.646274 1.3716985 -2.1722493
-17.907957 1.8063934 -2.2099788
-25.817411 2.6087735 -2.2702327
-7.8941507 0.81438935 -2.1264575
-9.114274 0.94347477 -2.1154397
-10.949261 1.1353596 -2.1397321
-13.661051 1.4213725 -2.1753781
-17.917337 1.870538 -2.2119288
-25.776442 2.6955683 -2.2674437
-7.8835759 0.84111863 -2.1243868
-9.1109247 0.97528619 -2.1154397
-10.956944 1.1748263 -2.1420219
-13.636365 1.4669373 -2.1722493
-17.9107 1.9330704 -2.2119288
-25.814417 2.7906687 -2.2716272
-7.886353 0.86926752 -2.1259398
-9.0958433 1.0057963 -2.1127403
-10.96058 1.2139306 -2.1435483
-13.650796 1.5167067 -2.1753781
-17.907787 1.9960233 -2.2124164
-25.784718 2.878545 -2.2698841
-7.8855023 0.89425695 -2.1264575
-9.0945749 1.0345874 -2.1131902
-10.952812 1.2479144 -2.1427851
-13.634188 1.5582393 -2.1735008
-17.905373 2.052721 -2.2129037
-25.775547 2.959543 -2.2698841
-7.880414 0.9215529 -2.1259398
-9.094779 1.0667814 -2.11409
-10.952289 1.2865976 -2.1435483
-13.644359 1.6076715 -2.1760037
-17.886269 2.1138124 -2.2114413
-25.784845 3.0518348 -2.2716272
-7.8733125 0.94859302 -2.1249044
-9.0968037 1.0992233 -2.1154397
-10.939936 1.3238775 -2.1420219
-13.634743 1.6548138 -2.1753781
-17.890606 2.1776741 -2.2129037
-25.774035 3.1418228 -2.2716272
-7.8661194 0.97559303 -2.1238692
-9.100647 1.1319327 -2.1172395
-10.937196 1.3622971 -2.1424036
-13.624962 1.7019086 -2.1747522
-17.906532 2.243072 -2.2158287
-25.778727 3.2337565 -2.2730217
-7.8703322 1.0040232 -2.1259398
-9.0850439 1.1622075 -2.1145399
-10.94211 1.4017171 -2.1443117
-13.624817 1.7502105 -2.1756909
-17.894655 2.305057 -2.2153411
-25.818075 3.3348548 -2.2775538
-7.8685141 1.0331143 -2.1264575
-9.0789986 1.1936593 -2.11409
-10.940792 1.4423231 -2.1450748
-13.626143 1.801175 -2.1769423
-17.874693 2.3659403 -2.2138786
-25.822077 3.4270544 -2.2789483
-7.8629456 1.0603162 -2.1259398
-9.084218 1.2282331 -2.1163394
-10.924018 1.4789249 -2.1427851
-13.623688 1.8492568 -2.177568
-17.885571 2.4341199 -2.216316
-25.750734 3.5090933 -2.2737191
-7.8515415 1.0866972 -2.1238692
-9.0839558 1.2588861 -2.1172395
-10.918789 1.5170481 -2.1427851
-13.625307 1.8955134 -2.1788194
-17.869535 2.492321 -2.2153411
-25.746222 3.6000628 -2.2744162
-7.8536334 1.113542 -2.1254222
-9.0833654 1.2911361 -2.118139
-10.92536 1.5549078 -2.1450748
-13.606874 1.9413894 -2.1769423
-17.868587 2.5558071 -2.216316
-25.761753 3.6893761 -2.2768564
-7.849699 1.1409478 -2.1254222
-9.0636063 1.3190058 -2.1145399
-10.92958 1.5944525 -2.1469829
-13.612088 1.9882143 -2.1788194
-17.863941 2.6156232 -2.2168036
-25.780258 3.7839088 -2.2796457
-7.8458729 1.1669725 -2.1254222
-9.0628014 1.3512106 -2.1154397
-10.943648 1.6335837 -2.150799
-13.608974 2.0363023 -2.1794453
-17.842924 2.6761937 -2.2153411
-25.751129 3.8715129 -2.2782512
-7.843452 1.1960143 -2.1259398
-9.0541773 1.3822473 -2.1145399
-10.924003 1.6716073 -2.1481278
-13.620944 2.0891631 -2.1825738
-17.833475 2.7384615 -2.2153411
-25.768967 3.9662216 -2.28104
-7.8239584 1.2210009 -2.1217985
-9.0509748 1.4157267 -2.1149898
-10.92974 1.7115492 -2.1504176
-13.609666 2.1360841 -2.1819482
-17.850773 2.8081253 -2.2187536
-25.81007 4.064827 -2.2859206
-74.685532 11.788939 -3.9625649
-7.8272796 1.2495226 -2.1238692
-9.0481548 1.4460409 -2.1154397
-10.93533 1.7515539 -2.1527071
-13.590804 2.1793277 -2.1800709
-17.841364 2.8673015 -2.2187536
-25.8272 4.1599669 -2.2887099
-7.8230934 1.2754723 -2.1238692
-9.0315132 1.4757309 -2.1127403
-10.964336 1.7935123 -2.1595764
-13.579215 2.2261164 -2.1794453
-17.815573 2.9269917 -2.2168036
-25.836853 4.2494707 -2.2908015
-7.8166881 1.3024549 -2.1233516
-9.0263062 1.5072459 -2.1127403
-11.027719 1.8434273 -2.1733146
-13.586948 2.2761114 -2.1819482
-17.82091 2.991792 -2.2187536
-25.829723 4.3409481 -2.2914989
-7.8197126 1.3310275 -2.1254222
-9.0305958 1.540383 -2.1149898
-10.943807 1.8686949 -2.1580498
-13.580868 2.323858 -2.182261
-17.80253 3.0526342 -2.2177784
-25.845831 4.4364781 -2.2942877
-7.8093076 1.3573247 -2.1238692
-9.0155649 1.5702225 -2.1127403
-10.910141 1.9021616 -2.1527071
-13.578509 2.3722701 -2.1831996
-17.799589 3.116128 -2.2187536
-25.798788 4.5211744 -2.2914989
-7.804522 1.3845762 -2.1238692
-9.0234585 1.6040729 -2.1158895
-10.913099 1.9419535 -2.1546154
-13.558477 2.4175735 -2.1813223
-17.792511 3.1789401 -2.2192409
-25.802462 4.6147032 -2.293242
-7.7996416 1.4118109 -2.1238692
-9.0161724 1.6336378 -2.1154397
-10.898526 1.9786328 -2.1530888
-13.560104 2.4642882 -2.1828868
-17.777967 3.2372143 -2.2187536
-25.790117 4.7054586 -2.2935905
-7.8025169 1.4390696 -2.1259398
-9.0142469 1.6658108 -2.1163394
-10.897697 2.0158348 -2.1542337
-13.559189 2.5130472 -2.1841383
-17.78998 3.3035967 -2.2216785
-25.781368 4.7969127 -2.2942877
-7.7914939 1.4665837 -2.1243868
-9.0294428 1.7012354 -2.1212883
-10.876731 2.0532141 -2.1515625
-13.551828 2.5630913 -2.1844511
-17.758833 3.3619874 -2.2192409
-25.791872 4.8920693 -2.2967281
-7.7768402 1.4919543 -2.1217985
-9.0843859 1.746087 -2.1356852
-10.881064 2.093394 -2.153852
-13.550558 2.6118765 -2.1857026
-17.758085 3.4293084 -2.2207034
-25.762032 4.9843049 -2.2956822
-7.7751122 1.5211881 -2.122834
-9.0552855 1.7732952 -2.1302865
-10.877172 2.1340146 -2.1546154
-13.525387 2.6584764 -2.1831996
-17.753799 3.4928081 -2.2216785
-25.767933 5.0788183 -2.2977738
-7.7721896 1.545984 -2.1233516
-9.0264215 1.7987417 -2.1248875
-10.881968 2.1704805 -2.1569052
-13.520844 2.7017326 -2.1838255
-17.742119 3.5516634 -2.2216785
-25.766577 5.1673751 -2.2991683
-7.772151 1.5756118 -2.1249044
-9.0181789 1.8298517 -2.1244378
-10.877787 2.2111325 -2.1576684
-13.514721 2.7520561 -2.1844511
-17.741283 3.6159523 -2.2231407
-25.642971 5.2357635 -2.2897556
-7.7628202 1.6019496 -2.1238692
-9.0190449 1.864471 -2.1262374
-10.868078 2.2486923 -2.1572866
-13.520507 2.8024223 -2.186954
-17.708473 3.6769176 -2.2207034
-25.636242 5.3276749 -2.2908015
-7.75529 1.6286421 -2.1233516
-9.0204401 1.8959725 -2.128037
-10.862084 2.2870202 -2.1576684
-13.515004 2.8480575 -2.1875796
-17.715607 3.7397218 -2.2231407
-25.613588 5.4163122 -2.2904527
-7.7479572 1.6539477 -2.122834
-9.0137672 1.9274464 -2.128037
-10.854441 2.3230278 -2.1576684
-13.489529 2.8919008 -2.1850767
-17.702444 3.8015385 -2.2231407
-25.611073 5.5045586 -2.2918475
-7.7402492 1.6805733 -2.1223164
-8.9993677 1.9572423 -2.1262374
-10.834755 2.3583975 -2.1553786
-13.483212 2.9398158 -2.1857026
-17.689068 3.8633046 -2.2231407
-25.611164 5.5981855 -2.2935905
-7.7437677 1.7096623 -2.1249044
-8.9886761 1.987805 -2.1253376
-10.834126 2.3978984 -2.1569052
-13.482511 2.989001 -2.1872668
-17.675474 3.9250281 -2.2231407
-25.599245 5.689281 -2.2942877
-7.7339826 1.7358367 -2.1238692
-8.9930897 2.0217316 -2.128037
-10.814197 2.4331164 -2.1546154
-13.475849 3.0369115 -2.1878927
-17.646173 3.983211 -2.2211909
-25.559795 5.7742143 -2.2925446
-7.7241096 1.7619638 -2.122834
-8.993577 2.0548475 -2.1298366
-13.469017 3.0848148 -2.1885185
-17.64764 4.0483346 -2.2231407
-25.589973 5.8749852 -2.2970767
-7.714148 1.788043 -2.1217985
-8.9844513 2.0857882 -2.1293867
-13.448548 3.1295736 -2.186954
-17.637268 4.1108088 -2.223628
-25.569309 5.9642758 -2.2970767
-7.7153811 1.8167309 -2.1238692
-8.9600468 2.1131096 -2.1253376
-9.7658701 2.3049541 -1.9504496
-13.433696 3.1755934 -2.1863284
-17.627403 4.1701884 -2.2241156
-25.567722 6.0580935 -2.2988198
-7.7168307 1.8441025 -2.1259398
-8.941618 2.140089 -2.1226382
-9.7486277 2.3350403 -1.9485416
-13.43846 3.2238042 -2.1888313
-17.586452 4.2221332 -2.2207034
-25.555241 6.1447039 -2.2995169
-7.7069178 1.8687701 -2.1249044
-8.8965988 2.1605315 -2.1136403
-9.7141218 2.3608618 -1.9431988
-13.435372 3.2702191 -2.1900828
-17.587038 4.2872572 -2.2226534
-25.554081 6.2341375 -2.3012602
-7.6984715 1.8952012 -2.1243868
-8.849268 2.181777 -2.104192
-9.6753244 2.387234 -1.937093
-13.416204 3.3152025 -2.1888313
-17.587381 4.352437 -2.2246032
-25.528296 6.3223367 -2.3009117
-7.6880608 1.921124 -2.1233516
-8.7848845 2.1984632 -2.0906951
-9.5164804 2.3833139 -1.9069452
-13.410298 3.3634586 -2.18977
-17.575932 4.4147654 -2.2250907
-25.498343 6.4094725 -2.3002143
-7.6887989 1.9498485 -2.1254222
-8.7053833 2.2108867 -2.0735989
-9.4319944 2.3971725 -1.8916805
-13.394647 3.4092748 -2.1891441
-17.564262 4.4770751 -2.2255781
-25.487396 6.5013947 -2.3012602
-7.6912994 1.9790827 -2.1280103
-8.6560974 2.2305608 -2.0637012
-9.433074 2.432533 -1.8935887
-13.386491 3.456995 -2.18977
-17.53315 4.5343828 -2.223628
-25.545559 6.6112833 -2.3085814
-7.6824756 2.0054286 -2.1274927
-8.6086645 2.2504127 -2.0542529
-9.4568138 2.4738927 -1.900076
-13.381986 3.5057042 -2.1910214
