# .PCD v0.7 - Point Cloud Data file format
VERSION 0.7
FIELDS x y z
SIZE 4 4 4
TYPE F F F
COUNT 1 1 1
WIDTH 1462
HEIGHT 1
VIEWPOINT 0 0 0 1 0 0 0
POINTS 1462
DATA ascii
-1.9176505 -7.3619757 -2.0384588
-2.2036035 -8.4476776 -2.0155613
-2.003814 -7.6762838 -1.5421184
-4.2795711 -16.370955 -2.6800354
-5.4435329 -20.793867 -2.6392026
-7.2000432 -27.484018 -2.4856818
-10.113599 -38.550755 -2.0887284
-1.9477785 -7.3720469 -2.0431178
-2.2340751 -8.4437017 -2.0164614
-2.0275822 -7.6578555 -1.5398288
-4.3377056 -16.359735 -2.6806614
-5.4681964 -20.594389 -2.6162913
-7.2918444 -27.443314 -2.4842873
-10.240911 -38.488197 -2.0872629
-14.709085 -55.203262 -0.99719566
-1.977 -7.3782644 -2.046741
-2.267576 -8.4509096 -2.0200605
-27.621153 -102.86809 5.5820489
-2.0502281 -7.6355624 -1.5367758
-4.3952966 -16.346401 -2.6809742
-5.4997954 -20.425663 -2.5972795
-7.3243537 -27.182995 -2.4630213
-10.358554 -38.390507 -2.0839133
-1.9981836 -7.3545403 -2.0420823
-2.3011541 -8.4579849 -2.0236597
-28.002087 -102.85198 5.5864453
-2.0768678 -7.6283593 -1.5367758
-4.4637609 -16.372887 -2.6878574
-5.5606036 -20.368042 -2.5924048
-7.3866415 -27.038099 -2.452214
-10.513577 -38.431175 -2.0881002
-15.023321 -54.84079 -0.99251837
-2.0294869 -7.3680077 -2.0477762
-2.3291099 -8.4442654 -2.02231
-28.38327 -102.83447 5.5908413
-2.1024394 -7.6172771 -1.5360124
-4.4940481 -16.260101 -2.6719007
-5.6025462 -20.243284 -2.5789993
-7.4841681 -27.023668 -2.4532597
-10.616706 -38.282612 -2.0820291
-2.0442841 -7.321805 -2.036906
-2.3538485 -8.4191923 -2.0182607
-28.767876 -102.82709 5.5958657
-2.1284864 -7.6080017 -1.5356308
-4.5513101 -16.246218 -2.6722138
-5.6608424 -20.179642 -2.5733933
-7.5536847 -26.909142 -2.4452415
-10.713522 -38.114578 -2.0749116
-15.480583 -55.000206 -0.99733526
-2.0892911 -7.3834023 -2.0560586
-2.3848166 -8.4165506 -2.0196106
-29.149521 -102.80674 5.6002617
-2.1523528 -7.5910811 -1.5337228
-4.606914 -16.226431 -2.6715882
-5.6503644 -19.875256 -2.5370762
-7.5799656 -26.644983 -2.4236269
-10.776461 -37.831078 -2.0615137
-15.587998 -54.649689 -0.99195987
-2.1086626 -7.3537798 -2.0498469
-2.4071906 -8.3838253 -2.013762
-29.535231 -102.79843 5.6053905
-2.1750426 -7.5703135 -1.5310514
-4.6706271 -16.23493 -2.6756554
-5.7592716 -19.992754 -2.5546255
-7.5978765 -26.357998 -2.3999205
-10.900702 -37.766365 -2.0600481
-2.1283898 -7.3259678 -2.044153
-2.4402511 -8.3884687 -2.0169113
-29.922346 -102.7925 5.6107287
-2.2031004 -7.5683308 -1.5321964
-4.7106867 -16.161634 -2.6662693
-5.7945437 -19.854382 -2.5395136
-7.7199984 -26.434589 -2.4093332
-11.029098 -37.716579 -2.0594201
-15.955659 -54.493477 -0.99112213
-2.1463134 -7.2925482 -2.036906
-2.4711692 -8.3855076 -2.0182607
-30.306976 -102.77555 5.6155438
-2.2278404 -7.554944 -1.5310514
-4.7570024 -16.110991 -2.6606379
-5.8666282 -19.843552 -2.5407324
-7.7805748 -26.300491 -2.3995719
-11.156149 -37.662533 -2.0585828
-16.183304 -54.563984 -0.99342585
-2.1706522 -7.2813087 -2.0358706
-2.4998679 -8.3749628 -2.0178108
-30.696404 -102.77248 5.6211963
-2.2536361 -7.5452409 -1.5306698
-4.8024573 -16.058329 -2.6546934
-5.9643312 -19.918036 -2.5529194
-7.8906336 -26.334244 -2.4051497
-11.200311 -37.332581 -2.0426726
-2.1949382 -7.269989 -2.0348353
-2.5296509 -8.3680506 -2.0182607
-2.2782543 -7.5316911 -1.529525
-4.8613462 -16.05092 -2.6562576
-6.0027118 -19.794512 -2.5397573
-7.9952345 -26.348486 -2.4089847
-11.229528 -36.960743 -2.0244598
-16.636003 -54.686901 -0.9977541
-2.2194598 -7.2686005 -2.0363884
-2.5593467 -8.3712444 -2.0209603
-2.2963221 -7.5015678 -1.5249456
-4.9123268 -16.037458 -2.6565704
-6.0293646 -19.659788 -2.5248892
-7.997179 -26.043755 -2.3835351
-11.251079 -36.594936 -2.0064561
-16.743044 -54.424126 -0.9939146
-2.2460854 -7.260417 -2.0363884
-2.5877047 -8.3543625 -2.0191607
-2.3249645 -7.4968505 -1.5257088
-4.979856 -16.047646 -2.6612635
-6.1019683 -19.639454 -2.5251331
-8.0913973 -26.010464 -2.3831866
-11.362563 -36.480995 -2.0024786
-16.934074 -54.335667 -0.99342585
-2.2767243 -7.2650399 -2.0400119
-2.6194739 -8.3485403 -2.0200605
-2.35112 -7.4886894 -1.5257088
-5.0392299 -16.031168 -2.6615763
-6.1435189 -19.520386 -2.5127022
-8.1558065 -25.898443 -2.3755169
-11.535481 -36.585873 -2.0104337
-17.177662 -54.414349 -0.99600887
-2.2985666 -7.2459998 -2.036906
-2.6450598 -8.3282022 -2.0173612
-2.3796241 -7.4879217 -1.5272354
-5.1053414 -16.045483 -2.6668949
-6.1501594 -19.305897 -2.4878411
-8.1904955 -25.695173 -2.3594801
-11.597535 -36.339897 -1.9991291
-2.3368373 -7.2783985 -2.0482941
-2.6705377 -8.307786 -2.0146616
-2.4009376 -7.4646177 -1.5241823
-5.1800909 -16.085854 -2.676594
-6.1879678 -19.204149 -2.4773602
-8.2055063 -25.435095 -2.3382142
-11.789387 -36.500652 -2.0102243
-17.547646 -54.296165 -0.99600887
-2.3490279 -7.2338614 -2.0379412
-2.6950593 -8.2896185 -2.0124121
-2.4238563 -7.4510136 -1.5230374
-5.2278996 -16.051682 -2.6737783
-6.3340354 -19.436434 -2.5100212
-8.3367758 -25.551699 -2.3514619
-11.833463 -36.225937 -1.997245
-17.789728 -54.427753 -0.99949938
-2.38325 -7.2572336 -2.046741
-2.7231429 -8.2824869 -2.012862
-2.450392 -7.4485297 -1.5241823
-2.4817333 -7.5349379 -1.2564818
-6.3688984 -19.314289 -2.4971032
-8.3989868 -25.455799 -2.3451867
-12.006149 -36.345798 -2.0060375
-2.3915122 -7.1975374 -2.0322473
-2.5644259 -7.7089515 -1.8756418
-2.4745176 -7.4343424 -1.5230374
-2.5011506 -7.5056143 -1.2530402
-6.4645476 -19.376678 -2.5080714
-8.4600353 -25.34317 -2.337517
-12.119017 -36.261997 -2.0037346
-2.4283161 -7.223938 -2.0420823
-2.5764029 -7.6556258 -1.8648442
-2.5004535 -7.4256597 -1.5230374
-2.5273352 -7.4968376 -1.2530402
-6.5461092 -19.395372 -2.5134335
-8.5299053 -25.244041 -2.3312418
-12.181558 -36.030266 -1.9932674
-2.4460664 -7.1893845 -2.0348353
-2.6056218 -7.653966 -1.8666438
-2.5301864 -7.4238777 -1.5245639
-2.5611739 -7.5062199 -1.256169
-6.561183 -19.218357 -2.4934471
-8.603796 -25.172636 -2.3274069
-12.259214 -35.826641 -1.984475
-2.4686322 -7.1734962 -2.0327649
-2.6444488 -7.6756859 -1.8742923
-35.368763 -102.60201 5.6876626
-2.5496862 -7.39644 -1.5207478
-2.6395593 -7.6484857 -1.2815113
-6.6179647 -19.154779 -2.4883285
-8.674037 -25.091608 -2.3227005
-12.393344 -35.810055 -1.9859405
-2.4892116 -7.1520634 -2.0291414
-2.8321664 -8.1283064 -1.9872177
-35.770111 -102.6024 5.6945715
-2.5729053 -7.3800793 -1.5192213
-5.4880552 -15.724196 -2.6377983
-6.6939526 -19.157797 -2.4917407
-8.7096233 -24.912596 -2.3089299
-12.300538 -35.144482 -1.9513987
-19.06736 -54.417385 -1.0064802
-2.5154457 -7.1469755 -2.0301766
-2.9039118 -8.2415161 -2.0173612
-36.152615 -102.60379 5.7012701
-2.5986502 -7.3710537 -1.5192213
-5.5383081 -15.691905 -2.6356082
-6.6847315 -18.919069 -2.463711
-8.762002 -24.784361 -2.2998657
-12.569737 -35.515553 -1.9744265
-19.20499 -54.233219 -1.0042464
-2.5410247 -7.1399717 -2.0306942
-2.9188054 -8.1969604 -2.0088129
-36.549442 -102.58608 5.7073412
-2.6263411 -7.3674855 -1.5203662
-5.5783691 -15.63996 -2.6299765
-6.7234001 -18.829496 -2.4549363
-8.8484592 -24.753626 -2.2998657
-12.380734 -34.616123 -1.9266962
-19.336208 -54.003944 -1.0012445
-2.5751483 -7.1605916 -2.0389764
-2.9513612 -8.1977224 -2.0115123
-36.923248 -102.55828 5.712575
-2.6500928 -7.3568888 -1.5199846
-5.6114841 -15.560931 -2.6199648
-6.7796521 -18.779772 -2.451524
-9.0157833 -24.960258 -2.3218288
-12.736485 -35.222561 -1.9629126
-2.5935261 -7.1334038 -2.0338001
-2.9778638 -8.186059 -2.0110624
-37.319954 -102.53574 5.7185411
-2.6744137 -7.343904 -1.5192213
-5.711071 -15.674014 -2.6421785
-6.8616195 -18.81127 -2.4585924
-9.0782509 -24.861259 -2.3155537
-12.835399 -35.131359 -1.9601911
-19.703346 -53.871078 -1.0012445
-2.6178334 -7.1265774 -2.0343177
-3.0077648 -8.1792736 -2.0119622
-2.6952853 -7.3216271 -1.5165499
-5.7377563 -15.577983 -2.6293507
-6.9100699 -18.740639 -2.4524989
-9.113924 -24.691105 -2.3026547
-12.883772 -34.866756 -1.9480491
-2.6358631 -7.0952034 -2.0281062
-3.0370438 -8.1663666 -2.0115123
-2.725527 -7.3208981 -1.518458
-5.8230853 -15.632746 -2.6421785
-6.9766307 -18.709606 -2.4517674
-9.1709185 -24.567938 -2.2942877
-12.990502 -34.763176 -1.9449091
-2.6801941 -7.1343226 -2.0420823
-3.067642 -8.1570044 -2.0119622
-2.7510643 -7.3113399 -1.518458
-5.9033217 -15.672301 -2.6525033
-7.0516973 -18.711147 -2.4551802
-9.224268 -24.450027 -2.2862694
-13.051084 -34.556934 -1.9359072
-2.6901305 -7.089272 -2.0317297
-3.0905216 -8.1358566 -2.0092628
-2.7745976 -7.3003421 -1.5180764
-5.9236493 -15.569558 -2.6384242
-7.0727463 -18.580055 -2.4410431
-9.2733717 -24.335524 -2.2784255
-13.094423 -34.326855 -1.92544
-2.7115507 -7.0749006 -2.0301766
-3.1070139 -8.0982723 -2.0025144
-2.7959771 -7.2837701 -1.5165499
-5.9639106 -15.520325 -2.6334183
-7.1318617 -18.540432 -2.4390934
-9.3289051 -24.226774 -2.2712786
-12.979851 -33.690578 -1.8921545
-2.7360673 -7.0613112 -2.0291414
-3.1493502 -8.1237173 -2.0115123
-2.8254957 -7.2807937 -1.5180764
-5.9778352 -15.387884 -2.614646
-7.1907811 -18.500622 -2.4371433
-9.3924646 -24.140213 -2.2662234
-13.327947 -34.219715 -1.9246026
-2.7599943 -7.0499196 -2.0286238
-3.1741271 -8.0994196 -2.008363
-2.8523259 -7.2745423 -1.5188397
-5.6461101 -14.384998 -2.4475739
-7.2324076 -18.407629 -2.4283688
-9.4188957 -23.948025 -2.2514071
-13.358092 -33.946239 -1.9118327
-2.7957671 -7.0649042 -2.0358706
-3.2002282 -8.0828543 -2.0070133
-2.8775227 -7.2603889 -1.5180764
-6.0142226 -15.159262 -2.5830462
-7.2819695 -18.345371 -2.4234941
-9.5090542 -23.931665 -2.2529759
-13.436653 -33.781994 -1.9053431
-2.8155961 -7.0466247 -2.0332825
-3.2269747 -8.0680151 -2.0061135
-2.904501 -7.2580976 -1.5196029
-5.9682312 -14.899015 -2.5420601
-7.3149323 -18.242455 -2.4132569
-9.5134373 -23.713238 -2.2353704
-13.496504 -33.60751 -1.898016
-2.845237 -7.049294 -2.036906
-3.2631979 -8.080761 -2.0119622
-2.921725 -7.2278929 -1.5154052
-6.090188 -15.058609 -2.5727215
-7.3902855 -18.254898 -2.4181318
-9.6051311 -23.702044 -2.237462
-13.582362 -33.499638 -1.8944571
-2.8569338 -7.0111952 -2.0286238
-3.2899134 -8.065712 -2.0110624
-2.944936 -7.2163467 -1.5150236
-6.1427155 -15.037258 -2.5727215
-7.4614763 -18.247364 -2.4205692
-9.5866709 -23.421289 -2.2141044
-13.688619 -33.426147 -1.8929918
-2.8811412 -6.9971046 -2.0275886
-3.3262134 -8.0739994 -2.0160115
-2.9758558 -7.2163939 -1.5173131
-6.1781921 -14.967168 -2.5645869
-7.5296707 -18.232216 -2.4220314
-9.6896839 -23.439238 -2.2189851
-13.72856 -33.176441 -1.8816872
-2.897388 -6.9673834 -2.0218945
-3.3378105 -8.0185747 -2.0052137
-3.0032926 -7.2113996 -1.518458
-6.2372389 -14.961921 -2.5674028
-7.6147914 -18.248463 -2.4278812
-9.7345963 -23.317019 -2.2106183
-13.908978 -33.283112 -1.8904796
-2.925432 -6.9661331 -2.0244827
-3.3695552 -8.0158577 -2.0074632
-3.0254025 -7.1936336 -1.5169315
-6.3039889 -14.97465 -2.5733473
-7.6614857 -18.181526 -2.422519
-9.8701134 -23.411409 -2.22282
-13.95518 -33.068745 -1.8810591
-2.9557636 -6.9701071 -2.0286238
-3.3944707 -7.996871 -2.0056636
-3.0489593 -7.1794157 -1.5161684
-6.3732262 -14.992548 -2.5802305
-7.7101359 -18.119968 -2.4178879
-9.859684 -23.1605 -2.2022512
-14.036077 -32.938984 -1.8764535
-2.9777946 -6.9544191 -2.0270708
-3.4238989 -7.9885559 -2.0065634
-3.0740018 -7.1687288 -1.5161684
-6.4068203 -14.926645 -2.5727215
-7.7631555 -18.069235 -2.4147193
-9.9766588 -23.21014 -2.2102695
-14.13045 -32.842091 -1.8737321
-3.0074184 -6.9563956 -2.0306942
-3.4548585 -7.9837103 -2.008363
-3.0997865 -7.1597567 -1.5165499
-6.4502473 -14.884253 -2.5692801
-7.8214393 -18.031097 -2.4132569
-10.012409 -23.070993 -2.2003338
-14.178156 -32.638687 -1.8649397
-3.0355458 -6.9547081 -2.0332825
-3.4772456 -7.9591007 -2.0052137
-3.1247602 -7.1488924 -1.5165499
-6.4578214 -14.760301 -2.5517592
-7.8556657 -17.938225 -2.4044824
-10.146449 -23.158175 -2.2120128
-14.179703 -32.332924 -1.8502855
-3.0605831 -6.9458375 -2.0338001
-3.5034332 -7.9433489 -2.0043139
-3.1536584 -7.1469216 -1.518458
-6.4917464 -14.697917 -2.5448763
-7.8798056 -17.832184 -2.3937578
-10.136962 -22.918539 -2.1924899
-14.200303 -32.075031 -1.838353
-3.0906632 -6.9515371 -2.0384588
-3.5250018 -7.9210052 -2.0016146
-3.1757443 -7.1328373 -1.5176948
-6.5452752 -14.687132 -2.5467534
-7.9194961 -17.762442 -2.3879082
-10.304656 -23.090393 -2.2121871
-14.207211 -31.805286 -1.8255829
-3.0970936 -6.9042349 -2.0275886
-3.5616264 -7.9323826 -2.0074632
-3.2017922 -7.1276402 -1.5188397
-6.5696421 -14.611297 -2.5373673
-7.96597 -17.700298 -2.3832772
-10.404838 -23.097881 -2.2163703
-14.596538 -32.388027 -1.8617995
-3.1175954 -6.8822789 -2.0244827
-3.581249 -7.902153 -2.0029643
-3.2287059 -7.1176448 -1.5192213
-6.6084509 -14.554744 -2.5317357
-8.0392008 -17.697685 -2.3866894
-10.413654 -22.903627 -2.2012053
-14.670479 -32.236145 -1.8561473
-3.1424043 -6.8731108 -2.0250003
-3.6077554 -7.8836579 -2.0016146
-3.2543497 -7.1081157 -1.5196029
-6.6049027 -14.413065 -2.5110862
-8.1040125 -17.6681 -2.3866894
-10.456976 -22.78746 -2.1935358
-14.647863 -31.890717 -1.8391904
-3.1696126 -6.8691168 -2.0270708
-3.6297958 -7.8628035 -1.999365
-3.2807875 -7.1002779 -1.5203662
-6.636085 -14.355222 -2.5048289
-8.1633921 -17.642931 -2.3869331
-10.511338 -22.696583 -2.1883063
-14.69812 -31.722361 -1.8322821
-3.1948199 -6.8638225 -2.0286238
-3.6720314 -7.8818822 -2.0074632
-3.2976797 -7.0751233 -1.5173131
-6.674459 -14.30691 -2.5004489
-8.187973 -17.535187 -2.3762088
-10.525829 -22.53163 -2.175756
-14.751236 -31.547831 -1.8251643
-3.2105467 -6.8351426 -2.0234473
-3.6879148 -7.8443265 -2.0011647
-3.321521 -7.0617929 -1.5169315
-6.7369823 -14.310329 -2.5051417
-8.2677441 -17.546005 -2.3815711
-10.595071 -22.474928 -2.1738386
-14.793078 -31.351646 -1.8167905
-3.2401783 -6.8361139 -2.0270708
-3.7269681 -7.8560543 -2.0074632
-3.3554113 -7.0696659 -1.5211295
-6.7767196 -14.265317 -2.5013874
-8.2897348 -17.43457 -2.3703589
-10.628568 -22.333401 -2.1639028
-14.75304 -30.986042 -1.7985777
-3.2635448 -6.8207073 -2.0260355
-3.73754 -7.8078423 -1.9984653
-3.3804519 -7.0555491 -1.5207478
-6.8127308 -14.206541 -2.4954429
-8.3711462 -17.448483 -2.3762088
-10.698699 -22.279997 -2.162334
-15.056853 -31.327789 -1.8216053
-3.2797749 -6.7936158 -2.0213768
-3.7712195 -7.8046193 -2.0011647
-3.4067693 -7.0472412 -1.5215111
-6.8596983 -14.177339 -2.4945042
-8.4082203 -17.362301 -2.3686528
-10.736445 -22.160036 -2.1543155
-15.127767 -31.195974 -1.8169999
-3.3043151 -6.7838626 -2.0218945
-3.796226 -7.7903171 -2.0007145
-3.428766 -7.0300126 -1.5203662
-6.9188027 -14.179368 -2.4988844
-8.478817 -17.361076 -2.372309
-10.799734 -22.093786 -2.1515267
-15.192527 -31.06669 -1.8123943
-3.3208313 -6.7607303 -2.018271
-3.8242569 -7.7787685 -2.0011647
-3.45206 -7.0186038 -1.5203662
-6.9560418 -14.130318 -2.4945042
-8.5253296 -17.302883 -2.3684089
-10.888798 -22.090019 -2.1546643
-15.332692 -31.077953 -1.8161626
-3.3486996 -6.7577519 -2.0208592
-3.8500295 -7.7660451 -2.0011647
-3.4835193 -7.0205798 -1.523419
-6.993197 -14.087711 -2.4910626
-8.5826626 -17.274517 -2.3684089
-10.791075 -21.700428 -2.1203249
-15.392965 -30.941101 -1.8111384
-3.3786299 -6.7557993 -2.0239649
-3.8815646 -7.7546892 -2.0020645
-3.510107 -7.0095205 -1.5238007
-7.0109491 -13.988351 -2.478235
-8.6106558 -17.165138 -2.3579283
-10.960799 -21.840584 -2.1379304
-15.531378 -30.921032 -1.813441
-3.4039304 -6.7474155 -2.0250003
-3.8993566 -7.7261167 -1.9980152
-3.5363221 -7.0007305 -1.5245639
-7.0501704 -13.95092 -2.4757321
-8.6370621 -17.076263 -2.3496411
-11.101763 -21.930178 -2.1504807
-15.585102 -30.77314 -1.8077887
-3.415777 -6.7154269 -2.0187886
-3.9174612 -7.6950917 -1.9935162
-3.5595183 -6.988965 -1.5245639
-7.0988255 -13.926225 -2.4757321
-8.732708 -17.116737 -2.3593907
-11.140006 -21.825806 -2.143857
-15.636095 -30.60828 -1.8012992
-3.4462523 -6.7172136 -2.0229297
-3.9478593 -7.6883049 -1.9953159
-3.5892758 -6.9869757 -1.5268538
-7.1392651 -13.88555 -2.4729164
-8.7860413 -17.073795 -2.3576844
-11.170522 -21.698219 -2.1351414
-15.702584 -30.475393 -1.7966936
-3.4741182 -6.7137218 -2.0255179
-3.981842 -7.6883206 -1.9989151
-3.6145463 -6.9761472 -1.5272354
-7.1776886 -13.841254 -2.4694748
-8.8510742 -17.053596 -2.3591471
-11.235281 -21.628841 -2.1323524
-15.810711 -30.423943 -1.796903
-3.4960196 -6.695806 -2.0239649
-4.0068507 -7.6709194 -1.9980152
-3.6491864 -6.9802504 -1.5310514
-7.2210445 -13.800851 -2.4669719
-8.9390869 -17.077114 -2.3667028
-11.269103 -21.510073 -2.1245084
-15.855336 -30.238432 -1.7893666
-3.5184712 -6.6818519 -2.0234473
-4.0358481 -7.657907 -1.9984653
-3.6735301 -6.9674697 -1.5310514
-7.2535028 -13.745861 -2.461653
-11.312474 -21.410709 -2.1185818
-16.014942 -30.285303 -1.7954373
-3.5481148 -6.6814737 -2.0270708
-4.0698714 -7.6575384 -2.0020645
-3.6904554 -6.9407368 -1.5279986
-7.2912331 -13.701275 -2.4582114
-9.0050688 -16.907587 -2.3520784
-11.371217 -21.3412 -2.1156185
-15.945758 -29.901426 -1.7759686
-3.5632098 -6.6537199 -2.0224121
-4.0836873 -7.6192403 -1.9957658
-3.7202272 -6.9381938 -1.5302882
-7.3128586 -13.627007 -2.4494512
-9.0565195 -16.862059 -2.3501287
-11.462616 -21.332966 -2.1187561
-16.065172 -29.873728 -1.7776433
-3.5809047 -6.631043 -2.0193064
-4.1218987 -7.6296592 -2.0020645
-3.7509582 -6.9372549 -1.5329596
-7.3354511 -13.560982 -2.4419422
-9.1038809 -16.816223 -2.347935
-11.444944 -21.122902 -2.1018479
-16.156534 -29.80624 -1.7768059
-3.5973332 -6.6089511 -2.0162005
-4.1317258 -7.5844212 -1.9939661
-3.7805192 -6.9368458 -1.5356308
-7.4092321 -13.583848 -2.4507027
-11.542623 -21.135542 -2.1069028
-16.203005 -29.644506 -1.7705256
-3.6268873 -6.6082087 -2.019824
-4.1609898 -7.5750771 -1.9953159
-3.8047106 -6.9236064 -1.5356308
-7.4328017 -13.514632 -2.4428809
-9.1559629 -16.634005 -2.3313608
-11.599025 -21.063709 -2.1037652
-16.263971 -29.510801 -1.7659199
-3.6508677 -6.597198 -2.0203414
-4.1977925 -7.579258 -2.0002646
-3.8326614 -6.9171524 -1.5371574
-7.4914274 -13.509335 -2.4466352
-9.1821814 -16.544662 -2.3233173
-11.581574 -20.85935 -2.0873799
-16.339714 -29.40497 -1.7629892
-3.6625788 -6.5641699 -2.0141299
-4.2270746 -7.5696635 -2.0016146
-3.8539109 -6.8985891 -1.5360124
-7.5693865 -13.538276 -2.4566472
-9.2437544 -16.519438 -2.3242922
-11.689349 -20.881388 -2.0936551
-16.405161 -29.281542 -1.7590116
-3.6977832 -6.5732331 -2.0208592
-4.2381749 -7.5276914 -1.994416
-3.8924203 -6.9107537 -1.5417367
-7.609808 -13.499725 -2.454457
-9.2769785 -16.44385 -2.3181989
-11.733768 -20.790136 -2.0886002
-16.442444 -29.109324 -1.7521032
-3.710222 -6.541801 -2.0151651
-4.2663479 -7.5162425 -1.9953159
-3.9213669 -6.9056597 -1.5436448
-7.6237001 -13.414688 -2.4438195
-9.3382473 -16.418266 -2.3191738
-11.766855 -20.679785 -2.0816276
-16.581511 -29.117702 -1.7560809
-3.7282388 -6.5204258 -2.0125771
-4.2896571 -7.4962292 -1.9939661
-3.9473996 -6.8953381 -1.5444082
-7.6547685 -13.360571 -2.4388137
-9.3540287 -16.313244 -2.3089368
-11.803281 -20.576366 -2.0753524
-16.521959 -28.779045 -1.7391241
-3.756767 -6.5174131 -2.0156829
-4.3105965 -7.4752107 -1.9921664
-3.9704633 -6.8798161 -1.5440264
-7.6861925 -13.312874 -2.4347463
-9.389205 -16.249477 -2.3043058
-11.843118 -20.479847 -2.0697746
-16.567297 -28.637655 -1.7338904
-3.7735059 -6.4965677 -2.0130947
-4.3454781 -7.4752812 -1.9962157
-3.9962173 -6.8717031 -1.5451714
-7.7187018 -13.262062 -2.4303663
-9.4498625 -16.223467 -2.3052807
-11.90695 -20.433578 -2.0690773
-16.42568 -28.165577 -1.7087691
-3.8098264 -6.5066953 -2.0203414
-4.3705602 -7.4583859 -1.9957658
-4.032093 -6.878037 -1.5497508
-7.6999741 -13.124291 -2.4100296
-9.5225172 -16.21777 -2.3091805
-11.933808 -20.316299 -2.0614076
-16.720261 -28.442095 -1.7290756
-3.8168046 -6.4667382 -2.0120592
-4.2796168 -7.2450938 -1.9426774
-4.0580745 -6.8673005 -1.550514
-9.4890823 -16.032393 -2.2874877
-12.017844 -20.296808 -2.0636737
-16.676888 -28.143007 -1.7144215
-3.8670113 -6.4998622 -2.0265532
-4.2919207 -7.208344 -1.9368286
-4.1001062 -6.8834548 -1.5573832
-4.1490808 -6.9601488 -1.2833885
-9.5521088 -16.011105 -2.2891939
-11.28707 -18.911718 -1.9268392
-16.840572 -28.194361 -1.7211205
-3.8648384 -6.4449043 -2.0136123
-4.2478638 -7.0780244 -1.9057853
-4.1200662 -6.8623672 -1.5558566
-4.1591072 -6.9219174 -1.2790084
-9.6468134 -16.042309 -2.298456
-12.099681 -20.11339 -2.0535636
-16.883257 -28.043003 -1.715468
-3.8953054 -6.444602 -2.0177534
-4.2866654 -7.0864964 -1.9120839
-17.486612 -28.896589 1.7701069
-4.1399298 -6.8412251 -1.5543302
-17.552191 -28.993532 2.9652128
-4.1801744 -6.9022884 -1.2780697
-17.539131 -28.949146 4.1559887
-9.6677704 -15.95082 -2.290169
-12.140892 -20.023329 -2.0486827
-16.970684 -27.966825 -1.7144215
-17.513924 -28.839355 -0.58894891
-3.9137588 -6.424365 -2.0156829
-17.585222 -28.854496 0.58982152
-4.31949 -7.0848031 -1.9156833
-17.587376 -28.835373 1.7701069
-4.1832085 -6.8585777 -1.5615808
-17.61178 -28.864052 2.95824
-4.2124748 -6.9011445 -1.2805728
-17.611111 -28.840309 4.1491642
-9.6737185 -15.835663 -2.2784696
-12.295908 -20.120234 -2.0629764
-17.02652 -27.839262 -1.7102345
-17.612396 -28.774632 -0.58887911
-3.9230177 -6.3892632 -2.0089536
-17.685829 -28.792938 0.58982152
-4.4533625 -7.2473359 -1.9638227
-4.2163763 -6.8589878 -1.5650156
-17.754175 -28.870287 2.9652128
-4.2303295 -6.8763022 -1.2786956
-17.782427 -28.89362 4.1657386
-9.7226925 -15.791656 -2.2770069
-12.264713 -19.912638 -2.0460682
-17.039751 -27.643641 -1.7018608
-3.972744 -6.4198847 -2.0229297
-4.5319853 -7.3178992 -1.9872177
-4.2506342 -6.8609161 -1.5688316
-4.2636738 -6.8766046 -1.2815113
-9.806016 -15.803162 -2.2835879
-12.311025 -19.832464 -2.0422332
-18.094942 -29.138708 6.6672482
-17.098202 -27.522919 -1.6980927
-3.9767282 -6.3764725 -2.0136123
-4.5595655 -7.3053403 -1.9881173
-4.2724762 -6.8427072 -1.5680684
-4.2897468 -6.8650284 -1.282137
-9.9105854 -15.847943 -2.2950437
-12.325234 -19.701534 -2.033169
-17.189924 -27.456295 -1.6976738
-4.0184946 -6.3936286 -2.0234473
-4.5850382 -7.2893796 -1.9881173
-4.3026094 -6.8377209 -1.5703582
-4.3210511 -6.8617144 -1.284327
-9.9055166 -15.717527 -2.2811506
-12.421555 -19.702213 -2.0377011
-17.228117 -27.304909 -1.6920216
-4.0170126 -6.3420262 -2.0115416
-4.6135855 -7.2782688 -1.9894673
-4.3390684 -6.842557 -1.5749376
-4.3407435 -6.8399186 -1.2830757
-9.976284 -15.707989 -2.2848067
-12.411191 -19.534288 -2.0248022
-17.293312 -27.197416 -1.6890908
-4.0370474 -6.3247089 -2.0105064
-4.6337185 -7.2539086 -1.9872177
-4.3734984 -6.8439121 -1.5787537
-4.3752356 -6.8413658 -1.2862043
-9.9679203 -15.574424 -2.270426
-12.482522 -19.495882 -2.0253251
-17.373058 -27.113342 -1.6876254
-4.0716414 -6.3300748 -2.0167181
-4.658802 -7.2401414 -1.9876676
-4.3962984 -6.8269525 -1.5783721
-4.3989682 -6.8284798 -1.2865171
-10.078672 -15.633046 -2.2838318
-12.54726 -19.447168 -2.0248022
-17.215927 -26.672981 -1.6637602
-4.0957608 -6.321403 -2.018271
-4.6829867 -7.2221999 -1.9872177
-4.4338698 -6.8353968 -1.5837147
-4.4367599 -6.8346219 -1.2905844
-10.078026 -15.512871 -2.2714009
-12.673565 -19.500675 -2.0347378
-17.265371 -26.54575 -1.6595733
-4.1188593 -6.3086839 -2.0187886
-4.7156281 -7.2172298 -1.9903669
-7.0034299 -10.714602 -2.4881494
-4.4638329 -6.8240542 -1.2915231
-10.148424 -15.502511 -2.2750571
-12.767756 -19.496321 -2.0389214
-17.272533 -26.355024 -1.6514089
-4.1249275 -6.2700605 -2.011024
-4.7375789 -7.1958404 -1.9890171
-7.0353866 -10.681893 -2.4862413
-4.482192 -6.8001828 -1.2899587
-10.156569 -15.397395 -2.2648201
-12.766601 -19.346867 -2.0279398
-17.608763 -26.664566 -1.674646
-4.1542611 -6.2668948 -2.0146475
-4.7486625 -7.1581502 -1.9831684
-7.079145 -10.667086 -2.4885311
-4.5190148 -6.8042426 -1.2937132
-10.208056 -15.358542 -2.2643328
-12.831846 -19.29887 -2.0275912
-17.533558 -26.350193 -1.658736
-4.1707463 -6.2443228 -2.0120592
-4.8017764 -7.1836534 -1.9948659
-7.1076064 -10.629253 -2.4854782
-4.5460358 -6.7933502 -1.2946517
-10.24172 -15.293129 -2.2599452
-12.957911 -19.341684 -2.0368297
-17.59873 -26.249018 -1.6562239
-4.1914396 -6.2281237 -2.0115416
-4.8094058 -7.1409869 -1.9876676
-7.1512485 -10.614147 -2.4877679
-4.5807638 -6.7938199 -1.2977805
-10.286159 -15.244122 -2.2579956
-12.89158 -19.098173 -2.0159123
-17.600815 -26.055019 -1.6478502
-4.2077336 -6.2054601 -2.0089536
-4.8233609 -7.1080303 -1.9831684
-7.1816397 -10.579374 -2.4854782
-10.341541 -15.211407 -2.2584829
-12.987298 -19.095892 -2.0204444
-17.752337 -26.08259 -1.6535023
-4.234818 -6.1987104 -2.0115416
-4.8514433 -7.0959759 -1.9845182
-7.2007918 -10.528313 -2.4793723
-4.6314292 -6.7665653 -1.298719
-10.319415 -15.065485 -2.2421525
-13.016712 -18.996204 -2.0146921
-17.789055 -25.941399 -1.6484782
-4.2531438 -6.1791158 -2.0099888
-4.870656 -7.0709734 -1.9822687
-7.1996236 -10.448149 -2.4663973
-4.6606283 -6.7584882 -1.3002834
-10.410275 -15.084922 -2.2504396
-13.0637 -18.922777 -2.0117288
-17.847712 -25.833132 -1.6455473
-4.2823935 -6.175344 -2.0136123
-4.9008622 -7.0619349 -1.9845182
-7.2158976 -10.393924 -2.459528
-4.7067332 -6.7746234 -1.3065407
-10.409609 -14.971888 -2.2389839
-13.119434 -18.862341 -2.01016
-18.010803 -25.875587 -1.6522464
-4.2928576 -6.1445227 -2.0084357
-4.944468 -7.0719342 -1.9921664
-7.2026224 -10.297887 -2.4427369
-4.7303524 -6.7581525 -1.3065407
-10.503942 -14.995621 -2.2480021
-13.121169 -18.725056 -2.0003986
-17.933596 -25.573811 -1.6369642
-4.3109441 -6.1247611 -2.0068829
-4.9433112 -7.0179892 -1.9818188
-7.2701893 -10.317618 -2.4534223
-4.7550502 -6.7432146 -1.3068537
-10.482976 -14.855059 -2.2324028
-13.160019 -18.641706 -1.9963893
-18.11495 -25.641554 -1.6453379
-4.333415 -6.1112518 -2.0074008
-4.9643955 -6.9959235 -1.9804692
-7.300478 -10.284173 -2.451514
-4.7877145 -6.7394581 -1.3093567
-10.540514 -14.826468 -2.2336216
-13.234253 -18.608641 -1.9977839
-18.164965 -25.522844 -1.6417791
-4.3524752 -6.0929437 -2.0063653
-4.9921861 -6.9833078 -1.9818188
-7.3717356 -10.308131 -2.4633443
-4.8169565 -6.7307367 -1.310921
-10.562155 -14.74762 -2.2272844
-13.286362 -18.544519 -1.9958665
-18.237659 -25.436552 -1.6403136
-4.3793592 -6.0855541 -2.0089536
-5.0176706 -6.9674196 -1.9822687
-7.3847203 -10.250477 -2.4557118
-4.851975 -6.7299056 -1.3140497
-10.597305 -14.688126 -2.2238719
-13.327693 -18.465715 -1.9923801
-18.200033 -25.197878 -1.6290091
-4.3881025 -6.0530248 -2.0032594
-5.0568376 -6.9703679 -1.9881173
-7.4135389 -10.215104 -2.4534223
-4.8789191 -6.7177219 -1.3149883
-10.612333 -14.601266 -2.216316
-13.462368 -18.51577 -2.0028389
-18.271429 -25.111584 -1.6275437
-4.4035954 -6.0321989 -2.001189
-5.068428 -6.9378266 -1.9836185
-7.4265208 -10.161932 -2.446553
-4.9081659 -6.7110729 -1.3168654
-10.645453 -14.545169 -2.2131476
-13.496626 -18.43405 -1.9988298
-18.288498 -24.960634 -1.6216822
-4.418901 -6.0090098 -1.9986008
-5.0856328 -6.9131322 -1.9813689
-7.4782424 -10.158081 -2.4518957
-4.9362512 -6.702713 -1.3184298
-10.673608 -14.48262 -2.2090039
-13.536055 -18.353151 -1.9951692
-18.233622 -24.713417 -1.6095402
-4.4491501 -6.0082955 -2.0032594
-5.1039329 -6.8875074 -1.9791193
-4.9690342 -6.698133 -1.3209327
-21.696308 -29.235428 4.4701676
-10.707532 -14.42296 -2.2055917
-13.616673 -18.328182 -1.9976096
-18.298332 -24.620766 -1.6076561
-4.4792295 -6.0027866 -2.0068829
-5.1372681 -6.882143 -1.9827186
-7.460855 -9.9876633 -2.4232745
-5.0101085 -6.7020254 -1.3253129
-21.832703 -29.205622 4.4772363
-10.751867 -14.377547 -2.2043729
-13.650723 -18.240658 -1.9932518
-18.287874 -24.41925 -1.5988636
-4.49087 -5.9747601 -2.0027418
-5.1519156 -6.8492522 -1.9786695
-7.5145593 -9.9866581 -2.4293802
-5.0417886 -6.6955428 -1.327503
-22.047089 -29.26811 4.4991732
-10.820023 -14.358652 -2.2075415
-13.630356 -18.081533 -1.98105
-18.558245 -24.600807 -1.6149831
-4.5116987 -5.9590478 -2.0027418
-5.1934252 -6.8569851 -1.9858679
-7.4971952 -9.8915234 -2.4125891
-5.0854478 -6.7071209 -1.3331347
-22.208803 -29.280245 4.5123348
-10.842377 -14.289485 -2.2024229
-13.636765 -17.959261 -1.9728574
-18.659044 -24.564581 -1.6166579
-4.5220652 -5.9317627 -1.9986008
-5.1995993 -6.8155746 -1.9791193
-7.5192356 -9.852561 -2.4091544
-5.1016355 -6.6799088 -1.3312575
-22.327749 -29.224625 4.5157471
-10.880136 -14.235779 -2.1999855
-22.372597 -29.26215 5.8340678
-13.718023 -17.942434 -1.9759949
-18.781086 -24.546885 -1.6197979
-4.5439205 -5.9174738 -1.9991184
-5.2732296 -6.8622818 -1.9980152
-7.5404205 -9.8091326 -2.4049568
-5.1417832 -6.6839795 -1.3356376
-22.356989 -29.052116 4.501123
-10.918864 -14.183558 -2.1977918
-22.41193 -29.102489 5.8177986
-13.748964 -17.853397 -1.9714628
-18.717918 -24.288174 -1.607028
-4.5728207 -5.9122744 -2.0027418
-5.3770685 -6.9470844 -2.0281587
-7.6070681 -9.8246641 -2.4152606
-5.1892819 -6.6972203 -1.341895
-22.728245 -29.322206 4.5552325
-10.907488 -14.066917 -2.1856048
-13.745258 -17.720284 -1.9620501
-18.773193 -24.184824 -1.6045159
-4.5910573 -5.8932266 -2.0017066
-5.3940949 -6.9190521 -2.0254593
-7.6219983 -9.7732801 -2.4091544
-5.2345033 -6.7070971 -1.3475267
-10.973632 -14.050662 -2.1890175
-13.870816 -17.753838 -1.9711143
-18.808294 -24.056208 -1.600329
-4.611599 -5.8771663 -2.0017066
-5.396553 -6.8725915 -2.0173612
-7.6402988 -9.7265453 -2.4041934
-5.2847419 -6.722949 -1.3544097
-23.055098 -29.318867 4.5796065
-11.0042 -13.988867 -2.1853614
-13.807029 -17.545605 -1.9533345
-18.902039 -24.002962 -1.6011664
-4.6201077 -5.8458757 -1.9965302
-5.4229255 -6.8567696 -2.0182607
-7.6717691 -9.6967373 -2.4034302
-5.327795 -6.7292423 -1.3594157
-23.218924 -29.316017 4.5917935
-11.06036 -13.959705 -2.1868236
-14.038972 -17.712782 -1.9773895
-19.035357 -23.999426 -1.6053532
-4.6332684 -5.8206434 -1.9934243
-5.4213295 -6.805789 -2.0088129
-7.6847725 -9.643795 -2.3969426
-5.3635683 -6.726048 -1.3625443
-23.338451 -29.256508 4.5952058
-11.071874 -13.874467 -2.1795115
-14.017433 -17.559343 -1.9657105
-19.054184 -23.851692 -1.5999104
-4.6716828 -5.827045 -2.001189
-5.4450879 -6.7892933 -2.0092628
-7.7060986 -9.6016016 -2.3931265
-5.39821 -6.7236276 -1.3656731
-23.49501 -29.253242 4.6069055
-11.084252 -13.795891 -2.1729305
-14.156051 -17.606571 -1.9765179
-19.190756 -23.859964 -1.6047252
-4.7031145 -5.8265533 -2.0063653
-5.4809995 -6.7854056 -2.013762
-7.7070494 -9.5378189 -2.3835862
-5.4216475 -6.7047429 -1.3656731
-23.666887 -29.257486 4.6205544
-11.122352 -13.74477 -2.1709807
-13.870872 -17.13522 -1.9287566
-18.771053 -23.172054 -1.5628564
-4.7112384 -5.7951102 -2.001189
-5.4911222 -6.7496042 -2.0088129
-7.7601228 -9.5352201 -2.3896918
-5.4924207 -6.7439814 -1.3775622
-23.824039 -29.242411 4.6312795
-11.133894 -13.661238 -2.1639123
-14.213877 -17.434141 -1.9679767
-19.021013 -23.313761 -1.5768825
-4.7204237 -5.7651768 -1.9965302
-5.5121808 -6.7273788 -2.0079131
-7.7746921 -9.4852991 -2.3839676
-5.500895 -6.7064404 -1.3738077
-23.97382 -29.217384 4.6405416
-11.126094 -13.55478 -2.1531878
-14.235447 -17.336687 -1.9625731
-18.97802 -23.095991 -1.5666246
-4.7392888 -5.7471752 -1.9960126
-5.5319095 -6.7035875 -2.0065634
-7.8115025 -9.4626474 -2.3851125
-5.5569825 -6.7267938 -1.3819423
-24.154058 -29.228401 4.6556535
-11.192317 -13.538806 -2.1568437
-14.289529 -17.279215 -1.9617014
-19.366674 -23.401974 -1.5919553
-4.7654929 -5.7380276 -1.9986008
-5.5378361 -6.6632557 -2.0002646
-7.7980461 -9.3794641 -2.3709927
-5.5930619 -6.7225418 -1.3850709
-24.288961 -29.183573 4.6619902
-11.242049 -13.502707 -2.1573315
-14.310227 -17.181772 -1.9562978
-19.386866 -23.260584 -1.586931
-4.7830157 -5.7183928 -1.9975655
-5.577322 -6.6633105 -2.0061135
-7.7841077 -9.2964897 -2.3568728
-5.6190314 -6.7060056 -1.3856968
-24.513102 -29.244658 4.6853895
-11.269981 -13.440565 -2.1536753
-14.311217 -17.061497 -1.9482795
-19.388332 -23.097925 -1.5804414
-4.8066807 -5.7060962 -1.9991184
-5.5804515 -6.6199627 -1.9989151
-7.8190403 -9.2722654 -2.3576362
-5.665338 -6.7135224 -1.3913282
-24.681623 -29.237789 4.6980639
-11.32323 -13.40873 -2.1548939
-14.325687 -16.958162 -1.9421785
-19.450783 -23.008757 -1.578976
-4.8165708 -5.6774974 -1.9949772
-5.5733724 -6.5672474 -1.9885672
-7.8577132 -9.2523975 -2.359544
-5.6926847 -6.7007222 -1.3925798
-24.724453 -29.092251 4.6878266
-11.289202 -13.278851 -2.1400259
-24.751755 -29.103798 6.051199
-14.424819 -16.955095 -1.9475821
-19.539923 -22.959335 -1.5800226
-40.431065 -47.472755 -1.0884367
-4.8278441 -5.6526794 -1.9918715
-5.6177878 -6.5729346 -1.9962157
-7.8334932 -9.1621246 -2.3431346
-5.7237473 -6.6898146 -1.394457
-24.867153 -29.054035 4.6956263
-11.358723 -13.266504 -2.1444132
-24.799311 -28.964537 6.03931
-14.512072 -16.943487 -1.9517657
-19.484772 -22.733278 -1.5691369
-40.393028 -47.110706 -1.0832011
-4.845027 -5.6328635 -1.9908361
-5.6357369 -6.54984 -1.9948659
-7.8103437 -9.0707512 -2.326725
-5.7587886 -6.6857667 -1.3975856
-11.357293 -13.176137 -2.1358824
-14.53989 -16.85652 -1.9475821
-19.565269 -22.674587 -1.5695555
-4.8760424 -5.6290598 -1.995495
-5.6597075 -6.5291386 -1.9948659
-7.7712159 -8.9618549 -2.3057361
-5.8013816 -6.6855006 -1.4019659
-25.358267 -29.212515 4.7497363
-11.423732 -13.155408 -2.1392946
-14.564672 -16.766556 -1.94305
-19.574867 -22.518312 -1.5636939
-40.466625 -46.518707 -1.0762202
-4.8956618 -5.6120048 -1.995495
-5.6978412 -6.5269599 -2.0002646
-7.7972856 -8.9287586 -2.3042095
-5.8402815 -6.6830583 -1.4057202
-11.48657 -13.134874 -2.1424632
-14.606056 -16.696119 -1.9407841
-19.729654 -22.537004 -1.5697649
-14.94671 -17.061472 -0.39592528
-4.9228735 -5.6035881 -1.9986008
-5.7141566 -6.4997134 -1.9980152
-7.8413734 -8.9162273 -2.3080258
-5.8635731 -6.6626325 -1.4057202
-11.54416 -13.108109 -2.1446569
-14.623414 -16.598692 -1.9353805
-15.003093 -17.01767 -1.1889683
-14.974423 -16.973202 -0.39508757
-4.9283228 -5.5704546 -1.9929067
-5.7381039 -6.4811859 -1.9984653
-6.1737804 -6.97083 -1.8100141
-5.9156213 -6.6746464 -1.4126034
-11.566132 -13.041 -2.1402695
-14.658791 -16.522203 -1.932417
-15.004057 -16.899483 -1.1843628
-14.951234 -16.828144 -0.3929235
-4.9503064 -5.5561032 -1.993942
-5.7684746 -6.4698439 -2.0011647
-6.2215967 -6.9756117 -1.8168833
-5.9467764 -6.6627989 -1.4144807
-11.557371 -12.939844 -2.1302764
-14.688498 -16.439735 -1.9287566
-14.956461 -16.72789 -1.175989
-14.937878 -16.695381 -0.3910386
-4.9696708 -5.5387893 -1.993942
-5.768888 -6.4250188 -1.9935162
-6.2078638 -6.9114947 -1.8058165
-5.9911237 -6.6655068 -1.4194865
-11.611762 -12.909752 -2.1319826
-14.729798 -16.370592 -1.9266648
-14.934575 -16.586525 -1.1697087
-14.923786 -16.562912 -0.38915375
-4.9812036 -5.5128074 -1.9908361
-5.8121924 -6.4279695 -2.0007145
-6.1832237 -6.8359113 -1.7916965
-6.030262 -6.662128 -1.4232409
-11.615439 -12.823534 -2.1244266
-14.761436 -16.291023 -1.9233528
-14.962864 -16.501743 -1.167406
-14.900886 -16.421862 -0.38705948
-5.0095177 -5.5053887 -1.9944596
-5.8372197 -6.4105244 -2.0016146
-6.240099 -6.8505702 -1.801237
-6.0614653 -6.649797 -1.4251182
-11.670833 -12.794642 -2.1263764
-14.775238 -16.192301 -1.917775
-14.926101 -16.34617 -1.1600789
-14.896065 -16.301846 -0.38545385
-5.0221791 -5.4807467 -1.9918715
-5.8358541 -6.3642554 -1.9935162
-6.1046767 -6.6504259 -1.4298111
-11.686345 -12.726627 -2.1215017
-14.837062 -16.146494 -1.9184722
-14.904659 -16.208698 -1.1540079
-14.887767 -16.184658 -0.38384825
-5.0285382 -5.4512825 -1.9872128
-5.866178 -6.3548927 -1.9966656
-7.8129463 -8.4608803 -2.2385712
-6.1360803 -6.6403027 -1.4320012
-11.704231 -12.661566 -2.1171145
-14.828289 -16.029924 -1.9104539
-14.923053 -16.121075 -1.1512865
-14.867989 -16.055969 -0.38196337
-5.0439572 -5.431747 -1.9861774
-5.8951793 -6.3439703 -1.999365
-7.8182378 -8.4104805 -2.2320838
-6.1782479 -6.6416121 -1.4366943
-11.751061 -12.623538 -2.1176019
-14.831191 -15.921209 -1.9036556
-14.902903 -15.992595 -1.1456342
-14.885757 -15.963021 -0.38098606
-5.067791 -5.4174557 -1.9877304
-5.8959832 -6.3005872 -1.9921664
-7.806067 -8.3359137 -2.219872
-6.2228127 -6.6405435 -1.4413874
-11.736673 -12.520169 -2.1071212
-14.858051 -15.838828 -1.8999952
-14.986024 -15.964076 -1.1475183
-14.96329 -15.934285 -0.38154453
-5.0999174 -5.4137945 -1.9929067
-5.9110165 -6.2704272 -1.9894673
-7.7583418 -8.2271996 -2.1981196
-6.2540874 -6.6274028 -1.4432646
-11.819285 -12.516034 -2.1137023
-14.932399 -15.807145 -1.9024355
-15.07047 -15.942148 -1.1497164
-15.071028 -15.937172 -0.38287091
-5.1134653 -5.3903532 -1.9908361
-5.9264116 -6.2451358 -1.9876676
-7.8424435 -8.2584333 -2.2137661
-6.292356 -6.6238117 -1.4470189
-11.842946 -12.458068 -2.1105335
-14.953156 -15.718838 -1.8980778
-15.149415 -15.919575 -1.1517051
-15.170696 -15.930806 -0.38398784
-5.1166368 -5.3579984 -1.9851422
-5.9320192 -6.2075043 -1.9822687
-7.818233 -8.1784573 -2.1992648
-6.3345575 -6.6217918 -1.4513992
-11.863022 -12.392277 -2.1063898
-15.04516 -15.710894 -1.9031327
-15.243582 -15.906977 -1.1546359
-15.273275 -15.926822 -0.38517463
-5.1406636 -5.3456764 -1.9872128
-5.9523005 -6.1853557 -1.9818188
-7.837203 -8.1412153 -2.1965933
-6.3658566 -6.6081753 -1.4532764
-11.897941 -12.342217 -2.1049275
-15.128954 -15.688397 -1.9067932
-15.335074 -15.891035 -1.1573575
-15.362117 -15.907934 -0.38601235
-5.167357 -5.3360248 -1.9903185
-5.9589353 -6.1491475 -1.9768698
-7.8737726 -8.1222658 -2.1988828
-6.402637 -6.6000938 -1.456405
-11.954778 -12.314853 -2.1073649
-15.189131 -15.635701 -1.907142
-15.451696 -15.900432 -1.161963
-15.456585 -15.894358 -0.38698968
-5.1868787 -5.3170505 -1.9903185
-5.9735608 -6.121335 -1.9746205
-7.878798 -8.0680714 -2.192014
-6.4323092 -6.5822325 -1.4576566
-11.96716 -12.241821 -2.1020026
-15.076427 -15.411675 -1.8862245
-15.521049 -15.85511 -1.1628003
-15.559541 -15.888883 -0.38817641
-5.2148838 -5.3085594 -1.993942
-5.9809275 -6.0841141 -1.9696715
-7.883513 -8.0167208 -2.1855264
-6.4663291 -6.5710044 -1.4601595
-12.010559 -12.196459 -2.1017587
-15.179067 -15.408636 -1.8923255
-15.635189 -15.860573 -1.1671966
-15.662612 -15.877302 -0.3892934
-5.2415352 -5.2985625 -1.9970479
-6.0007582 -6.0618148 -1.9692216
-7.9376965 -8.0156593 -2.1927772
-6.5198164 -6.5792608 -1.4670426
-12.020911 -12.122041 -2.0961528
-15.260827 -15.383842 -1.8958117
-15.73267 -15.848422 -1.1703368
-15.768674 -15.873604 -0.39054993
-5.2490907 -5.2692862 -1.9929067
-6.0205073 -6.0394497 -1.9687717
-8.0293961 -8.0518522 -2.2103314
-6.5427442 -6.5564609 -1.4670426
-12.110128 -12.131282 -2.1046836
-15.284863 -15.300878 -1.8921511
-15.864142 -15.869688 -1.175989
-15.866474 -15.866474 -0.39166692
-5.258328 -5.2436652 -1.9898008
-6.0405006 -6.019453 -1.9687717
-8.0922174 -8.061203 -2.2202537
-6.5896482 -6.5598149 -1.4726743
-12.154512 -12.095257 -2.1054149
-15.348234 -15.262751 -1.8937199
-15.962015 -15.862042 -1.1793386
-15.938866 -15.833501 -0.39215559
-5.2743154 -5.2248397 -1.9892832
-6.065968 -6.0048723 -1.9705712
-8.0909948 -8.0067043 -2.2126212
-6.625411 -6.5518165 -1.4758029
-12.174791 -12.035346 -2.1020026
-15.360492 -15.173968 -1.8890136
-20.181973 -19.922987 -1.4862366
-39.966099 -39.439465 -0.98009223
-5.2971196 -5.2127414 -1.9913538
-6.0761213 -5.9751592 -1.9674219
-8.0698967 -7.9330392 -2.1996462
-6.6611934 -6.5436525 -1.4789317
-12.227383 -12.007424 -2.1041963
-15.380863 -15.093641 -1.8853531
-20.16522 -19.774845 -1.4801657
-40.068108 -39.278721 -0.9793942
-5.3161907 -5.1932898 -1.9913538
-6.0951915 -5.9501262 -1.9665221
-8.1199722 -7.9211874 -2.204989
-6.7105894 -6.5440183 -1.4845634
-12.266286 -11.953462 -2.1029775
-15.497228 -15.091462 -1.8924997
-20.212374 -19.669411 -1.4780722
-40.247299 -39.152466 -0.98009223
-5.3435092 -5.1818414 -1.9944596
-6.1169591 -5.9277458 -1.9665221
-8.1151047 -7.8585925 -2.1958301
-6.7572374 -6.5413623 -1.4895692
-12.294322 -11.893241 -2.1002965
-15.558167 -15.040099 -1.8931969
-20.238365 -19.550793 -1.4747227
-40.888237 -39.485321 -0.99216932
-5.3513336 -5.1515017 -1.9903185
-6.1470714 -5.9133925 -1.9692216
-8.1127701 -7.8016405 -2.1878161
-6.8011074 -6.5357132 -1.4939493
-12.352942 -11.866755 -2.1032214
-15.520022 -14.898775 -1.8822154
-20.222893 -19.399836 -1.4686518
-40.996952 -39.314667 -0.99147117
-5.3600097 -5.1257167 -1.9872128
-7.7159338 -7.3760858 0.1863219
-6.168056 -5.8943214 -1.9696715
-8.1314983 -7.7679138 -2.1859078
-6.8598943 -6.5485878 -1.5020839
-12.385044 -11.818873 -2.1020026
-15.585205 -14.862351 -1.8841329
-20.240841 -19.288578 -1.4653022
-40.446598 -38.530243 -0.97506595
-5.3783784 -5.1092439 -1.9877304
-7.7142506 -7.3256717 0.18569361
-6.1734338 -5.8604198 -1.9651723
-8.1401243 -7.7246881 -2.1813285
-6.9131069 -6.5557079 -1.508967
-12.410373 -11.760553 -2.0993216
-15.601136 -14.779071 -1.8801236
-21.612989 -20.459843 -1.5597163
-40.493687 -38.306366 -0.97297168
-5.3961797 -5.0904403 -1.9877304
-7.7194076 -7.2794919 0.18520494
-6.1952729 -5.8401699 -1.9656224
-8.0970259 -7.6302533 -2.1626294
-6.9848442 -6.5775809 -1.5196046
-12.43111 -11.698115 -2.0959091
-15.646825 -14.719061 -1.8794264
-21.698833 -20.397949 -1.560763
-40.662125 -38.197651 -0.97380942
-5.4153256 -5.0728936 -1.988248
-7.7272549 -7.2360992 0.18478608
-6.2141967 -5.8171778 -1.9651723
-7.0221882 -6.5666523 -1.5227332
-12.468969 -11.651936 -2.0954216
-15.648603 -14.618114 -1.8734998
-21.764065 -20.316631 -1.5603443
-5.4287572 -5.0500126 -1.9866952
-7.731966 -7.1900177 0.18429741
-6.2387462 -5.7994308 -1.9665221
-7.8739705 -7.3169456 -2.0893586
-7.0827026 -6.5770488 -1.5308678
-7.6640549 -7.1119161 -1.2837718
-7.6598783 -7.1055532 -0.91408944
-7.667902 -7.1080184 -0.54795748
-7.7120156 -7.1439042 -0.18349461
-5.4435134 -5.0284095 -1.9856598
-7.7158818 -7.124999 0.18332008
-6.2575212 -5.7762966 -1.9660723
-10.123291 -9.3349638 -2.1810095
-12.573367 -11.58613 -2.0993216
-14.019621 -12.914302 -1.6676379
-7.7132397 -7.1001458 -0.54942292
-7.6885738 -7.0749621 -0.18237765
-5.4638805 -5.0119896 -1.9866952
-7.6982055 -7.0615244 0.18234275
-6.2694602 -5.748929 -1.9638227
-8.1593485 -7.4766655 -2.1511807
-10.106122 -9.2573109 -2.1706848
-12.582435 -11.517564 -2.0944467
-14.046973 -12.849148 -1.6655462
-22.001593 -20.118402 -1.5624378
-40.656433 -37.150467 -0.96131343
-5.4804711 -4.9938431 -1.9866952
-7.7228074 -7.0346088 0.18234275
-6.2851648 -5.7230744 -1.9624729
-8.1753864 -7.441637 -2.148891
-10.166139 -9.2472353 -2.1766293
-12.632844 -11.482919 -2.0961528
-14.067386 -12.782402 -1.6629317
-22.039156 -20.011942 -1.560135
-5.5021663 -4.97857 -1.988248
-7.7265515 -6.9888291 0.18185407
-6.3123312 -5.7076344 -1.9647225
-8.1707268 -7.3854084 -2.140877
-10.117732 -9.1388645 -2.1594217
-12.672848 -11.438754 -2.0961528
-14.066067 -12.69184 -1.6575279
-22.09107 -19.918842 -1.5588789
-5.5051403 -4.9464231 -1.9830716
-7.7196589 -6.9337549 0.18112107
-6.3423681 -5.6946778 -1.9678718
-8.14678 -7.3122573 -2.127902
-10.052517 -9.0164404 -2.1387722
-12.619571 -11.310976 -2.0807974
-14.069448 -12.601653 -1.6524729
-14.152168 -12.671288 -0.99553466
-40.441166 -36.184002 -0.94721192
-5.5217929 -4.9249253 -1.982554
-7.7035232 -6.8708258 0.18017864
-6.362206 -5.6725054 -1.9678718
-8.1266212 -7.2405539 -2.1156902
-10.206472 -9.0872488 -2.1644275
-12.599668 -11.214064 -2.0710478
-14.076131 -12.519361 -1.6481152
-14.201499 -12.621989 -0.99574399
-14.1702 -12.589746 -0.3308627
-5.5476265 -4.9133067 -1.9856598
-6.3741989 -5.6413999 -1.9651723
-8.0224504 -7.0976663 -2.0821078
-10.202615 -9.0201616 -2.1569188
-12.738867 -11.254556 -2.0871346
-14.089881 -12.443769 -1.6446289
-14.179575 -12.509776 -0.33005992
-5.561842 -4.8913603 -1.9846245
-7.7392888 -6.8063149 0.17989941
-6.3914075 -5.6189437 -1.9647225
-8.1135492 -7.1279278 -2.0992808
-10.152318 -8.9158926 -2.1400237
-7.5301971 -6.6084585 -1.2301493
-14.166187 -12.42341 -1.6484637
-14.175949 -12.4276 -0.98799825
-5.5794868 -4.8741603 -1.9851422
-7.7690253 -6.7845201 0.18003903
-6.4153857 -5.6004457 -1.9660723
-7.7984023 -6.805378 -2.0118902
-10.412657 -9.0803356 -2.1882055
-7.5771642 -6.6029987 -1.2340491
-14.320651 -12.470713 -1.6613626
-22.486561 -19.57485 -1.5624378
-5.5856366 -4.843554 -1.981001
-7.7911477 -6.7560506 0.18000412
-6.4319525 -5.5754633 -1.9651723
-7.8054843 -6.7613258 -2.0073106
-10.348785 -8.9580784 -2.1678691
-7.612174 -6.5869021 -1.235999
-14.451509 -12.496233 -1.6714728
-22.582335 -19.513195 -1.5641125
-5.6054392 -4.8265467 -1.9820364
-14.194945 -12.218203 0.32691848
-6.452343 -5.5518527 -1.9651723
-7.7635493 -6.6777058 -1.9905195
-8.0924683 -6.9557104 -1.6901182
-7.6693964 -6.5874124 -1.2413613
-14.590273 -12.527479 -1.6824545
-22.632122 -19.418642 -1.5628564
-5.6251893 -4.8094611 -1.9830716
-14.195868 -12.137277 0.32601094
-6.4588675 -5.5202966 -1.9615731
-7.7300835 -6.6021142 -1.9760182
-8.1230001 -6.9352493 -1.6916825
-7.7153616 -6.5825577 -1.2452611
-16.050001 -13.683791 -1.8452613
-22.708553 -19.353848 -1.5636939
-5.6440525 -4.793282 -1.9841069
-14.212232 -12.065652 0.32541758
-6.4780979 -5.4977169 -1.9615731
-7.7309747 -6.5586624 -1.9706753
-8.1351051 -6.8966331 -1.6891795
-7.753438 -6.5684166 -1.2476985
-16.074001 -13.612469 -1.842821
-22.748531 -19.251236 -1.5618098
-5.6622257 -4.7747974 -1.9846245
-14.205336 -11.974724 0.32430062
-6.4957585 -5.4738145 -1.9611233
-7.744813 -6.5240479 -1.9683858
-8.1107712 -6.8274837 -1.6791677
-7.8066998 -6.5668716 -1.2525733
-16.125998 -13.56012 -1.843344
-22.830877 -19.184566 -1.5628564
-5.6684899 -4.7463222 -1.981001
-14.178046 -11.867308 0.32272989
-6.5237956 -5.4586082 -1.9638227
-7.7600083 -6.4906774 -1.9664776
-8.2042761 -6.8574052 -1.6935596
-7.8600464 -6.5650311 -1.2574481
-16.121233 -13.46033 -1.8374174
-22.913048 -19.117544 -1.5639032
-5.6790814 -4.7215657 -1.9789305
-14.117885 -11.733383 0.32042617
-6.5428085 -5.4358044 -1.9638227
-7.7705355 -6.4535151 -1.9634248
-10.380587 -8.6150703 -2.1365821
-7.9012527 -6.5527592 -1.2603729
-16.189592 -13.42178 -1.8398577
-22.939651 -19.004316 -1.5611818
-5.7051349 -4.711318 -1.982554
-14.113533 -11.650863 0.31944886
-6.5427623 -5.3991933 -1.9584239
-7.7964363 -6.4314585 -1.9645696
-10.290207 -8.4825926 -2.1121783
-7.9413247 -6.5416665 -1.2632977
-16.227859 -13.362953 -1.8391604
-23.021053 -18.943371 -1.5624378
-5.7230387 -4.6926007 -1.9830716
-14.112362 -11.567296 0.31850642
-6.5615692 -5.3763218 -1.9584239
-7.835546 -6.4178891 -1.9687674
-10.305996 -8.4353609 -2.1093626
-7.9917684 -6.5365305 -1.2676851
-16.402431 -13.4109 -1.8536284
-23.074659 -18.852791 -1.5616004
-5.7423806 -4.6750345 -1.9841069
-14.118531 -11.490194 0.31773853
-6.5878544 -5.3595338 -1.9606735
-7.8000207 -6.3434296 -1.9542658
-10.35684 -8.4167757 -2.1137428
-8.0422745 -6.5311189 -1.2720723
-16.419754 -13.329703 -1.8503164
-23.158941 -18.78723 -1.5628564
-5.7451434 -4.6440296 -1.9794481
-14.094785 -11.389312 0.31630743
-6.6065211 -5.3365064 -1.9606735
-7.8251719 -6.3186283 -1.955029
-9.9726162 -8.0468903 -2.0295811
-8.1113815 -6.5403867 -1.2793844
-16.458424 -13.266058 -1.8494449
-23.199493 -18.68623 -1.5611818
-5.7643337 -4.6263657 -1.9804834
-14.050227 -11.27247 0.31442255
-6.6205492 -5.3097529 -1.9593236
-7.8747525 -6.3133798 -1.9618982
-10.464681 -8.3837891 -2.1237545
-8.1806517 -6.5492535 -1.2866967
-16.507746 -13.211013 -1.8497934
-23.30825 -18.640066 -1.5641125
-5.7834678 -4.6086249 -1.9815186
-14.039438 -11.183488 0.31330562
-6.631422 -5.2805409 -1.9570743
-7.8905964 -6.2809639 -1.9603716
-10.161504 -8.0828238 -2.0564878
-8.2407608 -6.5503006 -1.2925464
-16.444567 -13.066545 -1.8375916
-23.35441 -18.543682 -1.5628564
-5.7995195 -4.5884089 -1.9815186
-14.018792 -11.087272 0.31197923
-6.6528702 -5.2597795 -1.957974
-7.9201751 -6.259469 -1.9622798
-10.291969 -8.1281099 -2.077137
-8.3290234 -6.5731459 -1.3027834
-16.502588 -13.018939 -1.838986
-23.418995 -18.462046 -1.5628564
-5.8170204 -4.5693297 -1.9820364
-14.013369 -11.003693 0.3110019
-6.6681242 -5.2341185 -1.9570743
-7.9265318 -6.2196646 -1.9584637
-10.300072 -8.0762901 -2.0730698
-8.3987932 -6.5807638 -1.3100955
-16.540089 -12.955112 -1.8381145
-23.483294 -18.380192 -1.5628564
-5.8222713 -4.5406804 -1.9784129
-14.007535 -10.920283 0.31002453
-6.692502 -5.215601 -1.9588737
-7.9358029 -6.1823053 -1.9554106
-10.29079 -8.0111618 -2.0655608
-8.5219898 -6.6294127 -1.3256948
-16.468822 -12.806789 -1.8252156
-23.556772 -18.305458 -1.5634844
-5.8335037 -4.5167809 -1.9768599
-13.985478 -10.824811 0.30869818
-6.7045026 -5.1874385 -1.9570743
-7.9495716 -6.1485615 -1.9535027
-10.321818 -7.9776082 -2.0661867
-8.5984955 -6.6408806 -1.3339819
-15.412639 -11.899357 -1.7035462
-23.642666 -18.240198 -1.56495
-5.855361 -4.5011001 -1.9789305
-13.977193 -10.740594 0.30768594
-6.7179327 -5.1604419 -1.9557245
-7.975656 -6.124361 -1.9546474
