# .PCD v0.7 - Point Cloud Data file format
VERSION 0.7
FIELDS x y z
SIZE 4 4 4
TYPE F F F
COUNT 1 1 1
WIDTH 1464
HEIGHT 1
VIEWPOINT 0 0 0 1 0 0 0
POINTS 1464
DATA ascii
-3.4051688 -11.193682 -1.8531229
-4.1910596 -13.759865 -1.7661307
-4.7680659 -15.634673 -1.4300514
-5.6522055 -18.522207 -1.0148989
-7.1690278 -23.463488 -0.42824715
-2.3493931 -7.6510749 -2.1445746
-2.5094969 -8.1623182 -1.9714712
-2.9042747 -9.4404945 -1.9199202
-3.4471278 -11.191167 -1.8546873
-4.2378974 -13.741358 -1.7656432
-4.8239975 -15.632102 -1.4312716
-5.7575068 -18.634035 -1.0221213
-7.2515225 -23.454866 -0.42852637
-2.3703513 -7.6243801 -2.1393983
-2.5377085 -8.1576729 -1.9723709
-2.9395461 -9.4377966 -1.9214467
-3.4848082 -11.18156 -1.8550001
-4.2869883 -13.738599 -1.7671057
-4.8898249 -15.6513 -1.4345835
-5.8252282 -18.633905 -1.0231681
-7.336936 -23.440863 -0.42873582
-2.3962014 -7.6183205 -2.1399159
-2.5661678 -8.1487656 -1.9723709
-2.9714174 -9.4298706 -1.9218283
-3.5190623 -11.154256 -1.8524972
-4.3355169 -13.725443 -1.7673494
-4.9459033 -15.648297 -1.4358037
-5.8968639 -18.634403 -1.0243194
-7.3844466 -23.321083 -0.4269906
-2.4198489 -7.6007061 -2.1373277
-2.589627 -8.1290693 -1.9696715
-3.0037179 -9.4175701 -1.9214467
-3.5590348 -11.151934 -1.8540615
-4.3798008 -13.70721 -1.7668619
-4.9913883 -15.602473 -1.4331889
-5.9561906 -18.607138 -1.0239007
-7.4828935 -23.348484 -0.42796791
-2.4516976 -7.6087608 -2.1419864
-2.622396 -8.1287966 -1.971921
-3.0407951 -9.4201069 -1.924118
-3.5998852 -11.138815 -1.8540615
-4.4287887 -13.687286 -1.7663743
-5.0544109 -15.611492 -1.4356294
-6.0200391 -18.571882 -1.0231681
-7.5066919 -23.130697 -0.42447743
-2.4794407 -7.6038308 -2.1430218
-2.6495445 -8.1158876 -1.9710211
-3.0693917 -9.3963699 -1.9214467
-3.6424305 -11.137445 -1.8559387
-4.4771557 -13.67363 -1.7666181
-5.0983324 -15.561567 -1.4326662
-6.0736237 -18.516596 -1.021284
-7.5162625 -22.887768 -0.42049828
-2.50173 -7.5822878 -2.1393983
-2.6796932 -8.1121416 -1.9723709
-3.0997083 -9.3781424 -1.9199202
-3.6825259 -11.128415 -1.8565645
-4.5273561 -13.665457 -1.7675931
-5.1645298 -15.579607 -1.4359779
-6.1501765 -18.531296 -1.0232726
-7.6200714 -22.933502 -0.42182469
-2.5306287 -7.5808382 -2.1414688
-2.7110813 -8.1119795 -1.9746205
-3.1361611 -9.378437 -1.9222099
-3.7163305 -11.100507 -1.8540615
-4.5769224 -13.655215 -1.7683243
-5.2049456 -15.519929 -1.4321432
-6.2199101 -18.524864 -1.0241101
-7.8950462 -23.486778 -0.43250555
-2.5576937 -7.5737882 -2.1419864
-2.7362611 -8.093236 -1.9723709
-3.172653 -9.3785915 -1.9244996
-3.7531567 -11.081854 -1.8531229
-4.625834 -13.642916 -1.7688118
-5.2834134 -15.573363 -1.4387671
-6.2768259 -18.480347 -1.022854
-7.9947658 -23.524841 -0.43369228
-2.5841157 -7.5648141 -2.1419864
-2.7624533 -8.0822735 -1.971921
-3.2053714 -9.3674593 -1.9244996
-3.7911634 -11.073085 -1.8537486
-4.6697631 -13.623746 -1.7683243
-5.3383875 -15.556709 -1.4389412
-6.3289971 -18.432981 -1.0213886
-8.1528902 -23.718048 -0.43777618
-2.6066649 -7.5488997 -2.1399159
-2.7925591 -8.0781059 -1.9732707
-3.2338493 -9.3493567 -1.922973
-3.8310859 -11.063517 -1.8543743
-4.7159905 -13.603611 -1.7678368
-5.404964 -15.582217 -1.4429505
-6.4037833 -18.440966 -1.0230633
-8.2297239 -23.672447 -0.43746203
-2.6330006 -7.5397544 -2.1399159
-2.8252413 -8.0811863 -1.9764199
-3.2658181 -9.3361588 -1.9225914
-3.8696804 -11.050077 -1.8543743
-4.7673883 -13.598306 -1.7692993
-5.4626188 -15.572655 -1.4438219
-6.4773803 -18.444881 -1.0245287
-8.3295469 -23.692625 -0.43836957
-2.6560862 -7.52141 -2.1373277
-2.851485 -8.0657635 -1.9750704
-3.2964227 -9.319149 -1.9214467
-3.904274 -11.02533 -1.8524972
-4.8161511 -13.585324 -1.7697867
-5.5256052 -15.577902 -1.4460881
-6.5377164 -18.410868 -1.0239007
-8.3981342 -23.623838 -0.43763655
-2.6862216 -7.5230088 -2.1404335
-2.8789659 -8.0539265 -1.9746205
-3.3362052 -9.327919 -1.9256444
-3.9434011 -11.013494 -1.85281
-4.8648853 -13.572167 -1.7702743
-5.5705309 -15.532264 -1.4436477
-6.6269135 -18.457483 -1.0277736
-8.4974556 -23.641424 -0.43850917
-2.7150905 -7.5208545 -2.1425042
-2.9083858 -8.047493 -1.9755201
-3.3660758 -9.3088331 -1.924118
-3.9824922 -11.001519 -1.8531229
-4.9122305 -13.555103 -1.7702743
-5.6287913 -15.523962 -1.4446936
-6.6810789 -18.40608 -1.0262035
-8.5758305 -23.60034 -0.43829972
-2.7413261 -7.5113316 -2.1425042
-14.08297 -38.56694 0.71666563
-2.9357915 -8.0354614 -1.9750704
-3.3958519 -9.2896509 -1.9225914
-4.0235872 -10.99497 -1.8543743
-4.9554195 -13.52669 -1.7688118
-5.6987157 -15.547245 -1.4487028
-6.7707448 -18.452023 -1.0300764
-8.3244343 -22.661766 -0.42140582
-2.7641857 -7.4926543 -2.1399159
-8.4908972 -23.003222 0.42800283
-2.9685478 -8.037961 -1.9782196
-3.430301 -9.2832651 -1.9237365
-4.0633125 -10.984565 -1.8550001
-5.0085173 -13.532523 -1.7717367
-5.759871 -15.54594 -1.4504458
-6.844142 -18.452618 -1.031437
-8.6555672 -23.32395 -0.4342508
-2.7869923 -7.4780164 -2.1383629
-8.5294027 -22.873758 0.42611796
-2.9945056 -8.026247 -1.9777697
-8.435729 -22.610495 1.2647508
-3.4617536 -9.2736778 -1.924118
-4.0955677 -10.959927 -1.8531229
-5.05128 -13.510261 -1.7710054
-5.8079 -15.517424 -1.4495742
-6.8947854 -18.401768 -1.0298671
-8.6668797 -23.119106 -0.43096972
-2.8144979 -7.475965 -2.1404335
-3.0149188 -7.9998603 -1.9737206
-8.5343332 -22.63324 1.2676817
-3.4911001 -9.2584743 -1.9233549
-4.133285 -10.949981 -1.8537486
-5.0948992 -13.483262 -1.7697867
-5.8586221 -15.496217 -1.4493999
-6.9861674 -18.459126 -1.034368
-8.7517815 -23.099932 -0.43117917
-2.8426378 -7.4715109 -2.1419864
-3.0483744 -8.0038567 -1.9773197
-8.6403141 -22.674229 1.2716591
-3.5275922 -9.2572374 -1.9256444
-8.7055273 -22.833397 2.1379304
-4.1735954 -10.941024 -1.8546873
-5.1461816 -13.476522 -1.7712492
-5.9155231 -15.483116 -1.4500972
-7.0355763 -18.395449 -1.0321698
-8.4963112 -22.191517 -0.41477388
-2.8673146 -7.4579368 -2.1409512
-8.8405905 -22.982552 0.42981786
-3.0790944 -8.0004416 -1.9791193
-8.7495508 -22.722214 1.2760555
-3.55424 -9.2302113 -1.9225914
-8.7894793 -22.814024 2.1389763
-4.2146015 -10.933761 -1.8559387
-5.1917648 -13.454772 -1.7707617
-5.9781446 -15.484676 -1.452189
-7.1098261 -18.39686 -1.0336351
-8.5708351 -22.154266 -0.41463429
-2.8898318 -7.438879 -2.1383629
-8.8425198 -22.750257 0.42604813
-3.1070027 -7.989645 -1.9791193
-8.7607374 -22.516567 1.2662162
-3.5892856 -9.2250671 -1.924118
-8.8517122 -22.738646 2.1347928
-4.2513084 -10.915301 -1.8553129
-5.2401395 -13.440267 -1.7712492
-6.0372267 -15.476708 -1.4534091
-7.1311364 -18.262167 -1.0274596
-8.6371975 -22.096273 -0.41411069
-2.9164877 -7.4305439 -2.1388805
-8.8122358 -22.440056 0.42081243
-3.1320221 -7.9714952 -1.9773197
-8.8538971 -22.523026 1.2683097
-3.6200294 -9.208828 -1.9233549
-8.9135313 -22.663109 2.1306093
-4.2886615 -10.898557 -1.8550001
-5.2899342 -13.429282 -1.7722242
-6.0824475 -15.433295 -1.4513173
-7.2329559 -18.333771 -1.0329025
-8.7208853 -22.082729 -0.41442484
-2.9416947 -7.4185228 -2.1383629
-8.9111633 -22.461201 0.42178977
-3.1612666 -7.964138 -1.9782196
-9.1020126 -22.918917 1.2923841
-3.6550496 -9.203434 -1.9248812
-9.0396709 -22.750357 2.1417651
-4.3266788 -10.88352 -1.8550001
-5.337513 -13.412579 -1.7724679
-6.1539712 -15.456395 -1.4555008
-7.3006048 -18.317688 -1.0334258
-8.753459 -21.940714 -0.41233057
-2.9690092 -7.4117961 -2.1393983
-9.0148048 -22.493071 0.42297655
-3.1875968 -7.9494357 -1.9773197
-3.6886163 -9.1942625 -1.9256444
-9.1828537 -22.877678 2.1567559
-4.3668499 -10.87385 -1.8559387
-5.3798552 -13.382815 -1.7710054
-6.2227569 -15.471792 -1.4589872
-7.3719611 -18.310621 -1.0344726
-8.8524141 -21.965668 -0.4133777
-2.9955878 -7.4031782 -2.1399159
-9.0992689 -22.476294 0.42325577
-3.2145946 -7.9364548 -1.9768698
-9.152277 -22.58456 1.2771021
-3.7177382 -9.1740541 -1.924118
-9.1862984 -22.657152 2.1389763
-4.4062657 -10.862203 -1.8565645
-9.4113617 -23.189003 3.0728137
-5.4272857 -13.365792 -1.7712492
-6.2729769 -15.440746 -1.4581156
-7.4523854 -18.32548 -1.0367755
-8.9033995 -21.871662 -0.41219094
-3.0170259 -7.381947 -2.1368101
-9.2064323 -22.514729 0.42458215
-3.2481821 -7.9396148 -1.9804692
-9.4217129 -23.018278 1.3034796
-3.7482505 -9.1573877 -1.9233549
-9.2456989 -22.577011 2.1344442
-4.4478998 -10.855895 -1.8581288
-9.4711695 -23.10458 3.0659893
-5.4761667 -13.352277 -1.7719804
-9.4118414 -22.93704 3.9268184
-6.3154893 -15.391105 -1.4555008
-7.5223756 -18.314133 -1.0376127
-8.9766521 -21.83305 -0.41205132
-3.0449874 -7.3767271 -2.1383629
-9.1628342 -22.186731 0.41899738
-3.2766199 -7.9300294 -1.980919
-9.3799219 -22.689926 1.286732
-3.7831943 -9.1515045 -1.9248812
-9.3122692 -22.515142 2.1316552
-4.4797235 -10.825701 -1.8556259
-9.4864578 -22.913647 3.0450277
-5.5257807 -13.340416 -1.7729553
-9.4721861 -22.8566 3.9186838
-6.3951111 -15.431548 -1.4614276
-7.6038609 -18.330194 -1.0400202
-9.0336361 -21.755413 -0.41117871
-3.071461 -7.3678365 -2.1388805
-9.2448435 -22.165686 0.4192068
-3.2990284 -7.9059548 -1.9777697
-9.2982054 -22.282681 1.2653788
-3.817384 -9.1436787 -1.9260262
-9.3923407 -22.486176 2.1320038
-4.5220566 -10.820932 -1.8575031
-9.5725069 -22.895044 3.0469775
-5.5730805 -13.322878 -1.7731992
-9.5860472 -22.916183 3.9343274
-6.4535537 -15.420157 -1.4624733
-7.6863203 -18.347752 -1.0425323
-9.0639896 -21.625748 -0.40929386
-3.0964105 -7.3552899 -2.1383629
-9.3927794 -22.31184 0.42255768
-3.3274963 -7.9003582 -1.9791193
-9.2766571 -22.014502 1.2519809
-3.8530929 -9.1393414 -1.9279342
-9.435153 -22.368807 2.1239853
-4.5594501 -10.809518 -1.8581288
-9.6329412 -22.826597 3.0421028
-5.6133695 -13.295179 -1.7719804
-9.6383057 -22.817072 3.923064
-6.5127683 -15.410384 -1.4636935
-7.7440114 -18.314804 -1.0421137
-9.176053 -21.680531 -0.41093436
-3.120785 -7.3449812 -2.1383629
-9.3939419 -22.098562 0.419137
-3.3558166 -7.8904886 -1.9795692
-9.348752 -21.970961 1.2513529
-3.8756905 -9.1084499 -1.924118
-9.4624557 -22.227406 2.1135268
-4.601799 -10.804441 -1.860006
-9.7327967 -22.840315 3.04844
-5.658186 -13.271852 -1.7714928
-9.7023945 -22.74695 3.9168067
-6.5552378 -15.368543 -1.4617761
-7.7961297 -18.260109 -1.0405437
-9.2477503 -21.639174 -0.41075984
-3.1418357 -7.32339 -2.135257
-9.5151901 -22.168543 0.42109165
-3.3833394 -7.8787265 -1.9795692
-9.3875475 -21.850109 1.2463286
-3.9144373 -9.1110992 -1.9275526
-9.5572939 -22.234509 2.1173615
-4.6426077 -10.795571 -1.8612576
-9.8658161 -22.930199 3.0650144
-5.7068343 -13.257491 -1.7722242
-9.8536215 -22.879858 3.9455907
-6.6301222 -15.394974 -1.4664824
-7.8851223 -18.291475 -1.0438931
-9.4476099 -21.895021 -0.41623989
-3.1696832 -7.3176975 -2.1368101
-9.5543518 -22.047121 0.41941625
-3.4154708 -7.8775959 -1.9822687
-9.4780655 -21.850189 1.2482127
-3.945435 -9.0955791 -1.927171
-9.6427832 -22.219288 2.1191046
-4.6763296 -10.77024 -1.8596932
-10.001158 -23.023069 3.0820758
-5.7546592 -13.241129 -1.7727116
-6.7012987 -15.411933 -1.4703174
-7.9656625 -18.302298 -1.0460912
-9.5862789 -22.004904 -0.41896245
-3.1952066 -7.3065891 -2.1368101
-9.5975857 -21.936693 0.41795024
-3.4343524 -7.8459878 -1.9773197
-9.5735092 -21.86088 1.2507248
-3.9771605 -9.0817509 -1.927171
-9.7554626 -22.265791 2.1267743
-4.7170672 -10.761086 -1.8609446
-5.804831 -13.230051 -1.7739303
-6.7694688 -15.421286 -1.473455
-8.0375357 -18.292665 -1.047138
-9.5744743 -21.769957 -0.41512296
-3.2245941 -7.3042274 -2.1393983
-9.7468119 -22.067688 0.42109165
-3.4672334 -7.8464303 -1.9804692
-9.6756029 -21.885784 1.2540743
-4.0120134 -9.074996 -1.9286975
-9.9282265 -22.446611 2.1473432
-4.7570004 -10.749975 -1.8618832
-5.8461537 -13.198818 -1.7724679
-6.8305244 -15.413959 -1.4750239
-8.0802851 -18.21703 -1.0444164
-9.6836748 -21.811338 -0.41655406
-3.2437792 -7.2788095 -2.135257
-9.8531017 -22.099277 0.42234823
-3.4930136 -7.8307199 -1.9795692
-9.8447275 -22.059797 1.2660068
-4.0364647 -9.0447998 -1.9252628
-10.02439 -22.451843 2.1511779
-4.7953014 -10.735107 -1.8621961
-5.8946223 -13.183767 -1.7731992
-6.899745 -15.424576 -1.4783356
-8.14464 -18.190536 -1.0445211
-9.7540293 -21.764627 -0.41630971
-3.2675831 -7.2639184 -2.1342218
-10.066413 -22.367458 0.42814246
-3.5227263 -7.8238101 -1.980919
-4.0720453 -9.0396051 -1.927171
-4.8343678 -10.721906 -1.8628219
-5.9430566 -13.168538 -1.7739303
-6.948626 -15.389503 -1.4772898
-8.2590837 -18.274836 -1.0510107
-10.320463 -22.825422 -0.43725258
-3.296912 -7.2612643 -2.1368101
-10.011562 -22.049906 0.42269728
-3.5486517 -7.8120852 -1.980919
-4.1068244 -9.032485 -1.9286975
-4.8666253 -10.698624 -1.8615704
-3.6851296 -8.0937672 -1.0919493
-8.3014107 -18.207367 -1.048708
-10.506344 -23.022116 -0.44172043
-3.3193643 -7.2467785 -2.1357749
-10.568319 -23.061939 0.44280246
-3.5758998 -7.7996502 -1.980919
-10.21292 -22.265871 1.2838011
-4.1416664 -9.0295238 -1.9309872
-4.9055891 -10.685161 -1.8621961
-3.6694298 -7.9852552 -1.0790312
-8.3515577 -18.14925 -1.0470332
-10.583293 -22.978039 -0.4415808
-3.3491466 -7.2415771 -2.1378453
-10.662188 -23.053947 0.44336092
-3.6031041 -7.7871203 -1.980919
-10.312395 -22.27721 1.2865226
-3.712707 -8.016654 -1.717281
-3.7135241 -8.0110846 -1.3985243
-3.6972816 -7.9723973 -1.0790312
-3.7363145 -8.049202 -0.77638328
-8.4491606 -18.185537 -1.0509062
-10.988794 -23.640915 -0.45505404
-3.3744042 -7.2298422 -2.1378453
-10.756765 -23.036457 0.4437798
-3.6316211 -7.7738624 -1.980919
-10.378755 -22.206696 1.2846385
-3.7381747 -7.9983106 -1.7161362
-3.7531841 -8.0231237 -1.4029044
-3.7247937 -7.9551969 -1.0785438
-3.7719958 -8.0523491 -0.77795213
-8.5049572 -18.139656 -1.0499641
-10.397441 -22.155886 -0.42719999
-3.3946817 -7.2075329 -2.1347394
-10.315453 -21.891703 0.42241803
-3.6612279 -7.7664261 -1.9822687
-10.60445 -22.48465 1.3028514
-4.2375631 -8.9849186 -1.9309872
-5.0190692 -10.632328 -1.8621961
-3.7644122 -7.9672742 -1.0819561
-3.8043382 -8.0481396 -0.77882373
-8.5947046 -18.165825 -1.0532088
-11.132009 -23.507458 -0.45400691
-3.4206476 -7.1973844 -2.135257
-3.6908255 -7.7588792 -1.9836185
-10.67466 -22.440344 1.302328
-4.270586 -8.9736185 -1.9317504
-5.0570025 -10.616527 -1.8625089
-3.8092861 -7.989922 -1.0868309
-8.6623659 -18.144724 -1.0537323
-11.282296 -23.621986 -0.45693889
-3.4499273 -7.1941099 -2.1378453
-10.567986 -22.03735 0.42660663
-3.7123201 -7.737812 -1.9813689
-4.3086829 -8.9728146 -1.9348032
-5.0853348 -10.585455 -1.860006
-6.27107 -13.041966 -1.7768552
-8.7181559 -18.106901 -1.0532088
-11.326487 -23.503199 -0.45540312
-3.4746063 -7.1843691 -2.1383629
-3.7427039 -7.7318225 -1.9831684
-4.3367028 -8.9549437 -1.9340401
-5.1257038 -10.574749 -1.8612576
-6.3182864 -13.023569 -1.7773427
-7.4373446 -15.323409 -1.490189
-8.7970142 -18.108698 -1.0550931
-11.404961 -23.456322 -0.45526347
-3.497122 -7.1669884 -2.1368101
-3.7679598 -7.7152081 -1.9822687
-4.3644876 -8.9326944 -1.9325136
-5.1677899 -10.567441 -1.8631347
-6.3576002 -12.988955 -1.7756364
-7.4916606 -15.299145 -1.4903631
-8.8592978 -18.076084 -1.0549883
-11.442731 -23.326605 -0.45351824
-3.5195584 -7.1495371 -2.135257
-3.8000362 -7.7124972 -1.9849681
-4.3991146 -8.924449 -1.9340401
-5.2046461 -10.549337 -1.8631347
-6.4046602 -12.970243 -1.7761239
-7.5388422 -15.260396 -1.489143
-8.8709927 -17.941212 -1.0489174
-11.490383 -23.218414 -0.45219186
-3.5470719 -7.1423993 -2.1368101
-3.8312719 -7.707911 -1.9872177
-4.4319882 -8.9125538 -1.9348032
-5.2379174 -10.524032 -1.8618832
-6.4534364 -12.954915 -1.7770989
-7.6036191 -15.257171 -1.4914091
-9.0271711 -18.097797 -1.0599079
-11.735709 -23.507364 -0.45861435
-3.5711169 -7.1282468 -2.1362925
-3.8520398 -7.6822958 -1.9840684
-4.4718752 -8.9145775 -1.9386196
-5.2763939 -10.509213 -1.8625089
-6.5048575 -12.944725 -1.7788051
-7.6487761 -15.214513 -1.4898401
-9.1136312 -18.112564 -1.0626293
-11.810002 -23.461174 -0.4584747
-3.5985897 -7.1209111 -2.1378453
-3.8836491 -7.6816535 -1.9872177
-4.5011926 -8.8954096 -1.9378562
-5.312108 -10.493422 -1.8628219
-6.5405712 -12.908917 -1.7768552
-7.7252679 -15.233924 -1.4943722
-9.1510544 -18.037714 -1.0600126
-11.893636 -23.423372 -0.45854455
-3.6213088 -7.1072164 -2.1373277
-3.9095528 -7.6663156 -1.9867678
-4.5288825 -8.8769369 -1.937093
-5.3531938 -10.483612 -1.8643861
-6.5901089 -12.894845 -1.7780739
-7.7920661 -15.240156 -1.49751
-9.2039537 -17.986103 -1.0588611
-11.953021 -23.3482 -0.45784643
-3.6407957 -7.0842233 -2.1342218
-3.9403005 -7.6637068 -1.9894673
-4.5652289 -8.8715487 -1.9393828
-5.388834 -10.46756 -1.8646991
-6.6346498 -12.876451 -1.7785614
-7.8388286 -15.200466 -1.4962898
-9.2553062 -17.939508 -1.0579191
-12.100508 -23.434267 -0.4603596
-3.6708364 -7.0817628 -2.1373277
-3.9692602 -7.6509428 -1.989917
-4.5961685 -8.8555593 -1.9393828
-5.4198785 -10.433713 -1.8621961
-6.6946192 -12.876705 -1.7819737
-7.9165611 -15.214052 -1.5004733
-9.388319 -18.03479 -1.0655601
-12.324913 -23.655771 -0.4655953
-3.6949773 -7.0648365 -2.1362925
-3.9914255 -7.6284075 -1.9876676
-4.6304169 -8.8421316 -1.940146
-5.460835 -10.419028 -1.8631347
-6.7312307 -12.837436 -1.77978
-7.9788737 -15.203967 -1.5022163
-9.4255667 -17.945444 -1.0623153
-12.433451 -23.662172 -0.46657264
-3.7232206 -7.0587301 -2.1383629
-4.0166292 -7.6085567 -1.9863179
-4.6649213 -8.832859 -1.9416724
-5.5045562 -10.413874 -1.8656377
-6.7828784 -12.821451 -1.7809987
-8.0346937 -15.181307 -1.5027393
-9.4890823 -17.914202 -1.06242
-12.531341 -23.637642 -0.46699148
-3.7514668 -7.0525136 -2.1404335
-4.0413322 -7.5910492 -1.985418
-4.6920338 -8.8095894 -1.940146
-5.540874 -10.394595 -1.8656377
-6.8313298 -12.804702 -1.7819737
-8.0960808 -15.168986 -1.504308
-9.5797882 -17.933819 -1.0655601
-12.640168 -23.643135 -0.46796882
-3.7669301 -7.0223508 -2.135257
-4.077023 -7.5940657 -1.989917
-4.7264729 -8.8000765 -1.9416724
-5.5808659 -10.382151 -1.8668892
-6.8778667 -12.784274 -1.7824612
-8.1291523 -15.10379 -1.5006475
-9.6205463 -17.859827 -1.0631527
-12.726092 -23.615171 -0.46824807
-3.7859032 -6.9989648 -2.1321514
-4.0975466 -7.5719342 -1.9876676
-4.7590299 -8.7869778 -1.9424356
-5.6086769 -10.351429 -1.8646991
-6.9183307 -12.757906 -1.7819737
-8.1932297 -15.096336 -1.5027393
-9.7016382 -17.868196 -1.0655601
-12.821815 -23.595205 -0.46873674
-3.8072429 -6.9829798 -2.1311162
-4.1202168 -7.5507431 -1.9858679
-4.7956705 -8.7849321 -1.9454886
-5.641932 -10.326588 -1.8637605
-6.973299 -12.752837 -1.7846549
-8.2336845 -15.051602 -1.5009961
-9.7370958 -17.78517 -1.0626293
-13.032863 -23.785297 -0.47341397
-3.8297336 -6.9662614 -2.1300809
-4.1484303 -7.5397296 -1.9867678
-4.8225174 -8.761261 -1.9439622
-5.6874785 -10.324132 -1.8668892
-7.0139356 -12.721466 -1.7836798
-8.3391008 -15.118724 -1.5105833
-9.8290367 -17.805277 -1.0658742
-13.171897 -23.841177 -0.47543845
-3.8577735 -6.9596086 -2.1321514
-4.1785035 -7.5320196 -1.9885672
-4.8492599 -8.7375069 -1.9424356
-5.7225204 -10.302489 -1.8665762
-7.0602312 -12.700374 -1.7841673
-8.389884 -15.086043 -1.5102347
-9.9047318 -17.795288 -1.0673395
-13.241415 -23.770596 -0.47494978
-3.8745039 -6.9326096 -2.1280103
-4.2066727 -7.5207896 -1.9894673
-4.8816476 -8.7239523 -1.9431988
-5.761344 -10.287622 -1.8675148
-7.1084003 -12.68258 -1.7851423
-8.4610081 -15.089684 -1.5135466
-9.9677639 -17.762352 -1.0674443
-13.383064 -23.828842 -0.47704408
-3.89868 -6.9190431 -2.1280103
-4.2357712 -7.5111518 -1.9908168
-4.914 -8.7102795 -1.9439622
-5.7943058 -10.262288 -1.8665762
-7.1545811 -12.661146 -1.7856297
-8.5195122 -15.070462 -1.5145924
-10.090686 -17.835222 -1.073934
-13.479734 -23.815659 -0.47767237
-3.9218543 -6.9037118 -2.1274927
-4.2568045 -7.4902868 -1.9890171
-4.9482574 -8.6998987 -1.9454886
-5.8273282 -10.2413 -1.8662634
-7.2004571 -12.644251 -1.7866048
-8.5898247 -15.071791 -1.5177301
-10.117125 -17.744408 -1.0704798
-13.653964 -23.928247 -0.4808836
-3.942807 -6.8873158 -2.1264575
-4.2887368 -7.485527 -1.9917165
-4.979033 -8.6868496 -1.9462519
-5.8689394 -10.231177 -1.8681406
-7.2415857 -12.613873 -1.7858734
-8.6215391 -15.005437 -1.5140696
-10.179003 -17.708982 -1.0704798
-13.677579 -23.77644 -0.47878933
-3.9718874 -6.8795099 -2.1285279
-4.3158135 -7.4721999 -1.9921664
-5.0088735 -8.6651421 -1.9454886
-5.9093671 -10.214727 -1.8690792
-7.2905445 -12.59711 -1.7870922
-8.7038231 -15.026972 -1.5192989
-10.290919 -17.752769 -1.0753993
-13.900934 -23.97073 -0.48367599
-3.9890735 -6.8539166 -2.1249044
-4.3500381 -7.4681187 -1.9953159
-5.0371113 -8.6442137 -1.9447254
-5.9469771 -10.19745 -1.869705
-7.3386669 -12.573733 -1.7875797
-8.7481871 -14.982732 -1.5179044
-10.348795 -17.709841 -1.0749806
-14.0915 -24.105053 -0.48737589
-4.0119963 -6.8382845 -2.1243868
-4.3895755 -7.4788618 -2.0020645
-5.075212 -8.6401186 -1.9477782
-5.9697499 -10.158939 -1.8662634
-7.3843484 -12.556171 -1.7885547
-8.790328 -14.934934 -1.5161612
-10.407467 -17.675425 -1.0749806
-14.203985 -24.103958 -0.48835325
-4.035634 -6.8266053 -2.1249044
-4.4047399 -7.445044 -1.9971154
-59.323112 -100.23007 6.1039433
-5.1018338 -8.6198635 -1.947015
-6.015245 -10.155034 -1.8693922
-7.4342041 -12.540566 -1.790017
-8.8713112 -14.958825 -1.5215648
-9.9369793 -16.742443 -1.0203419
-14.34931 -24.157385 -0.49044752
-4.0624061 -6.8174553 -2.1264575
-4.4326978 -7.432971 -1.9980152
-5.1359158 -8.6087465 -1.9485416
-6.0506539 -10.133977 -1.8693922
-7.4748826 -12.509426 -1.7892859
-8.9408493 -14.956841 -1.5245281
-10.583931 -17.691463 -1.0804236
-14.445868 -24.127741 -0.49086639
-4.0841899 -6.7999215 -2.1254222
-4.4646401 -7.4274731 -2.0007145
-5.1618872 -8.5840359 -1.947015
-6.0931211 -10.124641 -1.8715822
-7.5205483 -12.48666 -1.7897733
-9.0043135 -14.944312 -1.5264456
-10.627054 -17.623627 -1.0785395
-14.641487 -24.271479 -0.49477574
-4.1058998 -6.7823181 -2.1243868
-4.5023704 -7.4342971 -2.0065634
-5.197926 -8.5760393 -1.9493048
-6.1256385 -10.102691 -1.8712693
-7.5619149 -12.461652 -1.7897733
-9.0584946 -14.916197 -1.5267943
-10.674028 -17.569511 -1.077388
-14.765599 -24.285149 -0.49610209
-4.1253505 -6.7637167 -2.122834
-4.5303226 -7.4218636 -2.0074632
-5.2283831 -8.5621061 -1.950068
-6.1588063 -10.077875 -1.8706435
-7.6115828 -12.44534 -1.7912358
-9.1053057 -14.87599 -1.5259228
-10.677931 -17.438463 -1.0716312
-14.904612 -24.322121 -0.49791715
-4.1491013 -6.7469058 -2.1223164
-4.5551829 -7.4043436 -2.0070133
-5.2576718 -8.5395422 -1.9493048
-6.1988115 -10.06028 -1.8715822
-7.6549788 -12.418695 -1.7912358
-9.213666 -14.935683 -1.5353355
-10.897058 -17.650732 -1.0871226
-14.474539 -23.436277 -0.4808138
-4.1797519 -6.743876 -2.1259398
-4.5874267 -7.3958778 -2.0092628
-5.2874484 -8.5211372 -1.9493048
-6.238059 -10.045292 -1.8728336
-7.698349 -12.387182 -1.7907482
-9.2693968 -14.903503 -1.5355098
-10.980762 -17.648197 -1.0893207
-15.482054 -24.863289 -0.51125079
-4.2023935 -6.725234 -2.1249044
-4.6194115 -7.3897362 -2.0119622
-5.3207264 -8.5050287 -1.950068
-6.2821708 -10.034083 -1.8750238
-7.7415419 -12.360235 -1.7907482
-9.2938519 -14.827165 -1.5309777
-11.0199 -17.567226 -1.0868086
-15.592134 -24.846359 -0.51201868
-4.2192426 -6.7078304 -2.1233516
-4.6540236 -7.3933277 -2.0169113
-5.350121 -8.4958506 -1.9515946
-6.3161283 -10.022084 -1.8762752
-7.7803316 -12.335855 -1.7907482
-9.3282366 -14.784359 -1.5294089
-11.062378 -17.519253 -1.0858666
-15.935041 -25.216484 -0.52067512
-4.2436657 -6.6946931 -2.1238692
-4.681891 -7.3803277 -2.0178108
-61.174973 -96.396355 5.9833612
-5.379745 -8.4771233 -1.9515946
-6.3447194 -9.9899702 -1.874398
-7.82441 -12.310297 -1.790992
-9.3723011 -14.73994 -1.5281887
-11.234973 -17.655777 -1.0967524
-16.768421 -26.331285 -0.54489905
-4.2670088 -6.6798391 -2.1238692
-4.7107744 -7.3688664 -2.0191607
-5.4167075 -8.4698706 -1.9542658
-6.3816824 -9.9710894 -1.8750238
-7.8662634 -12.281237 -1.7907482
-9.4301462 -14.7172 -1.5292346
-11.293302 -17.611408 -1.0964384
-16.413095 -25.575851 -0.53044844
-4.2882085 -6.6616554 -2.122834
-4.743855 -7.3638449 -2.02231
-5.4441128 -8.4476109 -1.9535027
-6.4185905 -9.9520731 -1.8756495
-7.8961673 -12.233689 -1.7878234
-9.486866 -14.692562 -1.5301063
-11.339534 -17.548393 -1.094973
-17.173355 -26.556133 -0.5520196
-4.31564 -6.6531301 -2.1249044
-16.8689 -25.995687 0.5409199
-4.7801418 -7.3635859 -2.026809
-5.4671521 -8.4186754 -1.951213
-6.4651318 -9.9478273 -1.8790911
-7.9399052 -12.207716 -1.7880672
-9.6384716 -14.807975 -1.5457941
-11.491176 -17.647623 -1.1036608
-16.864185 -25.879488 -0.53917462
-4.3368258 -6.6324158 -2.1233516
-16.823837 -25.729113 0.53659171
-4.8175492 -7.3647962 -2.0317578
-5.5044236 -8.4084368 -1.9535027
-6.4939718 -9.9124975 -1.8769009
-7.9857345 -12.184907 -1.7887983
-9.6966591 -14.784237 -1.5468401
-11.593042 -17.662157 -1.1072196
-16.82271 -25.619875 -0.53498608
-4.3599496 -6.6172376 -2.1233516
-16.79697 -25.483618 0.53275216
-4.8477283 -7.3519688 -2.0331075
-5.5380645 -8.3957262 -1.955029
-6.532886 -9.8963623 -1.8781524
-8.0270586 -12.150587 -1.7880672
-9.6800995 -14.647242 -1.5360328
-11.656831 -17.624914 -1.107429
-16.814957 -25.404633 -0.53177482
-4.3851585 -6.6051974 -2.1243868
-16.767441 -25.246595 0.52901739
-4.8765998 -7.3398709 -2.0344574
-5.5749445 -8.3877888 -1.9577004
-6.5717678 -9.8800774 -1.8794039
-8.0760202 -12.13241 -1.7895297
-9.6538668 -14.497278 -1.523831
-11.740433 -17.617355 -1.1095223
-16.759298 -25.129507 -0.52723718
-4.4071145 -6.588244 -2.1238692
-16.733137 -25.005096 0.52517784
-4.9108615 -7.3357596 -2.0380566
-5.6052804 -8.3699093 -1.958082
-6.605114 -9.8554382 -1.8790911
-8.1127949 -12.0959 -1.7883109
-9.7887812 -14.589232 -1.5370787
-11.814104 -17.594505 -1.1106738
-16.717657 -24.887878 -0.52332789
-4.4300847 -6.5728202 -2.1238692
-16.73102 -24.823448 0.52252501
-4.9449658 -7.3339753 -2.0421057
-5.6322665 -8.3470373 -1.9573188
-6.6399698 -9.8367548 -1.8797168
-8.1639738 -12.085379 -1.7907482
-9.9713182 -14.749745 -1.5576475
-11.911548 -17.613138 -1.1143373
-16.806669 -24.832682 -0.52339768
-4.4475169 -6.5516996 -2.1217985
-16.855764 -24.821142 0.5237118
-4.9803925 -7.3311782 -2.0461547
-5.653295 -8.318572 -1.955029
-6.6764884 -9.8167839 -1.8803425
-8.2038746 -12.053528 -1.7902608
-10.004478 -14.693542 -1.5552071
-11.995444 -17.604462 -1.1164308
-16.91596 -24.816469 -0.52423543
-4.4725413 -6.5393243 -2.122834
-16.958303 -24.794819 0.52434009
-5.0123787 -7.3258796 -2.0493042
-63.00201 -92.046577 5.8457174
-5.6878438 -8.3068876 -1.9569372
-6.7078896 -9.7929592 -1.8800297
-8.252779 -12.039354 -1.7922107
-9.9948425 -14.56981 -1.5457941
-12.08088 -17.604111 -1.1189429
-17.038702 -24.810022 -0.52535236
-4.4985852 -6.5308204 -2.1249044
-17.076523 -24.781578 0.52531743
-5.0423446 -7.3147559 -2.0511036
-5.7220469 -8.297677 -1.9592268
-6.7431545 -9.7711105 -1.8803425
-8.3026505 -12.021907 -1.7939168
-10.089536 -14.603794 -1.552941
-12.049119 -17.427122 -1.1103598
-17.157061 -24.796436 -0.5263297
-4.5213532 -6.5150785 -2.1249044
-17.190292 -24.76124 0.52615511
-5.0734062 -7.3051138 -2.0533531
-5.7520967 -8.2792645 -1.9596084
-6.7817316 -9.7539997 -1.8815941
-8.3434315 -11.991222 -1.7936732
-10.131346 -14.555404 -1.5515465
-12.156682 -17.452148 -1.1146513
-17.270958 -24.775768 -0.52716738
-4.5462837 -6.5024219 -2.1259398
-17.320166 -24.763357 0.52748156
-5.1100454 -7.303328 -2.0578523
-5.780962 -8.2591362 -1.9596084
-6.8146029 -9.728652 -1.8812811
-8.3886566 -11.966902 -1.7944044
-10.188059 -14.523066 -1.5520694
-12.24162 -17.443939 -1.1168494
-19.950079 -28.407166 -0.60591269
-4.562295 -6.4746623 -2.1223164
-5.1422462 -7.295002 -2.0605516
-5.8179822 -8.2475185 -1.9618982
-6.8570499 -9.7132921 -1.8831582
-8.4441204 -11.957006 -1.7973293
-10.134052 -14.339352 -1.5362071
-12.099036 -17.107069 -1.0981131
-19.961338 -28.213287 -0.60325986
-4.5859861 -6.4602723 -2.122834
-5.1734633 -7.2824597 -2.0623512
-5.8512855 -8.2335615 -1.9634248
-6.8886266 -9.6860762 -1.8825326
-8.5016975 -11.945385 -1.800254
-10.261467 -14.412633 -1.5478859
-12.316294 -17.285952 -1.1123486
-19.962206 -28.006655 -0.60032791
-4.6141281 -6.4520822 -2.1254222
-5.2043858 -7.2747741 -2.0650506
-5.8811331 -8.2146816 -1.9638064
-6.9207096 -9.6631784 -1.8825326
-8.5574532 -11.939715 -1.8036665
-10.350031 -14.430155 -1.5536382
-12.423615 -17.314793 -1.1168494
-19.978201 -27.823097 -0.5978846
-4.6366282 -6.4383125 -2.1259398
-5.235445 -7.2644677 -2.0673003
-5.9094906 -8.1967268 -1.964188
-6.9613309 -9.6485758 -1.8844098
-8.6095371 -11.924256 -1.80586
-10.398994 -14.397368 -1.5538126
-12.549505 -17.361963 -1.1227111
-19.9813 -27.633543 -0.59523177
-4.6579394 -6.4205246 -2.1254222
-5.2720976 -7.2644157 -2.0722492
-5.9346046 -8.1712828 -1.963043
-69.625237 -95.830925 10.36334
-6.9921279 -9.6238394 -1.884097
-8.6560364 -11.905274 -1.8073225
-10.453876 -14.367425 -1.5545098
-12.597605 -17.307337 -1.1218736
-19.976391 -27.424616 -0.59222996
-4.6746449 -6.3988037 -2.1233516
-5.3181248 -7.2742848 -2.0803473
-5.9697824 -8.1626511 -1.9657143
-7.0338454 -9.6105318 -1.886287
-8.7127895 -11.895804 -1.8104911
-10.537967 -14.382501 -1.5599134
-12.727621 -17.358288 -1.1280493
-20.232882 -27.573984 -0.596977
-4.6980987 -6.3840022 -2.1238692
-5.346951 -7.2603836 -2.0816972
-6.0005689 -8.1449242 -1.9664776
-7.0603166 -9.5763807 -1.8844098
-8.7412977 -11.847747 -1.8078099
-10.563262 -14.311966 -1.556253
-12.848652 -17.395685 -1.1333876
-20.319502 -27.490326 -0.59669781
-4.7284069 -6.3784285 -2.1274927
-5.3792295 -7.2510657 -2.0843966
-6.0359817 -8.1333885 -1.9687674
-70.938507 -95.553612 10.411799
-7.0995908 -9.5596066 -1.8859742
-8.7529984 -11.77733 -1.8017164
-10.655951 -14.332567 -1.5625281
-12.867569 -17.294647 -1.129724
-20.315023 -27.284502 -0.5937658
-4.7460213 -6.3556919 -2.1254222
-5.4138379 -7.2447338 -2.0879958
-6.0655131 -8.1138411 -1.969149
-71.396912 -95.472946 10.430101
-7.1340981 -9.5363493 -1.886287
-8.8000031 -11.75465 -1.8029352
-10.735771 -14.335153 -1.5668859
-12.914686 -17.232046 -1.1285727
-20.484528 -27.312605 -0.59592986
-4.7682314 -6.3414636 -2.1259398
-5.4495487 -7.2423115 -2.0924947
-6.0864811 -8.0858412 -1.9672408
-71.853325 -95.42189 10.450497
-7.1716256 -9.5205278 -1.8878514
-8.8329582 -11.71748 -1.8017164
-10.788052 -14.305834 -1.5675831
-12.978976 -17.198687 -1.1292007
-20.497862 -27.142397 -0.59369594
-4.7868385 -6.3201604 -2.1243868
-5.4889221 -7.2418818 -2.0978935
-6.1205997 -8.0723677 -1.969149
-72.325645 -95.354637 10.470716
-7.2143669 -9.5080252 -1.8903543
-8.8882141 -11.705545 -1.8046414
-10.807791 -14.228427 -1.5632254
-13.135626 -17.280481 -1.1375746
-20.732914 -27.255304 -0.59774488
-4.8088708 -6.3034124 -2.1243868
-5.5236282 -7.2350688 -2.1014926
-6.151124 -8.0540733 -1.9699122
-7.2439141 -9.4780769 -1.8894157
-8.9362535 -11.68391 -1.8061038
-10.92519 -14.279225 -1.5729867
-13.115725 -17.129862 -1.130666
-4.8332 -6.2896519 -2.1254222
-5.5524135 -7.2203784 -2.1028426
-6.183989 -8.0387774 -1.9714386
-7.2757497 -9.4511671 -1.8891028
-8.9830418 -11.66051 -1.8073225
-10.904428 -14.149471 -1.5628768
-13.253502 -17.185194 -1.1373651
-20.035688 -25.960596 -0.57240403
-4.855125 -6.2727423 -2.1254222
-20.11195 -25.974941 0.57341629
-5.5871305 -7.2132778 -2.1064417
-20.107508 -25.950491 1.7204924
-6.214417 -8.0202465 -1.9722018
-7.3232222 -9.4444447 -1.8928572
-9.0188217 -11.622808 -1.8063475
-11.022168 -14.199458 -1.5726382
-13.36732 -17.208229 -1.1419708
-20.138458 -25.906286 -0.57275307
-4.881741 -6.2618513 -2.1274927
-20.195118 -25.895119 0.57320684
-5.620667 -7.2044864 -2.109591
-20.175846 -25.851805 1.7186083
-6.2327104 -7.9861245 -1.969149
-20.226795 -25.907753 2.8756168
-7.354929 -9.4172668 -1.8925444
-20.271717 -25.946615 4.0428939
-9.0715628 -11.606895 -1.808785
-11.052032 -14.135783 -1.5698493
-13.474074 -17.221237 -1.1459483
-20.283009 -25.905109 -0.5742889
-4.8940263 -6.2326164 -2.1233516
-20.344673 -25.899954 0.57488227
-5.6674538 -7.2124033 -2.1176891
-20.298492 -25.831867 1.7217485
-6.2678308 -7.9735789 -1.9714386
-20.307249 -25.824465 2.874222
-7.3914208 -9.3961935 -1.893483
-20.308149 -25.807055 4.0321693
-9.1144772 -11.57828 -1.8092724
-20.328089 -25.82313 5.2052011
-11.064329 -14.05016 -1.5646199
-20.328934 -25.805655 6.3856144
-13.576134 -17.227436 -1.149507
-20.300989 -25.751684 7.5705032
-21.312155 -27.034344 -0.60088634
-4.9193459 -6.2200418 -2.1249044
-5.7022209 -7.2073255 -2.1217382
-20.495134 -25.895536 1.7307502
-6.3029361 -7.9608889 -1.9737284
-7.4188581 -9.3669872 -1.8925444
-20.472515 -25.839146 4.0477686
-9.1626863 -11.560437 -1.8112223
-20.45738 -25.801538 5.2152128
-11.128163 -14.030184 -1.5667117
-20.407078 -25.728868 6.3833246
-13.618289 -17.163546 -1.1482509
-20.427464 -25.736116 7.5857992
-21.431265 -26.991108 -0.60158443
-4.9447594 -6.2097392 -2.1269751
-5.7249169 -7.1843276 -2.1208386
-6.3366437 -7.9491534 -1.9760182
-7.4539752 -9.34412 -1.8931701
-9.2128906 -11.540794 -1.8131722
-11.057685 -13.841816 -1.5499777
-13.675626 -17.112783 -1.1480416
-21.56781 -26.969238 -0.60277122
-4.9699035 -6.1945872 -2.1280103
-5.7621565 -7.1794996 -2.1253376
-6.3706555 -7.9319963 -1.9775445
-7.4993095 -9.330596 -1.895986
-9.2531233 -11.508561 -1.8131722
-11.192115 -13.910242 -1.5620052
-13.764565 -17.095209 -1.1502397
-4.9878545 -6.1726942 -2.1264575
-5.8104873 -7.1856065 -2.1334357
-6.3908944 -7.9005527 -1.9752548
-7.5318336 -9.3043623 -1.895986
-9.3027372 -11.483828 -1.8146347
-11.154053 -13.764278 -1.5499777
-13.871955 -17.10601 -1.1542172
-5.0093713 -6.1552453 -2.1264575
-5.8392057 -7.1723442 -2.1352355
-6.4258738 -7.8873291 -1.9775445
-7.5676379 -9.2854576 -1.8972374
-9.3558235 -11.471375 -1.8175595
-11.173058 -13.689759 -1.5459685
-13.917236 -17.04599 -1.1532753
-24.72616 -30.263304 -0.68214476
-5.0273066 -6.1356111 -2.1254222
-5.8728542 -7.162468 -2.1383848
-6.4495039 -7.8629408 -1.9767814
-7.5987492 -9.2574606 -1.8969245
-9.4033689 -11.447851 -1.8190219
-11.370181 -13.837355 -1.5668859
-14.0312 -17.063643 -1.1577761
-5.0450044 -6.113554 -2.1238692
-5.8978219 -7.141922 -2.1383848
-6.4819131 -7.8464336 -1.9783077
-7.6373134 -9.2384901 -1.8984889
-9.4483318 -11.421078 -1.819997
-11.442544 -13.826748 -1.5701978
-14.090679 -17.014561 -1.1577761
-5.0761909 -6.1077933 -2.1280103
-5.9289465 -7.1287827 -2.1406343
-6.5167952 -7.8328166 -1.9805974
-7.6669879 -9.2087383 -1.8978633
-9.4881449 -11.388025 -1.819997
-11.499669 -13.797434 -1.571418
-14.251047 -17.086439 -1.1660452
-25.105778 -30.079479 -0.68388999
-5.0987201 -6.0915179 -2.1285279
-5.9675574 -7.1244774 -2.1455832
-6.5390539 -7.8040018 -1.979071
-7.709239 -9.1940289 -1.9003662
-9.5329418 -11.360917 -1.8209718
-11.533671 -13.740423 -1.5695007
-14.300327 -17.024357 -1.1652079
-5.1087465 -6.06039 -2.1238692
-5.9986734 -7.1110511 -2.1478326
-6.573854 -7.7901297 -1.9813608
-7.7489305 -9.1761198 -1.9022434
-9.584074 -11.341218 -1.8231655
-11.477373 -13.576835 -1.5553813
-14.398365 -17.020079 -1.1683481
-5.137372 -6.0513563 -2.1269751
-6.0184121 -7.0841279 -2.146033
-6.6060925 -7.773118 -1.9828871
-7.7706766 -9.1369772 -1.8997405
-9.631321 -11.316767 -1.824628
-11.568612 -13.588265 -1.561308
-14.483589 -17.000124 -1.1704414
-25.484259 -29.891012 -0.68563527
-5.1559539 -6.0304503 -2.1259398
-6.0393047 -7.0586324 -2.1446834
-6.6382904 -7.7559795 -1.9844136
-7.8153753 -9.1247969 -1.9028691
-9.6836824 -11.298149 -1.8270653
-11.606896 -13.537213 -1.5600878
-14.532439 -16.937336 -1.1696041
-25.583242 -29.806339 -0.68563527
-5.1820145 -6.018271 -2.1280103
-6.0575881 -7.0326629 -2.1428835
-6.6601963 -7.7268109 -1.9828871
-7.8417215 -9.0943413 -1.9019306
-9.727581 -11.27349 -1.828284
-11.733507 -13.588606 -1.5707208
-14.639443 -16.947998 -1.1736863
-5.2044744 -6.0039735 -2.1290457
-6.0872097 -7.0173616 -2.1446834
-6.6857829 -7.7046824 -1.9828871
-7.8798928 -9.0743723 -1.9034947
-9.7642698 -11.236469 -1.8277966
-11.73014 -13.493984 -1.5642712
-14.719491 -16.920898 -1.1753609
-5.2215872 -5.9814043 -2.1274927
-6.1091042 -6.9931359 -2.1437836
-6.7203879 -7.6901674 -1.9851768
-7.9141216 -9.0497847 -1.9041206
-9.8217354 -11.22323 -1.8312089
-11.799482 -13.478441 -1.5672345
-14.85348 -16.955051 -1.1813273
-5.242435 -5.9631414 -2.1274927
-19.559242 -22.24032 0.51697516
-6.1373396 -6.9761581 -2.1451333
-6.7523775 -7.6725593 -1.9867034
-7.945663 -9.0221043 -1.9041206
-9.8713522 -11.200791 -1.8331589
-11.822743 -13.410271 -1.5640969
-14.797619 -16.772799 -1.1722208
-19.562199 -22.157757 -0.51592803
-5.2645001 -5.9462504 -2.1280103
-19.602285 -22.132986 0.51606768
-6.1577749 -6.9503179 -2.1437836
-19.596716 -22.111143 1.5484118
-6.7817245 -7.6518784 -1.9874666
-7.974484 -8.9913597 -1.9034947
-9.9235668 -11.181111 -1.8355962
-11.805984 -13.297405 -1.55573
-15.020571 -16.906185 -1.1852002
-26.192543 -29.459921 -0.68807858
-5.2890821 -5.9321632 -2.1295633
-6.1768093 -6.9229636 -2.141984
-6.813623 -7.6340184 -1.9889932
-8.0163507 -8.9752531 -1.9059978
-9.9704714 -11.155287 -1.8370585
-11.861628 -13.266507 -1.5569501
-15.054186 -16.825373 -1.1832114
-26.247416 -29.325222 -0.68696165
-5.308465 -5.9122291 -2.1290457
-6.211453 -6.9154906 -2.146033
-6.8376021 -7.6072683 -1.9882298
-8.0407858 -8.9427462 -1.9047463
-10.007409 -11.122162 -1.8370585
-12.050514 -13.38345 -1.5756015
-15.224853 -16.902985 -1.1922132
-26.421917 -29.313627 -0.68884647
-5.3228598 -5.8888597 -2.1269751
-6.2316327 -6.8894305 -2.1446834
-6.8654265 -7.5874639 -1.9889932
-8.0865402 -8.9307299 -1.9081879
-10.056835 -11.098929 -1.8390086
-12.188494 -13.446749 -1.5878032
-15.294498 -16.86157 -1.1930506
-26.491816 -29.185688 -0.68800879
-5.3472848 -5.8745289 -2.1285279
-35.7183 -39.226387 0.92602468
-6.2635174 -6.8762798 -2.1473827
-6.8971591 -7.5692568 -1.9905195
-8.1149998 -8.8995304 -1.907562
-10.114249 -11.084287 -1.8424209
-12.219236 -13.386465 -1.5857115
-15.364042 -16.819874 -1.1938879
-26.536869 -29.031048 -0.68654275
-5.3690639 -5.8572526 -2.1290457
-6.2729917 -6.8385768 -2.1424339
-6.9315028 -7.5538144 -1.9928092
-8.1553688 -8.8813334 -1.9097521
-10.160938 -11.057683 -1.8438834
-12.220046 -13.293859 -1.579785
-15.34829 -16.685299 -1.188131
-5.3894758 -5.8384762 -2.1290457
-36.004848 -38.990761 0.92637372
-6.2968245 -6.8166385 -2.1424339
-6.9604921 -7.5324593 -1.9935726
-8.1809568 -8.8470116 -1.9085008
-10.199475 -11.022147 -1.8438834
-12.285325 -13.271591 -1.5822253
-15.418655 -16.644808 -1.1890731
-5.4137702 -5.8238711 -2.1305985
-36.189758 -38.917564 0.92763036
-6.3272157 -6.8017521 -2.1446834
-6.9840698 -7.5052395 -1.9928092
-8.2252483 -8.8328581 -1.9116293
-10.246008 -10.995191 -1.8453459
-12.316629 -13.212598 -1.5803078
-15.548869 -16.668287 -1.1946206
-27.076857 -29.005913 -0.69261616
-5.4235048 -5.7936549 -2.1264575
-36.341778 -38.808521 0.92804915
-6.3482556 -6.7767806 -2.1437836
-7.0155959 -7.4865451 -1.9943358
-8.2614374 -8.8098545 -1.9128809
-10.29519 -10.970941 -1.8472956
-12.38177 -13.189858 -1.5827483
-15.653448 -16.663408 -1.1981795
-5.4489942 -5.7803121 -2.1285279
-6.3732109 -6.7559953 -2.1442335
-7.0443788 -7.4648676 -1.9950989
-8.2934961 -8.7823992 -1.9131937
-10.33615 -10.937822 -1.8477831
-12.530387 -13.255146 -1.5958216
-15.769171 -16.669601 -1.2025757
-5.4678082 -5.7598553 -2.1280103
-6.3967538 -6.7337089 -2.1442335
-7.0730982 -7.443079 -1.9958621
-8.3227386 -8.7519655 -1.9128809
-10.377007 -10.904549 -1.8482705
-12.554598 -13.18824 -1.5930327
-15.865834 -16.654945 -1.2055064
-5.4958901 -5.7491126 -2.1311162
-6.4202204 -6.7113385 -2.1442335
-7.1071806 -7.4268541 -1.9981518
-8.3628025 -8.7328482 -1.9150709
-10.417752 -10.871129 -1.8487581
-12.639164 -13.184608 -1.5979134
-15.968121 -16.645584 -1.2088561
-5.5159254 -5.7298932 -2.1311162
-6.4478478 -6.6956267 -2.146033
-7.1289754 -7.397759 -1.997007
-8.3999414 -8.7136002 -1.9169482
-10.467531 -10.850806 -1.8511955
-12.603467 -13.055835 -1.5876291
-15.992709 -16.56093 -1.2065532
-5.5268278 -5.7032471 -2.1280103
-6.4684677 -6.6702805 -2.1451333
-7.1603022 -7.381125 -1.9989152
-8.4371872 -8.6913128 -1.9185126
-10.510873 -10.8199 -1.8521705
-12.664742 -13.032541 -1.589895
-16.097759 -16.553692 -1.2101121
-5.5480528 -5.6853008 -2.1285279
-6.4862647 -6.6420851 -2.1433337
-7.1915116 -7.361701 -2.0004416
-8.4647093 -8.6589851 -1.9178867
-10.552743 -10.7874 -1.8529016
-12.751959 -13.030975 -1.5951242
-16.230906 -16.574457 -1.2157644
-5.5665112 -5.6645222 -2.1280103
-6.4889159 -6.5985594 -2.136585
-7.2199192 -7.3393526 -2.001205
-8.5018148 -8.6364202 -1.9194511
-10.601476 -10.761813 -1.8548515
-12.749824 -12.93813 -1.5891978
-16.302685 -16.531919 -1.2168112
-5.5903258 -5.6491776 -2.1295633
-6.5009403 -6.5647912 -2.1329858
-7.2454929 -7.3141069 -2.001205
-8.5499887 -8.6249285 -1.9235184
-10.643175 -10.728969 -1.8555828
-12.793506 -12.892132 -1.5890235
-16.398291 -16.513176 -1.2196373
-5.6181931 -5.6378403 -2.1326692
-6.522439 -6.5406804 -2.1325359
-7.2682066 -7.2859902 -2.0004416
-8.5898132 -8.6048174 -1.9257084
-25.415373 -25.450895 4.4163017
-10.683366 -10.694559 -1.8560703
-12.842656 -12.851624 -1.5895464
-16.484079 -16.484079 -1.2217307
-5.6323647 -5.6127396 -2.1305985
-6.5410872 -6.5137467 -2.1311862
-7.3047271 -7.271656 -2.0034947
-8.6043901 -8.5594578 -1.9222668
-25.329521 -25.188446 4.3860779
-10.733304 -10.669798 -1.858264
-12.856343 -12.775822 -1.5857115
-16.326105 -16.212523 -1.2058206
-5.6491776 -5.5903258 -2.1295633
-6.559628 -6.486764 -2.1298366
-7.3342557 -7.2502527 -2.0046394
-8.1086311 -8.0101671 -1.805254
-25.408819 -25.091507 4.3846154
-10.764389 -10.62996 -1.8575326
-12.81719 -12.648297 -1.5754272
-16.428102 -16.200315 -1.2091701
-5.673193 -5.5769811 -2.1316338
-6.5672021 -6.4513197 -2.1253376
-7.366663 -7.2341437 -2.0069292
-8.0928516 -7.9417267 -1.7958679
-25.576912 -25.090517 4.39924
-10.796747 -10.591426 -1.8570452
-12.921667 -12.667095 -1.583097
-17.668785 -17.308599 -1.2962571
-5.6888919 -5.555438 -2.1305985
-6.5871634 -6.428144 -2.1248875
-7.3948245 -7.2137914 -2.0080738
-8.0908537 -7.8872676 -1.7896105
-12.973595 -12.633905 -1.5843171
-17.86636 -17.386417 -1.3065149
-5.7124095 -5.5395803 -2.1321514
-6.617959 -6.4132485 -2.1275871
-7.4213729 -7.1892991 -2.0084558
-8.0729189 -7.815011 -1.7795987
-8.1781425 -7.9113445 -1.3971103
-8.1866741 -7.9168334 -0.99636441
-8.2008352 -7.9249902 -0.59767663
-8.1776476 -7.8970642 -0.19843386
-5.7233644 -5.5115652 -2.1290457
-8.2231779 -7.9161048 0.19923668
-6.6445169 -6.3941646 -2.1289368
-7.4534969 -7.170155 -2.0103636
-8.2446537 -7.9284663 1.0007222
-8.0887556 -7.7758336 -1.7770958
-8.2172136 -7.8965602 1.3993039
-8.1770773 -7.8552451 -1.3922355
-8.2424307 -7.9152608 1.809947
-8.1653996 -7.8412876 -0.99043781
-8.1621609 -7.8327022 -0.59286177
-8.2138233 -7.8767743 -0.1986433
-5.7425685 -5.4915533 -2.1290457
-8.171258 -7.8113551 0.19731691
-6.6696153 -6.3736224 -2.1298366
-8.2622309 -7.8928008 0.59882808
-7.484159 -7.1495185 -2.0118902
-8.2002316 -7.8308401 0.99200666
-8.1530018 -7.7830129 -1.7852304
-8.2073898 -7.8321962 1.3929666
-8.2360458 -7.8568001 -1.3975978
-8.2128286 -7.8319106 1.7974323
-8.2071409 -7.8264866 -0.992181
-8.2035742 -7.8203535 2.2030807
-8.2328272 -7.8455009 -0.59600192
-8.2105398 -7.8215251 2.6179802
-8.2209949 -7.8287477 -0.19815461
-8.2176485 -7.8228278 3.0400887
-5.7715077 -5.4807878 -2.1326692
-8.2593861 -7.8406076 0.19878291
-6.6805148 -6.33957 -2.1262374
-8.2665462 -7.8419209 0.59715331
-7.5019464 -7.1165953 -2.0099821
-8.2101707 -7.7857151 0.98991495
-8.1887207 -7.7626605 -1.7871076
-8.2145052 -7.7843857 1.3895544
-8.2951269 -7.8580346 -1.4029599
-8.1970863 -7.7624464 1.7880461
-8.2618132 -7.8210096 -0.99531853
-8.2137117 -7.775475 2.1985013
-8.251461 -7.8084764 -0.59537387
-8.1924906 -7.7499623 2.6035836
-8.2715178 -7.82199 -0.19871311
-8.2084055 -7.7595901 3.0266299
-5.7915583 -5.4595957 -2.1326692
-8.2954378 -7.8199573 0.19899234
-6.6983461 -6.3122039 -2.1248875
-8.3171301 -7.834929 0.59882808
-7.5294113 -7.0903959 -2.0103636
-8.2792702 -7.7938113 0.99479562
-8.2573957 -7.7705021 -1.7958679
-8.258976 -7.7719889 1.3924793
-10.852803 -10.209296 -1.8295028
-8.2845716 -7.7906241 1.8011867
-13.274117 -12.47831 -1.5939041
-8.245019 -7.7480059 2.1992648
-18.23119 -17.126223 -1.3109111
-8.2520943 -7.7492318 2.6134815
-8.2298079 -7.7256012 3.0245595
-5.8105793 -5.4393473 -2.1326692
-6.7214384 -6.2876091 -2.1248875
-7.5541139 -7.0640717 -2.0103636
-8.3017912 -7.757813 -1.7996223
-8.3367281 -7.7877393 1.4007664
-10.875638 -10.155904 -1.8270653
-8.3174906 -7.7670507 1.8024381
-13.33944 -12.452292 -1.5965189
-8.289237 -7.7352524 2.2038438
-18.247047 -17.021606 -1.307771
-8.3075991 -7.7469602 2.6224794
-8.2934647 -7.7310781 3.0380182
-5.8238711 -5.4137697 -2.1305985
-6.7508163 -6.2732468 -2.1275871
-7.5729718 -7.0323162 -2.0088372
-8.3390512 -7.7409935 -1.8021252
-10.89907 -10.110333 -1.8253592
-13.296616 -12.325743 -1.5862345
-18.260908 -16.921637 -1.3047354
-33.293056 -30.829718 -0.79202515
-5.8417921 -5.3944278 -2.1305985
-6.7784023 -6.25493 -2.1293867
-7.6049089 -7.0151515 -2.011127
-8.9978313 -8.2942419 -1.9382232
-10.941596 -10.078951 -1.8265779
-13.311036 -12.257288 -1.583097
-18.25226 -16.79558 -1.2999206
-33.320984 -30.640223 -0.79014027
-5.866282 -5.3792257 -2.1326692
-6.7872643 -6.2193818 -2.1253376
-7.6481705 -7.0058017 -2.016088
-9.0412998 -8.2761211 -1.941352
-11.00747 -10.068832 -1.8316964
-13.265518 -12.130078 -1.5726382
-18.256224 -16.681915 -1.2960478
-33.291882 -30.39967 -0.78692907
-5.8850222 -5.358717 -2.1326692
-6.8089328 -6.195652 -2.1253376
-7.684195 -6.9896312 -2.019141
-9.0642872 -8.2391958 -1.9401004
-11.082224 -10.066385 -1.8382773
-13.403659 -12.170758 -1.5839685
-18.247784 -16.557692 -1.2913375
-35.309113 -32.027584 -0.8320958
-5.9094234 -5.3433237 -2.1347394
-6.8352232 -6.1782651 -2.1271372
-7.7216606 -6.9746079 -2.0225754
-9.1003561 -8.2170343 -1.9419776
-11.133232 -10.045537 -1.8412023
-13.460854 -12.13724 -1.5857115
-18.259567 -16.458311 -1.2883021
-35.272106 -31.770313 -0.82860535
-5.9199243 -5.3172426 -2.1321514
-6.8654475 -6.162179 -2.1298366
-7.768126 -6.969943 -2.0286815
-9.1436901 -8.1984072 -1.9451064
-11.199277 -10.034431 -1.8463207
-13.487672 -12.080572 -1.5841427
-13.637971 -12.206608 -0.9592135
-13.696135 -12.250059 -0.32074031
-5.932683 -5.2914014 -2.1300809
-13.694462 -12.209902 0.32025164
-6.8854618 -6.1368799 -2.1293867
-13.738702 -12.240734 0.96434242
-7.8099999 -6.9584546 -2.0332606
-13.787677 -12.28006 1.6153444
-9.1604481 -8.1559305 -1.9426033
-11.259446 -10.017713 -1.8504643
-13.550602 -12.051954 -1.586583
-13.67303 -12.152297 -0.95869017
-13.679006 -12.149059 -0.31934413
-5.9569011 -5.2757845 -2.1321514
-13.701067 -12.13021 0.31941393
-6.896626 -6.1037669 -2.1262374
-13.709542 -12.129181 0.9593181
-7.8577671 -6.9519663 -2.0393667
-13.711063 -12.126261 1.6013995
-9.1992245 -8.1330614 -1.9447935
-13.739434 -12.142809 2.2514145
-11.330049 -10.009891 -1.8563139
-13.783012 -12.172751 2.912497
-13.523896 -11.943908 -1.5785649
-13.803564 -12.186615 3.5791955
-13.71836 -12.107138 -0.95889944
-13.719831 -12.099915 -0.31930923
-5.9781828 -5.2575107 -2.1331868
-13.737317 -12.077028 0.31927434
-6.9237456 -6.0848012 -2.128037
-13.745797 -12.075978 0.95889944
-7.9011598 -6.9413395 -2.0443277
-13.74732 -12.073069 1.6007024
-9.2320099 -8.1048117 -1.9457321
-13.745929 -12.06335 2.2455647
-11.397752 -9.9990816 -1.8616763
-13.777895 -12.082888 2.9024854
-13.640406 -11.962312 -1.5872804
-13.781059 -12.081413 3.5624039
-13.757538 -12.056541 -0.95869017
-13.788903 -12.079775 4.2322292
-13.77853 -12.066443 -0.31969318
-13.804403 -12.084841 4.9160094
-5.9935875 -5.2340689 -2.1321514
-13.800478 -12.047417 0.31976297
-6.9464121 -6.0618773 -2.1284869
-13.794796 -12.038209 0.95952755
-7.9416156 -6.9279137 -2.0485253
-13.801395 -12.035478 1.6020968
-9.275135 -8.0855179 -1.9488608
-13.786459 -12.013989 2.245321
-11.46402 -9.9866142 -1.8667948
-13.794056 -12.016371 2.8974795
-13.646015 -11.883226 -1.583097
-13.799457 -12.01261 3.5562983
-13.880898 -12.079245 -0.96434242
-13.725121 -11.939484 4.1998358
-13.86373 -12.06006 -0.32074031
-13.800667 -12.00097 4.9004798
-6.0059824 -5.2080545 -2.1300809
-13.931003 -12.080192 0.3218573
-6.966476 -6.0388083 -2.1284869
-13.92126 -12.063228 0.96538913
-7.9954276 -6.9258604 -2.0561578
-13.876456 -12.015925 1.6059316
-9.2989111 -8.0521288 -1.948235
-13.856239 -11.994188 2.2501957
-11.521088 -9.9693298 -1.8706945
-13.856832 -11.986243 2.9018598
-13.663299 -11.814667 -1.5803078
-13.851096 -11.977056 3.5593512
-18.493177 -15.985421 -1.2810796
-13.794132 -11.919387 4.2088342
-13.857099 -11.965344 4.9056563
-6.0246844 -5.1893702 -2.1305985
-6.9948978 -6.0208106 -2.1307364
-8.0391855 -6.9172354 -2.0615005
