# .PCD v0.7 - Point Cloud Data file format
VERSION 0.7
FIELDS x y z
SIZE 4 4 4
TYPE F F F
COUNT 1 1 1
WIDTH 1466
HEIGHT 1
VIEWPOINT 0 0 0 1 0 0 0
POINTS 1466
DATA ascii
-27.998093 -14.124463 4.966795
-0.82538581 -0.41639018 -0.08088053
-27.990002 -14.114252 6.0932951
-18.343405 -9.2458353 -1.0765507
-28.038567 -14.12647 7.2483726
-0.87335396 -0.43982455 -0.017068453
-7.13376 -3.5816693 -2.1388805
-8.1954746 -4.1111465 -2.1167896
-0.87574083 -0.43911204 -0.19042738
-11.91436 -5.9688687 -2.1106141
-0.78454059 -0.3928687 0.10773251
-15.36201 -7.6893649 -2.1093147
-18.372293 -9.1921406 -1.7973257
-28.022602 -14.01433 6.0902419
-18.298931 -9.1474457 -1.0721544
-28.053881 -14.017734 7.2402744
-7.1514068 -3.55933 -2.1404335
-8.1940699 -4.0747042 -2.1127403
-9.8363037 -4.8892074 -2.1351528
-28.033096 -13.927948 2.7386076
-11.928046 -5.9237294 -2.1093626
-0.76634836 -0.3804189 0.10505138
-15.346077 -7.614521 -2.1034651
-19.717964 -9.7795067 -1.925619
-27.343113 -13.549457 -1.5992823
-7.1672521 -3.5360544 -2.1414688
-8.2152348 -4.0495253 -2.1145399
-9.8075228 -4.8322821 -2.1252308
-28.013622 -13.796559 2.7319839
-11.955739 -5.8855486 -2.1106141
-0.77657741 -0.38212344 0.10627007
-15.372563 -7.5609064 -2.1034651
-19.798468 -9.7334766 -1.9301511
-27.29344 -13.406379 -1.59363
-7.1726117 -3.5076182 -2.1393983
-8.2433271 -4.0276675 -2.118139
-9.8190403 -4.7954311 -2.1240859
-28.018639 -13.677719 2.7278004
-11.993965 -5.8524418 -2.1137428
-0.78325909 -0.38202095 0.10700129
-15.430982 -7.5228624 -2.1078525
-19.839487 -9.667798 -1.9308484
-27.39035 -13.335504 -1.5965608
-7.2004566 -3.4901447 -2.144057
-8.262599 -4.0014143 -2.119489
-9.8392515 -4.7628393 -2.1248491
-28.015993 -13.555532 2.7229197
-11.989425 -5.7984953 -2.1093626
-0.78280061 -0.37842053 0.10675755
-15.471443 -7.4758606 -2.1098022
-19.916176 -9.6192789 -1.9350318
-27.436731 -13.239819 -1.5965608
-57.45163 -27.699017 -1.113289
-7.2230434 -3.4700081 -2.1471629
-8.265975 -3.9674904 -2.1167896
-9.8646688 -4.7327113 -2.1267571
-28.016432 -13.435256 2.7183874
-12.002468 -5.7531934 -2.1081111
-0.7894873 -0.37825906 0.10748877
-15.497448 -7.4218059 -2.1098022
-19.996357 -9.5720663 -1.9395639
-27.515219 -13.159471 -1.5984449
-57.432484 -27.443138 -1.1110551
-7.2525549 -3.4530785 -2.1523392
-8.2850533 -3.9411237 -2.118139
-9.8882208 -4.7016196 -2.1282835
-28.03437 -13.323688 2.7155986
-12.029613 -5.7146549 -2.1093626
-0.77466404 -0.36783764 0.10529512
-15.516088 -7.3642597 -2.1088274
-20.036844 -9.5056276 -1.9402611
-27.640394 -13.100982 -1.6030505
-7.2505856 -3.4211476 -2.1481981
-8.3005219 -3.9130099 -2.1185889
-9.8974676 -4.6637297 -2.1267571
-28.033842 -13.203682 2.7110665
-12.056636 -5.6759944 -2.1106141
-0.77773964 -0.36597633 0.10553886
-15.527327 -7.303297 -2.1068773
-20.087934 -9.4441042 -1.9420042
-27.65703 -12.990839 -1.6013757
-7.2309842 -3.3810868 -2.1388805
-0.98551118 -0.46059889 0.018988218
-8.3105984 -3.882364 -2.1176891
-1.0441908 -0.48757994 0.060395699
-9.9136877 -4.6291499 -2.1267571
-28.040041 -13.087205 2.7072318
-12.076376 -5.6338735 -2.1106141
-0.77901232 -0.36325946 0.10553886
-15.559923 -7.2524071 -2.1078525
-20.149673 -9.3873882 -1.9447932
-27.62616 -12.858821 -1.5969795
-7.2532597 -3.360698 -2.1419864
-8.3329439 -3.8574224 -2.1199389
-9.9369135 -4.5978136 -2.1282835
-28.042152 -12.969175 2.7030482
-12.095968 -5.5916843 -2.1106141
-0.79469174 -0.36719915 0.10748877
-15.592354 -7.2013774 -2.1088274
-20.204027 -9.3270159 -1.946885
-27.696268 -12.774018 -1.5984449
-7.2702146 -3.3377771 -2.1435394
-8.3321867 -3.821811 -2.1163394
-9.9529018 -4.5630989 -2.1282835
-28.029289 -12.844655 2.6974702
-12.104637 -5.5444913 -2.1087368
-0.7851392 -0.35946479 0.10602634
-15.621005 -7.1485572 -2.1093147
-20.25458 -9.2647209 -1.9486281
-27.707989 -12.662318 -1.5965608
-7.2783031 -3.3107805 -2.1425042
-8.3543472 -3.7967341 -2.1185889
-9.9651937 -4.5267076 -2.1275203
-28.066704 -12.743435 2.6967728
-12.134711 -5.5071025 -2.1106141
-0.77915794 -0.35344192 0.10505138
-15.627784 -7.0857882 -2.1068773
-20.326721 -9.2120552 -1.9524629
-27.850273 -12.610008 -1.6022131
-7.2968602 -3.2885289 -2.1445746
-8.3764334 -3.7715511 -2.1208386
-9.973773 -4.4886718 -2.125994
-28.132818 -12.655193 2.6988647
-12.157462 -5.4663339 -2.1112397
-0.7876296 -0.35397473 0.10602634
-15.656045 -7.0328207 -2.1073649
-20.391468 -9.1557407 -1.9556006
-29.694565 -13.320355 -1.7056289
-57.990055 -26.000978 -1.1093099
-7.2941842 -3.2567358 -2.1404335
-8.3853359 -3.7421646 -2.1199389
-9.9893818 -4.4538264 -2.125994
-12.186349 -5.4308124 -2.113117
-0.79967892 -0.35620743 0.10748877
-15.693789 -6.9873233 -2.1093147
-20.44879 -9.0958405 -1.958041
-29.767773 -13.234794 -1.7073038
-7.308475 -3.2340961 -2.1414688
-8.4001293 -3.7136593 -2.1203887
-10.007689 -4.4222631 -2.1267571
-12.201618 -5.3866453 -2.1124914
-0.80454987 -0.35501641 0.10797625
-15.718081 -6.9325023 -2.1093147
-20.508009 -9.0408382 -1.9608299
-29.864967 -13.15335 -1.7102345
-7.3391838 -3.2170944 -2.1471629
-8.4130421 -3.6843145 -2.1203887
-10.023063 -4.3873048 -2.1267571
-12.216726 -5.3424373 -2.1118655
-0.79668951 -0.34823081 0.10675755
-15.7531 -6.8823624 -2.1107774
-20.575964 -8.9851379 -1.9643161
-29.947313 -13.064995 -1.7123281
-58.350811 -25.432236 -1.1110551
-7.3521414 -3.1922257 -2.1476805
-8.4258509 -3.6549249 -2.1203887
-10.038317 -4.3522911 -2.1267571
-12.235301 -5.2997599 -2.1118655
-0.80336529 -0.34781373 0.10748877
-15.769739 -6.8241768 -2.1098022
-20.643772 -8.9290829 -1.9678023
-30.066071 -12.992067 -1.7165148
-7.3437166 -3.1581466 -2.1419864
-8.4439297 -3.6277983 -2.1217382
-10.049839 -4.3156743 -2.125994
-12.264619 -5.2616911 -2.1137428
-0.80822337 -0.34657201 0.10797625
-15.793465 -6.7690887 -2.1098022
-20.722433 -8.877367 -1.9723344
-30.129601 -12.894897 -1.7175615
-7.3475866 -3.1294668 -2.1399159
-8.4565411 -3.5983012 -2.1217382
-10.072069 -4.2836432 -2.1275203
-12.279275 -5.2173023 -2.113117
-0.82404536 -0.34995648 0.10992616
-15.813343 -6.7123666 -2.1093147
-20.786308 -8.818984 -1.975472
-22.862982 -9.6906366 -1.301386
-58.613945 -24.819786 -1.1110551
-7.3655853 -3.1068027 -2.1419864
-8.4744368 -3.5710323 -2.1230881
-10.076105 -4.2438841 -2.1252308
-12.29741 -5.1744103 -2.113117
-0.83258134 -0.35015598 0.11090111
-15.858637 -6.666357 -2.1122396
-20.87207 -8.7695303 -1.9807014
-7.3817344 -3.0833051 -2.1435394
-8.4796562 -3.5384269 -2.1212883
-10.090858 -4.2086854 -2.1252308
-12.315398 -5.1314521 -2.113117
-0.8228035 -0.3426685 0.10943868
-15.876992 -6.6122046 -2.1117523
-20.939346 -8.7119207 -1.9841876
-7.3847771 -3.055856 -2.1414688
-8.496747 -3.5125213 -2.1226382
-10.112018 -4.1781988 -2.1267571
-12.346953 -5.0966139 -2.1156199
-0.8349455 -0.34448066 0.11090111
-15.876811 -6.5504327 -2.1088274
-20.979172 -8.6469955 -1.9852335
-29.975792 -12.342897 -1.69893
-7.3984456 -3.0328157 -2.1425042
-45.530998 -18.655064 0.85886782
-8.5065441 -3.4835868 -2.1221881
-10.116731 -4.1409264 -2.1248491
-12.371101 -5.0586324 -2.1168714
-15.898445 -6.4977508 -2.1088274
-21.053846 -8.5962057 -1.9895912
-29.901897 -12.196657 -1.6924403
-7.390563 -3.0009966 -2.1373277
-8.5180502 -3.4553587 -2.1221881
-10.135865 -4.1095676 -2.125994
-12.373161 -5.0116472 -2.1143684
-15.934626 -6.4509525 -2.1107774
-21.19306 -8.5711613 -2.0000501
-29.805149 -12.042057 -1.6846946
-7.3961349 -2.9717278 -2.1357749
-8.5433168 -3.4291987 -2.1253376
-10.143572 -4.0694666 -2.1244676
-72.748001 -29.170794 6.8572392
-12.391447 -4.9662638 -2.1143684
-15.959278 -6.38972 -2.1107774
-21.372318 -8.55264 -2.0139949
-29.641371 -11.849705 -1.6729714
-7.4100533 -2.9473202 -2.1368101
-8.5455866 -3.3972492 -2.1230881
-10.161365 -4.0354829 -2.1252308
-12.411518 -4.9266047 -2.1149943
-15.976688 -6.3352976 -2.1102896
-21.552078 -8.5374241 -2.0281141
-29.613651 -11.724875 -1.6692032
-7.4233809 -2.9241469 -2.1378453
-8.5573931 -3.3673985 -2.1230881
-10.17469 -4.0017638 -2.1252308
-12.432318 -4.8846917 -2.1156199
-15.995008 -6.2780423 -2.1098022
-21.743492 -8.5299387 -2.0434535
-29.572575 -11.589375 -1.6645976
-7.4299431 -2.8968148 -2.1368101
-8.5690966 -3.3375049 -2.1230881
-10.184938 -3.9648013 -2.1244676
-12.46034 -4.8455601 -2.1174972
-16.016825 -6.2221708 -2.1098022
-21.929148 -8.5145636 -2.0580957
-29.568163 -11.468734 -1.6620854
-7.4364047 -2.8694708 -2.1357749
-8.587966 -3.3103781 -2.1248875
-10.198715 -3.9292245 -2.1244676
-12.480865 -4.8034582 -2.1181231
-16.031038 -6.1633706 -2.1088274
-22.11124 -8.4965658 -2.0723894
-29.615475 -11.368314 -1.6625041
-7.4463758 -2.8434954 -2.1357749
-8.5958281 -3.2789912 -2.1239879
-10.212369 -3.8936002 -2.1244676
-12.493862 -4.7584558 -2.1174972
-16.074718 -6.1158442 -2.1117523
-22.31023 -8.483778 -2.0882516
-29.651243 -11.263449 -1.6622947
-7.4616776 -2.8195333 -2.1373277
-8.6017523 -3.2469015 -2.1226382
-10.247942 -3.8662419 -2.1290469
-12.499306 -4.7106347 -2.1156199
-16.092251 -6.0583005 -2.1112647
-22.513132 -8.4711027 -2.1044626
-29.72403 -11.172534 -1.664179
-7.476902 -2.7954996 -2.1388805
-8.6075563 -3.2148118 -2.1212883
-10.24666 -3.8249559 -2.125994
-12.523079 -4.669733 -2.1168714
-16.117023 -6.0034766 -2.1117523
-22.671402 -8.4404249 -2.1164899
-29.766592 -11.0701 -1.6643883
-7.4793682 -2.7667024 -2.1368101
-8.6242104 -3.1867709 -2.1226382
-10.259949 -3.7891645 -2.125994
-12.550421 -4.6300955 -2.1187487
-16.13043 -5.9444351 -2.1107774
-22.756811 -8.3818989 -2.1217194
-29.79006 -10.960604 -1.6635509
-7.4817224 -2.7379234 -2.1347394
-8.6462641 -3.1606617 -2.1253376
-10.265736 -3.7506351 -2.1244676
-12.570218 -4.5876126 -2.1193743
-16.15481 -5.889452 -2.1112647
-22.782188 -8.3010473 -2.1213708
-29.884439 -10.877048 -1.6666909
-7.485785 -2.7098176 -2.1331868
-8.6517458 -3.1284726 -2.1239879
-10.282459 -3.7161124 -2.1252308
-12.571291 -4.5383401 -2.1168714
-16.186474 -5.8370652 -2.1127272
-22.826019 -8.2268753 -2.1227653
-25.731649 -9.2639647 -1.4332726
-25.777561 -9.2703323 -0.47816104
-7.5024734 -2.6862736 -2.135257
-25.718668 -9.2035503 0.47679976
-8.6534386 -3.0949738 -2.1217382
-25.651045 -9.1692524 1.4276204
-10.302764 -3.682838 -2.1267571
-12.590776 -4.4957609 -2.1174972
-16.195532 -5.7765265 -2.1112647
-22.835829 -8.1404619 -2.121022
-41.21386 -14.659389 -0.76354283
-7.5027003 -2.6568446 -2.1326692
-8.6605148 -3.0634489 -2.1208386
-10.315557 -3.6468518 -2.1267571
-12.61757 -4.4557271 -2.1193743
-16.208109 -5.7173209 -2.1102896
-22.867867 -8.0620193 -2.1213708
-30.068287 -10.588724 -1.6706685
-7.5119281 -2.6306407 -2.1326692
-8.6798229 -3.0379312 -2.1230881
-10.320809 -3.608232 -2.1252308
-12.628546 -4.4125609 -2.1187487
-16.234476 -5.6661572 -2.1112647
-22.722786 -7.9218044 -2.105334
-30.057972 -10.473183 -1.6681565
-7.518784 -2.6050828 -2.1321514
-8.6866913 -3.0063374 -2.1221881
-10.336429 -3.5752702 -2.125994
-12.636403 -4.3658681 -2.1174972
-16.25791 -5.6107488 -2.1117523
-22.699961 -7.8295183 -2.1008019
-30.184988 -10.399424 -1.6731807
-7.5132113 -2.5738127 -2.1280103
-8.7058306 -2.9806726 -2.1244378
-10.359992 -3.542979 -2.1282835
-12.647073 -4.3226652 -2.1168714
-16.272669 -5.555521 -2.1112647
-22.734694 -7.7528095 -2.1014993
-30.07563 -10.2503 -1.6652256
-42.734707 -14.548088 -0.78797615
-7.5308542 -2.5519836 -2.1305985
-8.706953 -2.9471412 -2.1221881
-10.379124 -3.5111208 -2.1298101
-12.654599 -4.2759624 -2.1156199
-16.295725 -5.4999542 -2.1117523
-22.755953 -7.6714931 -2.1009762
-31.640541 -10.66052 -1.7498006
-7.5401564 -2.5243661 -2.1305985
-8.7190361 -2.9173486 -2.1226382
-10.391922 -3.473058 -2.1298101
-12.681429 -4.233305 -2.1174972
-16.303524 -5.4392681 -2.1102896
-22.778812 -7.5907536 -2.1006277
-31.637712 -10.530602 -1.7474978
-7.5580931 -2.5010633 -2.1331868
-8.7315197 -2.8859856 -2.1230881
-10.38534 -3.4306016 -2.125994
-12.703632 -4.1914916 -2.1187487
-39.56554 -13.04676 5.1153445
-16.327124 -5.3807192 -2.1107774
-22.80517 -7.5111985 -2.1006277
-31.643923 -10.410115 -1.745823
-42.799225 -14.071661 -0.78640544
-7.550251 -2.4692605 -2.1285279
-8.7428951 -2.8576202 -2.123538
-10.400985 -3.3955474 -2.1267571
-12.717462 -4.1493411 -2.1187487
-39.608589 -12.915483 5.1153445
-16.356199 -5.330236 -2.1122396
-22.838829 -7.4340086 -2.1013248
-31.70866 -10.315007 -1.7474978
-44.190769 -14.358454 -0.81104827
-7.5602369 -2.4448037 -2.1290457
-8.7602348 -2.8294799 -2.1253376
-10.412189 -3.3610375 -2.1267571
-12.705548 -4.096437 -2.1143684
-16.370928 -5.2718968 -2.1117523
-22.85577 -7.3557892 -2.1006277
-31.748272 -10.205489 -1.747707
-44.291451 -14.228957 -0.81202561
-7.574245 -2.4201641 -2.1305985
-8.7602863 -2.7974498 -2.1230881
-10.420115 -3.3234804 -2.125994
-12.726589 -4.0566802 -2.1156199
-16.392101 -5.2187834 -2.1122396
-22.885105 -7.2771702 -2.1009762
-31.85808 -10.124347 -1.751894
-7.5822287 -2.3950336 -2.1305985
-8.7607059 -2.763922 -2.1208386
-10.440441 -3.2918591 -2.127902
-12.744442 -4.0134182 -2.1162457
-16.406433 -5.1603408 -2.1117523
-22.93572 -7.2096033 -2.1034167
-31.885605 -10.010687 -1.7514753
-7.5886989 -2.3679764 -2.1300809
-8.7791252 -2.7377558 -2.1230881
-10.436872 -3.2507246 -2.1248491
-12.765224 -3.9734817 -2.1174972
-16.419662 -5.1047268 -2.1112647
-22.930302 -7.1200509 -2.1006277
-31.975849 -9.9226513 -1.7546154
-7.5858417 -2.338058 -2.1269751
-8.7853756 -2.7044132 -2.1221881
-10.451909 -3.2154272 -2.1256123
-12.775927 -3.9255075 -2.1168714
-16.457241 -5.0503354 -2.1137023
-22.956244 -7.0359588 -2.1006277
-32.054016 -9.8182468 -1.7569181
-7.5962081 -2.310801 -2.1274927
-8.8022203 -2.6759973 -2.1239879
-10.474895 -3.1805198 -2.127902
-12.786447 -3.8775115 -2.1162457
-16.470968 -4.9917059 -2.1132145
-22.988295 -6.9580865 -2.1013248
-32.120377 -9.7099524 -1.758593
-7.6060777 -2.2848268 -2.1280103
-8.8063698 -2.6420374 -2.1226382
-10.485933 -3.1439359 -2.127902
-12.799905 -3.8328516 -2.1162457
-16.489153 -4.9313068 -2.1132145
-23.01244 -6.8778043 -2.1013248
-32.173214 -9.6034842 -1.7596397
-7.612155 -2.257715 -2.1274927
-8.8113451 -2.6117139 -2.1217382
-10.489313 -3.1050873 -2.1263754
-12.82012 -3.792628 -2.1174972
-16.513031 -4.8788495 -2.1141896
-23.040131 -6.7985616 -2.1016734
-32.197224 -9.4944801 -1.7592211
-46.304333 -13.636891 -0.84256732
-7.6195998 -2.2324595 -2.1274927
-8.8278904 -2.5831277 -2.123538
-10.495784 -3.0691838 -2.1256123
-12.833282 -3.7478514 -2.1174972
-16.52615 -4.820066 -2.1137023
-23.054897 -6.7198892 -2.1009762
-32.272354 -9.3943205 -1.7615237
-7.6254907 -2.2053118 -2.1269751
-8.8401508 -2.5549228 -2.1244378
-10.506433 -3.0325277 -2.1256123
-12.853232 -3.7074635 -2.1187487
-16.545858 -4.766336 -2.1141896
-23.070557 -6.6371675 -2.1002791
-32.364754 -9.3049078 -1.7648733
-7.6290474 -2.1789513 -2.1259398
-8.8490162 -2.5240493 -2.1244378
-10.508882 -2.9955177 -2.1240859
-44.368759 -12.638778 4.0361824
-12.854696 -3.6593294 -2.1168714
-16.558575 -4.7074642 -2.1137023
-23.111605 -6.566071 -2.1020222
-32.431625 -9.2016821 -1.7667575
-46.249901 -13.104852 -0.83907682
-7.6421843 -2.1538794 -2.1274927
-8.8446407 -2.4894485 -2.1212883
-10.526832 -2.9609423 -2.1256123
-12.871193 -3.6155066 -2.1174972
-16.590199 -4.6539207 -2.1156518
-23.122869 -6.4821334 -2.1009762
-32.486626 -9.0948782 -1.7680135
-7.6589618 -2.1297793 -2.1300809
-8.855155 -2.4590814 -2.1217382
-10.533319 -2.923131 -2.1248491
-12.887544 -3.5716107 -2.1181231
-16.579556 -4.588572 -2.1122396
-23.154156 -6.3994575 -2.1016734
-32.522026 -8.9824934 -1.7682229
-7.6611276 -2.1001594 -2.1285279
-8.8693237 -2.4297025 -2.1230881
-10.538282 -2.8829479 -2.1237042
-12.90817 -3.5264339 -2.1193743
-16.603132 -4.5327611 -2.1132145
-23.172508 -6.3175521 -2.1013248
-32.608688 -8.8779249 -1.7711537
-7.6590877 -2.0708849 -2.1259398
-8.8838139 -2.3987 -2.1244378
-10.548282 -2.8461447 -2.1237042
-12.905142 -3.4772422 -2.1168714
-16.615799 -4.4708452 -2.1127272
-23.171331 -6.2304177 -2.0992332
-32.616329 -8.7578278 -1.7698975
-7.664403 -2.0436394 -2.1254222
-8.8860703 -2.3677216 -2.1230881
-10.563843 -2.8108234 -2.1248491
-12.916602 -3.4344277 -2.1168714
-16.642048 -4.4187813 -2.1141896
-23.181385 -6.1464329 -2.0981872
-32.691528 -8.6618958 -1.7724097
-7.6730061 -2.0187032 -2.1259398
-8.8867416 -2.334708 -2.1212883
-10.582602 -2.7782698 -2.1267571
-12.936155 -3.3913231 -2.1181231
-16.65353 -4.359653 -2.1137023
-23.217058 -6.0735598 -2.099582
-32.725433 -8.5487385 -1.7726191
-7.6874852 -1.9938465 -2.1280103
-47.599804 -12.336734 0.85830939
-8.8967237 -2.3041639 -2.1217382
-10.588433 -2.7403283 -2.125994
-12.944087 -3.3451607 -2.1174972
-16.657114 -4.2985177 -2.1122396
-23.222683 -5.9885049 -2.0981872
-32.78989 -8.4434166 -1.7745031
-7.6943989 -1.9669981 -2.1280103
-8.9084892 -2.2740583 -2.1226382
-10.58652 -2.7004366 -2.1237042
-12.951858 -3.2989817 -2.1168714
-47.676464 -12.134851 6.0405765
-16.675861 -4.2413292 -2.1127272
-23.243446 -5.9074054 -2.0981872
-32.830776 -8.3318615 -1.7751312
-7.6843581 -1.9358819 -2.1233516
-8.9201527 -2.2438986 -2.123538
-10.603498 -2.6653831 -2.1252308
-12.974792 -3.256633 -2.1187487
-16.698271 -4.1850243 -2.1137023
-23.260061 -5.8252611 -2.0978386
-32.867413 -8.2191477 -1.7755499
-7.6948185 -1.9099772 -2.1243868
-8.9354973 -2.2146227 -2.1253376
-10.608927 -2.6274097 -2.1244676
-12.986079 -3.2113254 -2.1187487
-16.701212 -4.1238551 -2.1122396
-23.280251 -5.7440372 -2.0978386
-32.926926 -8.1120043 -1.7772245
-7.7051926 -1.8840234 -2.1254222
-8.9299202 -2.1801827 -2.1221881
-10.627569 -2.5926876 -2.1263754
-12.981856 -3.1622357 -2.1162457
-16.727079 -4.068346 -2.1137023
-23.288544 -5.659915 -2.0967927
-32.916225 -7.9876051 -1.7751312
-7.7173557 -1.8584741 -2.1269751
-8.943161 -2.1503649 -2.123538
-10.64419 -2.5574114 -2.127902
-13.000498 -3.1187439 -2.1174972
-16.737318 -4.0090075 -2.1132145
-23.319784 -5.5813704 -2.0978386
-32.982754 -7.8819408 -1.7772245
-7.7143979 -1.8292935 -2.1243868
-8.9544039 -2.120034 -2.1244378
-10.637769 -2.5166221 -2.1248491
-13.018995 -3.0751641 -2.1187487
-16.739618 -3.947825 -2.1117523
-23.315853 -5.4944563 -2.095747
-33.02951 -7.7713351 -1.7782712
-7.7226176 -1.8027929 -2.1249044
-8.96175 -2.0887642 -2.1244378
-10.642666 -2.4785836 -2.1240859
-13.037348 -3.0314867 -2.1200001
-16.753296 -3.8893721 -2.1117523
-23.319365 -5.4094272 -2.0943525
-33.075893 -7.6605067 -1.779318
-7.7288632 -1.7758266 -2.1249044
-8.9724274 -2.0599065 -2.1253376
-10.655079 -2.4422977 -2.1248491
-13.028071 -2.983829 -2.1168714
-16.781582 -3.8373342 -2.1137023
-23.34976 -5.3306546 -2.0953984
-33.101116 -7.5507798 -1.779318
-7.7328253 -1.7497605 -2.1243868
-8.9681578 -2.0259974 -2.1226382
-10.670778 -2.4086795 -2.1263754
-13.0307 -2.9365938 -2.1156199
-16.787127 -3.7769883 -2.1127272
-23.340096 -5.247076 -2.092958
-33.135067 -7.4369378 -1.7797366
-7.7502003 -1.7252755 -2.1274927
-8.9710226 -1.9954002 -2.1217382
-10.675288 -2.3705654 -2.1256123
-13.051937 -2.8959363 -2.1174972
-16.799559 -3.7212987 -2.1127272
-23.354376 -5.1647162 -2.0926092
-33.182949 -7.3321872 -1.7809929
-7.756175 -1.6982116 -2.1274927
-8.9839869 -1.9637545 -2.1230881
-10.685417 -2.3337059 -2.125994
-13.062463 -2.8480787 -2.1174972
-16.80533 -3.6580076 -2.1117523
-23.4112 -5.0916305 -2.0960956
-33.248638 -7.2189837 -1.7830863
-7.7488351 -1.6682825 -2.1238692
-9.0003138 -1.9344299 -2.1253376
-10.687738 -2.2951581 -2.1248491
-13.072326 -2.8024645 -2.1174972
-16.821877 -3.600158 -2.1122396
-27.633064 -5.9088864 4.4755902
-23.397657 -5.0032129 -2.0933065
-33.293163 -7.1070561 -1.7841328
-7.7602825 -1.642422 -2.1254222
-9.0089169 -1.9034059 -2.1257875
-10.707211 -2.2602673 -2.1271389
-13.082028 -2.7568192 -2.1174972
-16.842112 -3.5430508 -2.1132145
-27.475674 -5.7750177 4.4468064
-23.411079 -4.9206944 -2.092958
-33.442871 -7.017046 -1.7908319
-7.7697511 -1.6161101 -2.1264575
-9.0002413 -1.8687775 -2.1221881
-10.70927 -2.2216816 -2.125994
-13.083837 -2.7095323 -2.1162457
-16.850487 -3.4834387 -2.1127272
-27.499538 -5.6798668 4.4474325
-23.424212 -4.8381319 -2.0926092
-33.455425 -6.8978448 -1.7902039
-7.77913 -1.5897539 -2.1274927
-9.0124397 -1.8385156 -2.123538
-10.713111 -2.1835039 -2.1252308
-13.104829 -2.6662071 -2.1181231
-16.854765 -3.4230182 -2.1117523
-27.627609 -5.6058373 4.4649529
-23.464388 -4.7610903 -2.0947011
-33.538025 -6.7929153 -1.7933441
-7.7808437 -1.5618294 -2.1264575
-62.172424 -12.468413 1.1068316
-9.0188017 -1.8070471 -2.123538
-10.724518 -2.1468651 -2.125994
-13.106307 -2.6188977 -2.1168714
-16.882185 -3.3672647 -2.1137023
-23.484774 -4.679934 -2.0950499
-33.635971 -6.6906099 -1.7973217
-7.7786665 -1.5331652 -2.1243868
-62.195946 -12.247465 1.1064825
-9.0403509 -1.7785636 -2.1271372
-10.737726 -2.1105521 -2.1271389
-13.128936 -2.5757968 -2.1190615
-16.88994 -3.3075509 -2.1132145
-23.473589 -4.592577 -2.0926092
-33.706165 -6.5823445 -1.7998338
-7.7801776 -1.5052671 -2.1233516
-62.23439 -12.029526 1.1064128
-9.0350237 -1.7447789 -2.1244378
-10.739244 -2.071939 -2.125994
-13.108752 -2.5243495 -2.1143684
-16.90918 -3.2500765 -2.1141896
-23.493393 -4.5113621 -2.092958
-33.779934 -6.4744296 -1.8025552
-7.7910781 -1.4791828 -2.1249044
-62.217064 -11.801032 1.1053656
-9.0372295 -1.7125064 -2.123538
-10.765702 -2.0380938 -2.1298101
-13.125248 -2.4800394 -2.1156199
-16.912619 -3.1895602 -2.1132145
-23.520744 -4.4315343 -2.0940039
-33.814106 -6.3586898 -1.8031832
-7.8018923 -1.4530388 -2.1264575
-62.246082 -11.5816 1.1051562
-9.0469847 -1.6816598 -2.1244378
-10.766959 -1.9994262 -2.1286652
-13.141595 -2.4356513 -2.1168714
-16.91584 -3.12906 -2.1122396
-23.53215 -4.3486853 -2.0936551
-33.887161 -6.2500277 -1.8059046
-7.8069162 -1.4257979 -2.1264575
-62.211376 -11.350595 1.1038297
-9.0508823 -1.6497202 -2.1239879
-10.750697 -1.9576098 -2.1240859
-13.157791 -2.3911765 -2.1181231
-16.914406 -3.0708201 -2.1107774
-23.539347 -4.2650952 -2.092958
-33.920567 -6.1338406 -1.8065327
-7.8077993 -1.3992177 -2.1254222
-62.110886 -11.119576 1.1013864
-9.0582218 -1.6200401 -2.1244378
-10.764858 -1.9233289 -2.1256123
-13.169538 -2.3482234 -2.1187487
-16.928404 -3.015408 -2.1112647
-23.565128 -4.1891036 -2.0940039
-34.058712 -6.042254 -1.8128129
-7.8047848 -1.3719802 -2.1233516
-62.12772 -10.910088 1.1010374
-9.0693026 -1.5910028 -2.1257875
-10.771177 -1.8876203 -2.1256123
-13.169468 -2.3031769 -2.1174972
-16.950558 -2.9583497 -2.1127272
-23.555338 -4.1068282 -2.091912
-34.113979 -5.9354472 -1.814697
-7.8171425 -1.3460411 -2.1254222
-62.04324 -10.672136 1.0988734
-9.0632772 -1.5573549 -2.1230881
-10.78544 -1.8513414 -2.1271389
-13.173533 -2.2565255 -2.1168714
-16.964697 -2.899828 -2.1132145
-23.58917 -4.0279326 -2.0936551
-34.16206 -5.8210192 -1.8161626
-7.8275075 -1.3197092 -2.1269751
-62.005184 -10.442863 1.0975469
-9.0667372 -1.5253874 -2.1226382
-10.791837 -1.8136816 -2.1271389
-13.18133 -2.2105303 -2.1168714
-16.959053 -2.837971 -2.1112647
-23.614876 -3.9475424 -2.0947011
-34.217628 -5.7076497 -1.8180467
-7.8282552 -1.2917488 -2.1259398
-9.0832825 -1.497214 -2.1253376
-10.80004 -1.7763158 -2.1275203
-13.204182 -2.169369 -2.1193743
-16.96837 -2.7817163 -2.1112647
-23.636377 -3.8663733 -2.0953984
-34.303383 -5.6050968 -1.8216053
-7.8286805 -1.2651656 -2.1249044
-9.0923004 -1.4661183 -2.1262374
-10.796179 -1.7389327 -2.1256123
-13.203874 -2.1220105 -2.1181231
-16.989737 -2.7243581 -2.1127272
-23.6471 -3.7876544 -2.0952239
-34.468689 -5.5086541 -1.8293512
-7.8349576 -1.2381339 -2.1254222
-9.0973625 -1.4343711 -2.1262374
-10.806062 -1.7018471 -2.1263754
-13.195587 -2.0734537 -2.1156199
-17.003065 -2.6656508 -2.1132145
-23.660179 -3.7050872 -2.0952239
-34.570587 -5.4012504 -1.8337474
-7.8373222 -1.2104801 -2.1249044
-9.0830536 -1.3996407 -2.1217382
-10.81776 -1.6650124 -2.1275203
-13.210555 -2.0285821 -2.1168714
-17.004417 -2.6050797 -2.1122396
-23.700541 -3.6266935 -2.0976644
-34.561588 -5.2763224 -1.8322821
-7.8453207 -1.1836919 -2.1259398
-9.0898113 -1.368214 -2.1221881
-10.827387 -1.6278245 -2.1282835
-13.22537 -1.9836248 -2.1181231
-17.005554 -2.5445359 -2.1112647
-23.716997 -3.5445292 -2.0980129
-34.611401 -5.1603675 -1.8339567
-7.845582 -1.1557376 -2.1249044
-9.1041718 -1.3378927 -2.1244378
-10.821349 -1.5883117 -2.125994
-13.224396 -1.9363023 -2.1168714
-17.014334 -2.4851556 -2.1112647
-23.744997 -3.4640205 -2.0994074
-34.739883 -5.0556178 -1.8398185
-7.834271 -1.1261452 -2.1207633
-9.1126451 -1.3066603 -2.1253376
-10.819054 -1.549415 -2.1244676
-13.234983 -1.8906903 -2.1174972
-17.034695 -2.427429 -2.1127272
-23.752998 -3.3805573 -2.0990589
-34.808735 -4.9416203 -1.8425398
-7.8496327 -1.1004007 -2.1238692
-9.1075001 -1.2734935 -2.1230881
-10.834118 -1.5129945 -2.1263754
-13.225851 -1.8422996 -2.1149943
-17.043064 -2.3679554 -2.1127272
-23.812017 -3.3041947 -2.1032424
-34.873249 -4.8266635 -1.845052
-7.853426 -1.0729934 -2.1238692
-9.1080284 -1.2411681 -2.1221881
-10.843224 -1.4756991 -2.1271389
-13.228288 -1.7955898 -2.1143684
-17.04336 -2.3073843 -2.1117523
-23.81156 -3.2194471 -2.1021965
-34.969063 -4.7155805 -1.849239
-7.8647842 -1.0465926 -2.1259398
-9.1103735 -1.2091111 -2.1217382
-10.840524 -1.436808 -2.1256123
-13.238391 -1.7499207 -2.1149943
-17.039501 -2.2463202 -2.1102896
-23.822653 -3.1363091 -2.1021965
-35.044716 -4.6012855 -1.852379
-7.8683901 -1.0191327 -2.1259398
-9.1143332 -1.1788952 -2.1217382
-10.841579 -1.3984562 -2.1248491
-13.251959 -1.70702 -2.1162457
-17.054731 -2.1908143 -2.1112647
-23.861122 -3.0566826 -2.1046369
-35.119217 -4.4926496 -1.8555192
-7.8583093 -0.99134177 -2.1223164
-9.1222601 -1.1475571 -2.1226382
-10.842262 -1.3620069 -2.1240859
-13.261756 -1.6612422 -2.1168714
-17.070154 -2.1322563 -2.1122396
-23.894852 -2.9804978 -2.1067286
-35.190178 -4.3769259 -1.8584501
-7.8655562 -0.96437687 -2.1233516
-9.1262102 -1.1157072 -2.1226382
-10.858641 -1.3255814 -2.1263754
-13.251787 -1.6130302 -2.1143684
-17.085377 -2.0736096 -2.1132145
-23.901154 -2.8965909 -2.10638
-35.248867 -4.2593412 -1.8607527
-7.8765488 -0.9378286 -2.1254222
-9.1184387 -1.0824676 -2.1199389
-10.867102 -1.2881316 -2.1271389
-13.265183 -1.567693 -2.1156199
-17.096455 -2.0144219 -2.1137023
-23.958612 -2.8187294 -2.1105635
-35.303192 -4.1409264 -1.8628463
-63.420101 -7.4164896 -1.1145456
-7.8874502 -0.91121322 -2.1274927
-9.1299047 -1.0515233 -2.1217382
-10.871532 -1.2501876 -2.1271389
-13.262725 -1.5204792 -2.1143684
-17.091547 -1.953379 -2.1122396
-23.984138 -2.7368932 -2.1119578
-35.424595 -4.0298595 -1.8684986
-7.8848233 -0.88303202 -2.1259398
-9.1315823 -1.019431 -2.1212883
-10.856319 -1.2100562 -2.1233225
-13.283658 -1.4759159 -2.1168714
-17.086424 -1.8923991 -2.1107774
-24.001471 -2.654026 -2.1126552
-35.490059 -3.9118769 -1.87122
-7.8782544 -0.85446167 -2.1233516
-9.1467104 -0.98880398 -2.1239879
-10.870235 -1.1732088 -2.1252308
-13.280872 -1.4286927 -2.1156199
-17.08503 -1.8318975 -2.1098022
-24.002663 -2.5693798 -2.1119578
-35.614716 -3.7998261 -1.8770815
-7.88311 -0.82715762 -2.1238692
-9.1442919 -0.9562639 -2.1226382
-10.880122 -1.1358687 -2.1263754
-13.277921 -1.3815104 -2.1143684
-17.107117 -1.7738822 -2.1117523
-24.03923 -2.4884562 -2.1143982
-35.647629 -3.6775327 -1.8781283
-7.8936381 -0.80041665 -2.1259398
-9.1398182 -0.92355454 -2.1208386
-10.872302 -1.0967033 -2.1240859
-13.27873 -1.3347578 -2.1137428
-17.105305 -1.7133685 -2.1107774
-24.059666 -2.4057174 -2.1154442
-35.688072 -3.5558567 -1.8795937
-7.9002295 -0.77323204 -2.1269751
-9.1468658 -0.89202309 -2.1217382
-10.885834 -1.0596932 -2.125994
-13.306902 -1.2906862 -2.1174972
-17.115131 -1.6540308 -2.1112647
-24.087749 -2.3236313 -2.1171873
-35.779793 -3.4389031 -1.8837807
-7.8990335 -0.7452873 -2.1259398
-9.1536541 -0.86205119 -2.1226382
-10.883602 -1.0211376 -2.1248491
-13.303244 -1.2458147 -2.1162457
-17.124477 -1.5976341 -2.1117523
-24.11952 -2.2417471 -2.1192791
-35.791 -3.3202329 -1.8837807
-7.8937654 -0.71838832 -2.1238692
-9.1624298 -0.83062345 -2.1239879
-10.879108 -0.98433262 -2.1233225
-13.315379 -1.2000821 -2.1174972
-17.133902 -1.5382032 -2.1122396
-24.134756 -2.1624677 -2.1199763
-35.961517 -3.209481 -1.8921545
-7.8923764 -0.69049263 -2.122834
-9.1594496 -0.79812777 -2.1226382
-10.898124 -0.94771183 -2.1263754
-13.311616 -1.1529102 -2.1162457
-17.139166 -1.4783889 -2.1122396
-24.142159 -2.078202 -2.1199763
-35.972504 -3.0839398 -1.8921545
-7.9082141 -0.66407216 -2.1264575
-9.1582956 -0.76582325 -2.1217382
-10.901365 -0.90966678 -2.1263754
-13.315559 -1.1064366 -2.1162457
-17.144222 -1.4185526 -2.1122396
-24.188978 -1.9971957 -2.1234624
-36.042767 -2.9632537 -1.8952944
-7.9085584 -0.63630813 -2.1259398
-9.1570272 -0.73354083 -2.1208386
-10.896646 -0.87098241 -2.1248491
-13.31934 -1.0599527 -2.1162457
-17.153028 -1.3590083 -2.1127272
-24.22361 -1.9149516 -2.1259029
-36.0728 -2.8389888 -1.8963412
-7.9126573 -0.60884619 -2.1264575
-9.1711912 -0.70246518 -2.123538
-10.911366 -0.83383799 -2.1271389
-13.334777 -1.0143517 -2.1181231
-27.313744 -2.0729046 3.3633504
-17.165586 -1.2997282 -2.1137023
-24.226171 -1.8300829 -2.1255541
-36.201984 -2.7220466 -1.9026215
-7.9051008 -0.58051449 -2.1238692
-9.1677561 -0.670021 -2.1221881
-10.902461 -0.79488826 -2.1248491
-13.346117 -0.96836984 -2.1193743
-27.269335 -1.9738288 3.3570132
-17.173979 -1.2400866 -2.1141896
-27.353287 -1.9703082 4.3435597
-24.208565 -1.7437881 -2.1234624
-36.286968 -2.6010871 -1.906599
-7.9012985 -0.55251259 -2.1223164
-9.1719837 -0.63815266 -2.1226382
-10.901254 -0.75655466 -2.1240859
-13.33365 -0.92068827 -2.1168714
-27.228531 -1.8753549 3.3511634
-17.178204 -1.1801302 -2.1141896
-27.292992 -1.8702233 4.3329225
-24.258236 -1.6622698 -2.1272974
-36.371552 -2.4795671 -1.9105766
-7.9185996 -0.52595252 -2.1264575
-9.1644325 -0.60548776 -2.1203887
-10.923417 -0.71978801 -2.127902
-13.340725 -0.87439758 -2.1174972
-27.274527 -1.7828871 3.3560383
-17.194101 -1.1209383 -2.1156518
-27.34272 -1.7777603 4.3398051
-24.271843 -1.578099 -2.1279945
-36.395927 -2.3536129 -1.911414
-7.9280987 -0.49879512 -2.1285279
-90.580086 -5.6829395 1.5841898
-9.164546 -0.57337236 -2.1199389
-10.919986 -0.68128937 -2.1267571
-13.34764 -0.82806873 -2.1181231
-27.351912 -1.6920886 3.3648129
-17.18206 -1.0599304 -2.1137023
-27.439457 -1.6878837 4.3541975
-24.289137 -1.4940982 -2.1290405
-36.475689 -2.2309501 -1.9151822
-7.9278631 -0.47100303 -2.1280103
-9.1742716 -0.54184008 -2.1217382
-10.912498 -0.64258999 -2.1248491
-13.360309 -0.78205168 -2.1196871
-17.205471 -1.0010999 -2.1161394
-24.298182 -1.4095401 -2.129389
-36.523132 -2.1059113 -1.9172757
-7.9178858 -0.44267765 -2.1249044
-9.1799994 -0.5100286 -2.1226382
-10.914674 -0.60449147 -2.1248491
-13.359012 -0.73519325 -2.1190615
-17.19697 -0.94038892 -2.114677
-24.302954 -1.3247143 -2.129389
-36.725704 -1.9889926 -1.9275335
-7.9155245 -0.41483578 -2.1238692
-9.1856165 -0.47818366 -2.123538
-10.92456 -0.56679761 -2.1263754
-13.359524 -0.68845189 -2.1187487
-17.208078 -0.88075995 -2.1156518
-24.303452 -1.2396636 -2.1290405
-36.716469 -1.8599833 -1.9266962
-7.9264364 -0.3904413 -2.1264575
-9.1734476 -0.44865707 -2.1203887
-10.93413 -0.53285611 -2.127902
-13.345838 -0.64571726 -2.1162457
-17.218689 -0.82707494 -2.1166267
-24.33927 -1.1605868 -2.1318295
-36.861782 -1.7512501 -1.9340231
-7.9393935 -0.36191452 -2.1295633
-9.1788511 -0.4168095 -2.1212883
-10.939932 -0.49295348 -2.1286652
-13.356007 -0.59714741 -2.1174972
-17.213541 -0.76661181 -2.1156518
-24.355116 -1.0761411 -2.1328754
-36.927811 -1.6187654 -1.9371632
-7.929028 -0.33371103 -2.1264575
-9.1881056 -0.38348949 -2.1230881
-10.929816 -0.45427349 -2.1263754
-13.365906 -0.55085081 -2.1187487
-17.228136 -0.70400602 -2.1171145
-24.366686 -0.99144846 -2.1335726
-36.973152 -1.4914536 -1.9392567
-7.9340048 -0.30618218 -2.1274927
-9.1971769 -0.35171223 -2.1248875
-10.927412 -0.41597149 -2.1256123
-13.367746 -0.5041914 -2.1187487
-17.222551 -0.64356315 -2.1161394
-24.377962 -0.90668231 -2.1342697
-37.014057 -1.3637155 -1.9411408
-7.9273033 -0.27821425 -2.1254222
-9.1944542 -0.31947258 -2.1239879
-10.94842 -0.3785032 -2.1294286
-13.367451 -0.45746145 -2.1184359
-17.248501 -0.58424723 -2.1190643
-24.38098 -0.82158118 -2.1342697
-37.134369 -1.238364 -1.9472117
-7.951396 -0.25127116 -2.1316338
-9.1876717 -0.28873569 -2.1221881
-10.957522 -0.34052479 -2.130955
-13.370869 -0.41318813 -2.1187487
-17.250343 -0.52704525 -2.1190643
-24.439459 -0.73815995 -2.1391504
-37.186184 -1.1166525 -1.9497238
-7.9541163 -0.22495821 -2.1321514
-9.1925201 -0.25677156 -2.1230881
-10.950742 -0.30397078 -2.1294286
-13.380129 -0.36673188 -2.1200001
-17.256046 -0.46693406 -2.1195517
-24.417871 -0.65646827 -2.1370587
-37.189857 -0.98684067 -1.9497238
-7.9471283 -0.19700007 -2.1300809
-9.197217 -0.22638223 -2.1239879
-10.943885 -0.26555029 -2.127902
-13.369423 -0.32207382 -2.1181231
-17.253531 -0.40961343 -2.1190643
-24.45587 -0.57206798 -2.1401963
-37.252823 -0.86489856 -1.9528642
-7.940012 -0.17048107 -2.1280103
-9.2057447 -0.19444092 -2.1257875
-10.960408 -0.22958608 -2.130955
-13.374414 -0.27548483 -2.1187487
-17.266766 -0.3496297 -2.1205268
-24.537312 -0.49256483 -2.1471689
-37.395397 -0.73762172 -1.9601911
-7.9521484 -0.14297047 -2.1311162
-9.2024689 -0.16223891 -2.1248875
-10.961143 -0.19132802 -2.130955
-13.38122 -0.22889872 -2.1196871
-17.279787 -0.28955433 -2.1219893
-24.598644 -0.40789506 -2.1523981
-37.457653 -0.60805434 -1.9633311
-7.9448729 -0.11509927 -2.1290457
-9.1990833 -0.13005777 -2.1239879
-10.969623 -0.15126024 -2.1324816
-13.374037 -0.18208022 -2.1184359
-17.296574 -0.22944504 -2.1239393
-24.564116 -0.31727606 -2.1492605
-37.575462 -0.47221613 -1.9694022
-7.9529681 -0.08606445 -2.1311162
-9.1917028 -0.096258782 -2.1221881
-10.981883 -0.11117259 -2.1347711
-13.396343 -0.13327664 -2.1218774
-17.277449 -0.16585754 -2.1215017
-24.541204 -0.22702034 -2.1471689
-37.600906 -0.3347047 -1.9706584
-7.9512982 -0.056898933 -2.1305985
-9.2017374 -0.062635012 -2.1244378
-10.966498 -0.072733521 -2.1317184
-13.408593 -0.084249921 -2.1237545
-17.28985 -0.1026059 -2.1229641
-24.557787 -0.14144529 -2.1485631
-37.645782 -0.20368767 -1.9729611
-7.945653 -0.029123807 -2.1290457
-9.1999521 -0.030507857 -2.1239879
-10.978465 -0.034492172 -2.1340079
-13.393003 -0.037400182 -2.1212516
-17.290102 -0.042247836 -2.1229641
-24.582039 -0.055775318 -2.150655
-37.70219 -0.072384425 -1.9758918
-7.9399104 -0.0013868911 -2.1274927
-9.207798 0.0016055767 -2.1257875
-10.960849 0.0038241725 -2.1305733
-13.400953 0.0093530435 -2.122503
-17.313965 0.018131567 -2.1258888
-24.374874 0.029774064 -2.1325266
-37.702213 0.05922227 -1.9758918
-7.9514585 0.02636913 -2.1305985
-9.1940947 0.033697039 -2.1226382
-10.972548 0.042132799 -2.132863
-13.400839 0.056131415 -2.122503
-17.341587 0.078690939 -2.1293013
-23.629478 0.11134746 -2.0673342
-37.9734 0.19219403 -1.9901272
-7.9609766 0.054188814 -2.1331868
-9.1919718 0.065776527 -2.1221881
-10.97626 0.080460355 -2.1336262
-13.404511 0.10294265 -2.1231289
-17.40473 0.13973437 -2.1371009
-23.07707 0.18930815 -2.0190499
-38.028416 0.32522404 -1.9930581
-7.9588079 0.081957802 -2.1326692
-9.2053452 0.096401051 -2.1253376
-10.960208 0.11860453 -2.1305733
-13.400146 0.14734691 -2.122503
-17.447838 0.19794585 -2.1424632
-22.869074 0.2674332 -2.0009215
-38.019142 0.45123571 -1.9926394
-7.9469013 0.10819222 -2.1295633
-9.203002 0.12850614 -2.1248875
-10.955829 0.15489414 -2.1298101
-13.407451 0.19423608 -2.1237545
-17.42124 0.25846666 -2.1392946
-22.86607 0.34323931 -2.0007472
-38.097221 0.58517265 -1.9968263
-7.9503388 0.13599773 -2.1305985
-9.2044754 0.15905555 -2.1253376
-10.963071 0.1932749 -2.1313365
-13.402783 0.23862273 -2.1231289
-17.422272 0.31627285 -2.1395385
-22.486242 0.41605228 -1.9676279
-38.254822 0.71448946 -2.0052001
-7.945981 0.16228268 -2.1295633
-9.1902246 0.19090332 -2.1221881
-10.976111 0.22991695 -2.1340079
-13.413718 0.28566164 -2.125006
-17.436937 0.37742594 -2.1414883
-22.233759 0.48514158 -1.9456648
-38.415829 0.85164112 -2.013783
-7.9550223 0.1902476 -2.1321514
-9.1875544 0.22293502 -2.1217382
-10.965428 0.26798716 -2.1320999
-13.408689 0.33238497 -2.1243804
-17.427576 0.438095 -2.1405134
-22.186121 0.56158996 -1.9416556
-7.9601035 0.21817365 -2.1337044
-9.1945124 0.2552186 -2.123538
-10.954614 0.30598822 -2.1301918
-13.419295 0.3795203 -2.1262577
-17.431894 0.49909693 -2.1412446
-21.076717 0.6071291 -1.8447384
-7.9361219 0.24524246 -2.1274927
-9.1877213 0.28712949 -2.1221881
-10.959364 0.34441298 -2.1313365
-13.41789 0.42636046 -2.1262577
-17.465757 0.56108612 -2.1456318
-21.948671 0.70893389 -1.9212611
-7.9409623 0.27452853 -2.1290457
-9.200242 0.32127851 -2.1253376
-10.963916 0.38478297 -2.1324816
-13.426105 0.47588983 -2.1278217
-17.298925 0.61920816 -2.1254015
-21.955881 0.78973871 -1.9221327
-7.9438167 0.30239317 -2.1300809
-9.1835461 0.35119042 -2.1217382
-10.960544 0.4229764 -2.1320999
-13.481698 0.52262944 -2.1368952
-16.971474 0.6638422 -2.0854285
-21.839512 0.86189121 -1.9121969
-7.9447002 0.32881436 -2.1305985
-9.1822643 0.38324511 -2.1217382
-10.966927 0.45964983 -2.1336262
-13.446239 0.56826538 -2.1315763
-16.641808 0.70913965 -2.0452116
-21.78677 0.93218052 -1.9078392
-7.9454336 0.35662946 -2.1311162
-9.1887312 0.41404372 -2.123538
-10.949566 0.49721399 -2.1305733
-13.438361 0.61258221 -2.1306376
-16.337948 0.75046939 -2.0081632
-21.761492 1.0072122 -1.9059218
-38.982399 1.8110853 -2.0451849
-7.9364896 0.38260376 -2.1290457
-9.195015 0.44649422 -2.1253376
-10.951777 0.5337128 -2.1313365
-13.430223 0.65919697 -2.129699
-16.220236 0.80181479 -1.9940264
-21.688194 1.0797012 -1.8998208
-39.047649 1.9507369 -2.0489528
-7.9350338 0.4116919 -2.1290457
-9.1934013 0.47858614 -2.1253376
-10.961512 0.57446879 -2.1336262
-13.429688 0.70851785 -2.1300118
-16.235176 0.85937387 -1.99622
-21.630575 1.1525389 -1.8951144
-7.9374061 0.43959981 -2.1300809
-9.1760187 0.51141322 -2.1217382
-10.975122 0.6136052 -2.1366794
-13.427133 0.75539547 -2.1300118
-16.206154 0.91741085 -1.9930513
-21.564756 1.2245357 -1.8897108
-61.423843 3.5201631 -1.0739164
-7.9396801 0.4675312 -2.1311162
-9.1762171 0.54195219 -2.1221881
-10.984673 0.6526081 -2.1389689
-13.43047 0.8002671 -2.1309505
-15.94146 0.95547092 -1.9608778
-21.419147 1.2912911 -1.8773347
-7.9400139 0.49397781 -2.1316338
-9.1801052 0.57434744 -2.123538
-10.986367 0.68927729 -2.1397321
-13.445338 0.84826636 -2.1337664
-15.807275 1.0028166 -1.9447912
-21.215908 1.3496641 -1.8599035
-7.9266748 0.52093071 -2.1285279
-9.1819324 0.60664344 -2.1244378
-11.00936 0.72931004 -2.1446934
-13.448209 0.89558512 -2.1347051
-15.819523 1.0590532 -1.9467411
-21.260769 1.4270446 -1.8642613
-39.47794 2.6636515 -2.0736554
-7.9209542 0.54832828 -2.1274927
-9.1719837 0.63814992 -2.1226382
-10.996955 0.76705265 -2.1427851
-13.454853 0.9432137 -2.1362693
-15.772165 1.1111946 -1.9413787
-21.265596 1.5019524 -1.8651329
-7.9247723 0.57639492 -2.1290457
-9.1717596 0.66870379 -2.1230881
-10.996168 0.80557823 -2.1431668
-13.345267 0.98001462 -2.1193743
-15.758496 1.1627611 -1.9401602
-39.586369 2.9417715 -2.0803545
-7.9285965 0.60311115 -2.1305985
-9.1693697 0.70071548 -2.1230881
-10.969946 0.8402369 -2.1385872
-13.14087 1.0111347 -2.0874617
-15.599964 1.2058291 -1.9211485
-21.485306 1.6645199 -1.8853531
-7.932219 0.6312452 -2.1321514
-9.1610413 0.73225051 -2.1217382
-10.959118 0.8779 -2.1370609
-12.946267 1.041629 -2.0571134
-15.526408 1.25468 -1.9126177
-21.431704 1.7356433 -1.8811696
-7.916491 0.65781039 -2.1285279
-9.1661978 0.76487255 -2.123538
-10.963812 0.91680372 -2.1385872
-12.737833 1.0696262 -2.024575
-15.488306 1.3060308 -1.9084741
-20.879551 1.7643152 -1.8332338
-7.9064484 0.68477172 -2.1264575
-9.1770601 0.79804802 -2.1266873
-10.968369 0.95574844 -2.1401138
-12.57069 1.0997937 -1.998607
-15.491563 1.3607823 -1.9094491
-21.208685 1.8667105 -1.8626926
-7.9174781 0.71358031 -2.1300809
-9.1664553 0.82937276 -2.1248875
-10.976698 0.99509317 -2.1424036
-12.511691 1.1386513 -1.9898466
-15.457065 1.4121447 -1.905793
-20.864742 1.9098524 -1.8330595
-40.026222 3.6778948 -2.1065226
-7.9226327 0.74193382 -2.1321514
-9.1635046 0.86136484 -2.1248875
-10.977066 1.0337714 -2.1431668
-12.505673 1.1821327 -1.9895338
-15.410542 1.4621506 -1.9006745
-20.715137 1.969098 -1.8205091
-7.9123034 0.76883733 -2.1300809
-9.1972933 0.89694023 -2.1334357
-10.959714 1.0707463 -2.1404953
-12.515232 1.2271281 -1.9917238
-15.381637 1.513602 -1.8977495
-21.086851 2.0787292 -1.8538026
-7.899961 0.79548419 -2.1274927
-9.1787577 0.92587036 -2.1298366
-10.973488 1.1107759 -2.14393
-12.444274 1.2618484 -1.9810863
-15.358759 1.5627931 -1.895556
-20.667191 2.1102333 -1.8175458
-7.9011221 0.82207716 -2.1285279
-9.1638412 0.95668864 -2.1271372
-10.977555 1.1479765 -2.1454566
-12.243335 1.2846627 -1.9497994
-15.363081 1.6174353 -1.8967746
-21.115803 2.2268069 -1.8576375
-7.8982043 0.84965241 -2.1285279
-9.1488209 0.98741615 -2.1244378
-10.905165 1.1789033 -2.1320999
-12.152366 1.3180236 -1.9360331
-15.361288 1.6714789 -1.8972621
-19.772938 2.1550117 -1.7401515
-7.8990316 0.87764215 -2.1295633
-9.1375713 1.0184845 -2.1226382
-10.791719 1.2047621 -2.1107292
-12.151616 1.3608751 -1.9366589
-15.31788 1.7208791 -1.8926311
-20.949268 2.3572423 -1.8443898
-7.8978386 0.90542984 -2.1300809
-9.1417036 1.0512629 -2.1244378
-10.639221 1.2253534 -2.0817263
-12.021204 1.3887725 -1.9166353
-15.311779 1.7743422 -1.8926311
-20.723213 2.4050891 -1.8252156
-7.8792825 0.9311794 -2.1259398
-9.1437845 1.0838555 -2.1257875
-10.512056 1.2479036 -2.0576842
-11.965284 1.4246539 -1.9085008
-15.281839 1.8249552 -1.8897061
-20.554451 2.4582434 -1.8110963
-7.8836541 0.95961136 -2.1280103
-9.1476831 1.1167114 -2.1275871
-10.373174 1.2681515 -2.0313528
-11.950434 1.4652103 -1.9069364
-15.23203 1.8729547 -1.884344
-20.949146 2.5796516 -1.8466558
-7.924345 0.99264765 -2.1399159
-9.137929 1.1479055 -2.1262374
-10.269341 1.2918563 -2.0118902
-11.945247 1.5069193 -1.9069364
-15.196194 1.9197241 -1.880688
-19.382458 2.4554503 -1.7092985
-7.9056811 1.0169488 -2.1357749
-9.1340714 1.1782019 -2.1262374
-10.189064 1.3160952 -1.997007
-11.959775 1.5490551 -1.9100651
-15.146434 1.9644893 -1.8753256
-21.837971 2.8401258 -1.9266648
-7.8946047 1.0421464 -2.1337044
-9.13591 1.2092526 -2.1275871
-10.155214 1.3477798 -1.9912828
-11.985903 1.5928707 -1.9150709
-15.125711 2.0155134 -1.8736194
-21.875319 2.9226754 -1.9308484
-40.927727 5.4827342 -2.1640921
-7.8715882 1.0684762 -2.1285279
-9.1333466 1.2429943 -2.128037
-10.150208 1.3849891 -1.9912828
-11.983897 1.6373284 -1.9156966
-14.958919 2.0491166 -1.8538766
-20.255762 2.7818971 -1.7887844
-7.8657055 1.097055 -2.1280103
-9.1441708 1.2786183 -2.1316364
-10.162808 1.4228641 -1.9947174
-11.866313 1.6655869 -1.8978633
-15.043696 2.116931 -1.8653324
-21.964329 3.0946982 -1.9406097
-7.8694782 1.1255993 -2.1300809
-9.1418085 1.309211 -2.132086
-10.183043 1.4619576 -1.9996784
-11.886143 1.7085822 -1.9019306
-15.032665 2.1662405 -1.8648449
-22.128891 3.1967075 -1.9561234
-7.8580561 1.1505699 -2.1280103
-9.1101904 1.3371522 -2.1257875
-10.112099 1.4860132 -1.9867034
-47.132599 6.9347148 4.1679621
-11.880106 1.7500625 -1.9019306
-15.030903 2.219568 -1.865576
-22.143793 3.2738559 -1.9583895
-7.8559022 1.1782775 -2.1285279
-9.0360918 1.3585169 -2.109591
-10.013663 1.5072732 -1.9683858
-47.119926 7.1009789 4.1690078
-11.856345 1.7888719 -1.8991146
-15.076058 2.2800374 -1.872157
-22.140108 3.3523314 -1.9590867
-7.8498325 1.2053996 -2.1280103
-8.9523268 1.3778944 -2.091145
-9.915204 1.5278667 -1.950068
-11.922261 1.8414012 -1.9106908
-15.056236 2.3308303 -1.8706945
-22.319254 3.4591892 -1.9759949
-7.8436685 1.2324936 -2.1274927
-8.8415871 1.3924612 -2.0664005
-9.8167238 1.5477914 -1.9317504
-11.984052 1.8937985 -1.9216411
-15.026442 2.3799531 -1.8680135
-23.267334 3.6893439 -2.061059
-7.8507638 1.2617033 -2.1305985
-8.7270069 1.4056523 -2.040756
-9.8442116 1.5873597 -1.938238
-11.887665 1.9211229 -1.9072492
-15.076828 2.4419124 -1.8753256
-25.075481 4.0658312 -2.2224715
-7.8539367 1.2903546 -2.1326692
-8.6280746 1.4190874 -2.0187106
-9.8192387 1.6185223 -1.9344217
-11.842248 1.9541014 -1.9009918
-15.096067 2.4964306 -1.8787379
-25.159414 4.1696186 -2.2311869
-7.8458033 1.3157514 -2.1316338
-8.5596495 1.4385364 -2.0038638
-9.7208881 1.6354412 -1.9161041
-11.93275 2.0118449 -1.9166353
-15.198831 2.5679612 -1.8926311
-25.271175 4.2742934 -2.2423429
-7.8278337 1.3408494 -2.1280103
-8.5046396 1.4598349 -1.9921664
-9.7325335 1.6723559 -1.9195386
-11.910081 2.0508044 -1.9141324
-15.183906 2.6199837 -1.8918999
-25.104925 4.3363743 -2.2289209
-7.8402328 1.3711592 -2.1326692
-8.4534245 1.481442 -1.9813689
-9.8194551 1.7225993 -1.9378562
-11.852264 2.083477 -1.9059978
-25.068054 4.4201756 -2.2270036
-7.8430057 1.3998764 -2.1347394
-8.4251823 1.506822 -1.97597
-9.8017874 1.7547896 -1.9355664
-11.909083 2.136344 -1.9163225
-15.200412 2.7322485 -1.8962871
-25.085806 4.5136447 -2.2299666
-7.8418732 1.4279374 -2.1357749
-8.4160366 1.5355228 -1.9750704
-9.8265038 1.7946374 -1.9416724
-11.87435 2.1729236 -1.9119422
-15.184926 2.784214 -1.895556
-25.099293 4.6065788 -2.2325814
-42.179867 7.756669 -2.2476203
-7.8254452 1.4531841 -2.1326692
-8.4144573 1.5656042 -1.97597
-9.8182497 1.8285682 -1.9412909
-11.827855 2.2071126 -1.9056848
-15.276581 2.8561733 -1.9082304
-25.155521 4.707725 -2.2390308
-7.7671762 1.4704316 -2.118175
-8.4300022 1.5989593 -1.980919
-9.8214502 1.8646603 -1.9431988
-11.866653 2.2572429 -1.9131937
-15.369868 2.9291782 -1.9211485
-25.144806 4.7966323 -2.2395539
-7.6956058 1.4847264 -2.1000578
-8.3787317 1.6180378 -1.9701214
-9.7917509 1.8944575 -1.9386196
-11.855225 2.2958312 -1.912568
-15.395147 2.9869363 -1.9255358
-25.165068 4.891593 -2.2428658
-7.6280832 1.4979537 -2.0829759
-8.3252306 1.6378709 -1.9588737
-9.7757835 1.9250215 -1.9367114
-11.775431 2.3230536 -1.9009918
-15.532631 3.0699058 -1.94406
-25.158482 4.9769502 -2.2437375
-7.5584006 1.5116885 -2.065376
-8.2414093 1.6497867 -1.9404278
-9.7478304 1.9548851 -1.9325136
-11.899361 2.3885255 -1.9222668
-15.528204 3.1225717 -1.9447912
-25.203457 5.0773311 -2.2493153
-7.4865565 1.5258778 -2.0472586
-8.235014 1.6814194 -1.9404278
-9.7540636 1.9933535 -1.9351848
-11.907519 2.4377637 -1.9250828
-15.504432 3.1797833 -1.9433287
-25.227617 5.1784811 -2.2531502
-71.915443 14.801348 -1.2816001
-7.3960638 1.5343431 -2.0239649
-8.2465649 1.7122842 -1.9444768
-9.7047606 2.0185943 -1.9267894
-11.83555 2.4639516 -1.9147581
-15.486029 3.2295601 -1.9423537
-25.232788 5.2714062 -2.2552419
-7.3455696 1.549291 -2.0115416
-8.282485 1.7499225 -1.9543748
-9.738349 2.0592952 -1.9348032
-11.79016 2.497473 -1.9088136
-17.484484 3.7100608 -2.1946235
-25.238558 5.360014 -2.2573338
-7.2966723 1.5656029 -1.9996361
-8.266799 1.7767737 -1.9521253
-9.7195864 2.0907967 -1.9325136
-11.818061 2.5465164 -1.9147581
-17.498592 3.7769346 -2.1980357
-25.289803 5.463232 -2.2636089
-68.602242 14.869922 -1.2252636
-7.2666264 1.5857093 -1.9929067
-8.1196661 1.7748276 -1.9188325
-9.744833 2.1318445 -1.9390012
-11.861198 2.5991733 -1.9232055
-17.512445 3.8439517 -2.201448
-25.32896 5.5642962 -2.2688382
-68.600693 15.120491 -1.2261711
-7.242187 1.6068789 -1.9877304
-8.1895142 1.8200711 -1.9368286
-9.7181673 2.1615849 -1.9351848
-11.846269 2.6392725 -1.9222668
-17.522173 3.9102471 -2.2043729
-25.429939 5.6796036 -2.2796457
-7.2233419 1.6291739 -1.9841069
-8.1717062 1.8460703 -1.9341292
-9.7469473 2.2037184 -1.9424356
-11.846617 2.6827893 -1.9238312
-17.585852 3.9889524 -2.2141225
-25.472132 5.7824507 -2.2852235
-7.2100797 1.6526519 -1.9820364
-8.2035265 1.8818733 -1.9431273
-9.7277136 2.2350931 -1.940146
-11.724072 2.6959414 -1.905372
-17.580265 4.0490298 -2.2150974
-25.47509 5.876699 -2.2873154
-7.21773 1.6796175 -1.9856598
-8.0887299 1.8852819 -1.9174827
-9.7489281 2.2740269 -1.9458703
-11.830006 2.7638113 -1.9241441
-17.569889 4.1112766 -2.2155848
-25.51366 5.9747744 -2.2925446
-7.2249832 1.7079148 -1.9892832
-8.1370926 1.9265257 -1.9305301
-9.7371092 2.3071401 -1.945107
-47.13781 11.177653 4.2383838
-11.783768 2.7964234 -1.9181997
-17.570883 4.1762509 -2.2175348
-25.527538 6.0720973 -2.2956822
-7.2170992 1.7326719 -1.9887657
-8.0791616 1.9426173 -1.9183826
-9.7499943 2.3461657 -1.9493048
-11.825786 2.8500385 -1.9266472
-17.587074 4.2450123 -2.2214346
-25.556538 6.1733379 -2.3002143
-7.1471925 1.7422975 -1.9711659
-8.1518421 1.9902194 -1.9372785
-9.7360229 2.3787873 -1.9481598
-11.911703 2.9147742 -1.9422905
-17.599138 4.3129916 -2.2248468
-25.569666 6.2710462 -2.3033519
-7.0941854 1.7556334 -1.958225
